# .PCD v0.7 - Point Cloud Data file format
VERSION 0.7
FIELDS x y z intensity
SIZE 4 4 4 4
TYPE F F F F
COUNT 1 1 1 1
WIDTH 1303
HEIGHT 1
VIEWPOINT 0 0 0 1 0 0 0
POINTS 1303
DATA ascii
-0.15410423 -0.15874718 0.095086098 0
-0.20834827 -0.14519666 0.12798691 0
-0.13484669 -0.060608 0.096326828 0
-0.19216824 -0.048511982 0.13208199 0
-0.11752033 0.035738647 0.099590302 0
-0.17269039 0.051215082 0.13366413 0
-0.102561 0.12310396 0.101511 0
-0.14560032 0.14745642 0.13689327 0
-0.13924408 0.24672775 0.14070129 0
-0.14239216 0.34472436 0.13639355 0
-0.17942905 0.38193604 0.16260242 0
-0.12835026 0.42882973 0.1193924 0
-0.17041111 0.46443754 0.15065861 0
-0.097310066 -0.46921864 -0.0028734207 0
-0.15272331 -0.45744723 0.028845787 0
-0.073267937 -0.37024325 0.0064229965 0
-0.13391972 -0.36715627 0.040121078 0
-0.05761528 -0.28076464 0.011683464 0
-0.10271835 -0.26239097 0.048042297 0
-0.044538498 -0.19274803 0.0093584061 0
-0.079262733 -0.16317695 0.043667793 0
-0.065124512 -0.063897543 0.046021461 0
-0.059223175 0.032032773 0.054631233 0
-0.050427437 0.13391827 0.061559677 0
-0.039473534 0.22841707 0.056352615 0
-0.078190804 0.25626421 0.088528633 0
-0.027978897 0.30024654 0.039157867 0
-0.06577301 0.34524977 0.069883347 0
-0.074748039 0.44625157 0.069023132 0
0.024256706 -0.48391759 -0.093164444 0
-0.027452469 -0.47849131 -0.057732582 0
0.045337677 -0.37242568 -0.080809593 0
-0.0072956085 -0.3821665 -0.045035362 0
0.057342529 -0.32663465 -0.075645447 0
0.011407852 -0.27872896 -0.038590431 0
0.012223244 -0.18080163 -0.035842896 0
0.021718025 -0.082523242 -0.034059525 0
-0.013824463 -0.058018476 0.0012321472 0
0.041869164 0.018293217 -0.037743568 0
0.0025682449 0.030991122 -0.00062274933 0
0.060365677 0.10334635 -0.041846275 0
0.022542953 0.12795655 -0.0044517517 0
0.07804966 0.19653004 -0.04395771 0
0.031881332 0.23141271 -0.0082292557 0
0.023461342 0.33274186 -0.01164341 0
-0.016736031 0.37497184 0.01999855 0
0.034240723 0.42000049 -0.02999115 0
-0.0006980896 0.45104176 -0.00045204163 0
0.071105003 -0.48203385 -0.13036346 0
0.091851234 -0.38821274 -0.12000799 0
0.10515499 -0.29920524 -0.10894728 0
0.11848545 -0.20436336 -0.11449909 0
0.082377434 -0.17934144 -0.08825016 0
0.090267181 -0.088074595 -0.092387676 0
0.090341568 0.015607536 -0.081345081 0
0.097543716 0.1193213 -0.073007107 0
0.10662651 0.2095698 -0.071715832 0
0.088514328 0.24933797 -0.061576843 0
0.12582302 0.29727691 -0.093455315 0
0.087491989 0.32703632 -0.067523956 0
0.08195591 0.43483698 -0.074102879 0
0.1502676 -0.39436617 -0.16820049 0
-0.053192139 -0.41659579 -0.16236401 0
-0.095232964 -0.4304738 -0.13121223 0
-0.023456573 -0.32030702 -0.15854359 0
-0.025080681 -0.22498502 -0.14371872 0
-0.034999847 -0.1566104 -0.13554287 0
-0.057884216 -0.1193113 -0.11907768 0
-0.021047592 -0.49136722 -0.20689106 0
0.21836567 -0.42064619 -0.3442421 0
0.13527298 -0.42814884 -0.29175854 0
0.046863556 -0.41537252 -0.23514509 0
-0.01017952 -0.41672271 -0.19509697 0
0.21417522 -0.33203122 -0.32869625 0
0.15350246 -0.322658 -0.28747606 0
0.066727638 -0.3195948 -0.22495556 0
0.013363838 -0.30980921 -0.18355894 0
0.21549606 -0.24854104 -0.31969213 0
0.16325283 -0.22122338 -0.28045416 0
0.07715416 -0.22218955 -0.21756315 0
0.011385918 -0.20423993 -0.16985369 0
0.15907001 -0.1380749 -0.27611971 0
0.092365265 -0.12059224 -0.22750807 0
0.0050191879 -0.11251697 -0.16422796 0
-0.043437958 -0.11102001 -0.12954903 0
0.15601254 -0.057423562 -0.27276373 0
0.093069077 -0.016849592 -0.22677946 0
0.015148163 -0.0069600344 -0.16948271 0
-0.039344788 -0.0040295273 -0.12566948 0
0.088464737 0.07954888 -0.22255182 0
0.032297134 0.089774832 -0.17587948 0
-0.033840179 0.089985937 -0.11690617 0
0.079253197 0.14365728 -0.20988035 0
0.0470047 0.18495421 -0.17564964 0
-0.023087502 0.19612744 -0.11179066 0
0.03690052 0.27559191 -0.16436863 0
-0.033060074 0.29703739 -0.10636044 0
-0.089003563 0.32475543 -0.063199997 0
0.024104118 0.35908854 -0.16063356 0
-0.028312683 0.40013289 -0.12032986 0
-0.09004879 0.40441984 -0.067958832 0
-0.04434967 0.48531502 -0.11457062 0
0.25373745 -0.48994058 -0.38315248 0
0.38644361 -0.43657666 -0.48466539 0
0.30137539 -0.44043785 -0.41522121 0
0.25684261 -0.41630149 -0.3751235 0
0.40342522 -0.32680547 -0.48299694 0
0.31659126 -0.34700954 -0.41439581 0
0.26194477 -0.33333141 -0.36748981 0
0.39409542 -0.25345707 -0.46705723 0
0.33151722 -0.24370298 -0.41645813 0
0.25313473 -0.22605185 -0.35294962 0
0.33195591 -0.13848744 -0.42412901 0
0.26003838 -0.12348342 -0.36234236 0
0.20304012 -0.10507418 -0.3097949 0
0.31476879 -0.044069439 -0.4152832 0
0.26512909 -0.025300451 -0.36748123 0
0.1922884 -0.015091963 -0.30041361 0
0.26800346 0.071402431 -0.37003326 0
0.19889355 0.08236289 -0.30596399 0
0.13195133 0.084425867 -0.25388908 0
0.25577736 0.16726793 -0.35655594 0
0.20848083 0.18667196 -0.31458187 0
0.12264633 0.18758179 -0.24180651 0
0.20729828 0.27958459 -0.31292629 0
0.14042854 0.27964354 -0.2565155 0
0.078493118 0.29780489 -0.20505238 0
0.19332123 0.35096931 -0.30754757 0
0.14353943 0.38666397 -0.26935196 0
0.059142113 0.39272001 -0.19731712 0
0.010812759 0.4208225 -0.15822697 0
0.12708855 0.4759798 -0.26597071 0
0.069863319 0.49771047 -0.21997786 0
-0.00032329559 0.49911532 -0.15777111 0
0.61020994 -0.47494009 -0.66641617 0
0.56526995 -0.46041578 -0.62855291 0
0.47628021 -0.45402962 -0.55892897 0
0.57118511 -0.35613215 -0.62233019 0
0.4857831 -0.35114029 -0.55401468 0
0.42764187 -0.32961097 -0.50328875 0
0.57591772 -0.26086214 -0.61640882 0
0.49887133 -0.25652787 -0.55368328 0
0.44427013 -0.23291554 -0.50791979 0
0.55835867 -0.16583557 -0.60437155 0
0.50850344 -0.14977166 -0.56651354 0
0.42451572 -0.14274821 -0.49907351 0
0.36617279 -0.12299953 -0.45508385 0
0.49782038 -0.05406341 -0.56615877 0
0.42552614 -0.046178743 -0.50818825 0
0.35493422 -0.027019992 -0.45106649 0
0.30694294 0.013612077 -0.40855455 0
0.43599176 0.064401522 -0.52454615 0
0.36729097 0.066208094 -0.4650631 0
0.31101704 0.072070837 -0.41312504 0
0.36892796 0.17174666 -0.46629715 0
0.29676723 0.18803841 -0.39645767 0
0.36420631 0.26315826 -0.46010828 0
0.29606247 0.27683771 -0.39529324 0
0.25052071 0.29885325 -0.35212851 0
0.36422253 0.36893684 -0.4553833 0
0.30517578 0.37102529 -0.40130472 0
0.23346329 0.3909055 -0.34081936 0
0.18959618 0.43542862 -0.3117733 0
0.31133938 0.46879885 -0.40811539 0
0.23893356 0.48005727 -0.35421276 0
0.16622162 0.4931106 -0.30124521 0
0.77834225 -0.48347831 -0.82758284 0
0.73343277 -0.46460187 -0.78249073 0
0.65322971 -0.46386969 -0.70592213 0
0.74100828 -0.37164384 -0.7780118 0
0.6559124 -0.35414773 -0.69698095 0
0.73303223 -0.26678157 -0.76129818 0
0.6586132 -0.25387904 -0.69105721 0
0.60724497 -0.24009243 -0.64118147 0
0.72710514 -0.17097771 -0.75470638 0
0.68238258 -0.15716055 -0.71542835 0
0.59946251 -0.15721712 -0.64106131 0
0.66855621 -0.068665132 -0.70741653 0
0.59538364 -0.044147797 -0.64862823 0
0.5265398 -0.034079179 -0.59095526 0
0.60800409 0.059301786 -0.66791439 0
0.53076649 0.060075954 -0.60284948 0
0.47185135 0.080329441 -0.55606127 0
0.60234165 0.14774075 -0.67151356 0
0.53223228 0.16526482 -0.61321211 0
0.45273924 0.16204029 -0.54522753 0
0.41398287 0.19828394 -0.50990105 0
0.52636433 0.24928719 -0.61528254 0
0.47193336 0.27025622 -0.56126881 0
0.40704393 0.28911465 -0.49921751 0
0.52471924 0.33082891 -0.61135149 0
0.48211718 0.3671622 -0.56803131 0
0.40295124 0.37004352 -0.49315691 0
0.47835684 0.46253395 -0.56135988 0
0.40509272 0.47543371 -0.4906435 0
0.90380239 -0.46293581 -0.93103075 0
0.82283115 -0.45213431 -0.86362553 0
0.89251089 -0.38677478 -0.92082262 0
0.82279253 -0.34840921 -0.85586309 0
0.77689743 -0.34896496 -0.80958796 0
0.89204931 -0.28495705 -0.91591978 0
0.83893061 -0.26557133 -0.86310244 0
0.77971792 -0.24921888 -0.80588484 0
0.89262533 -0.20888861 -0.91143227 0
0.83542967 -0.15158686 -0.85942507 0
0.75278759 -0.14458311 -0.78277302 0
0.81971836 -0.063385308 -0.84552526 0
0.77750397 -0.0623172 -0.81227684 0
0.69877958 -0.036356494 -0.74063969 0
0.77279711 0.038342737 -0.81246376 0
0.70515728 0.042346224 -0.75119019 0
0.64083052 0.054985039 -0.70149279 0
0.75703621 0.13725066 -0.80390835 0
0.69994783 0.13716042 -0.76086903 0
0.63110065 0.15688083 -0.70012426 0
0.70149755 0.23718041 -0.76645374 0
0.62151957 0.25096533 -0.70028734 0
0.5740881 0.27890086 -0.65737343 0
0.69706106 0.39112219 -0.75454044 0
0.64150763 0.35435593 -0.70928097 0
0.56798697 0.37178403 -0.64668083 0
0.69890118 0.43809801 -0.74846172 0
0.6499629 0.4709664 -0.7074852 0
0.56349993 0.46923503 -0.63828993 0
0.98284483 -0.47661585 -0.99677801 0
0.98025274 -0.37909812 -0.99272251 0
0.99314451 -0.26429003 -1.0031886 0
0.92643213 -0.29669011 -0.94656992 0
0.92060232 -0.16126472 -0.94317055 0
0.94478226 -0.067897037 -0.96760416 0
0.86553383 -0.068212539 -0.89459229 0
0.93622684 0.026514575 -0.9624958 0
0.86315298 0.039934516 -0.89862442 0
0.81648588 0.076377265 -0.85718679 0
0.93477392 0.097537756 -0.97132015 0
0.87363958 0.14622235 -0.91435385 0
0.79740572 0.16900644 -0.84694719 0
0.8654542 0.24513218 -0.9157753 0
0.79669571 0.24434921 -0.85696173 0
0.73893833 0.27403086 -0.80404758 0
0.80963516 0.35467306 -0.86056471 0
0.73866463 0.35021719 -0.79684496 0
0.82245493 0.45748568 -0.85935926 0
0.74343634 0.45846754 -0.78731823 0
0.97665453 0.072904095 -1.0013561 0
0.96715307 0.16674295 -0.99838352 0
0.95817232 0.25386724 -0.9969449 0
0.90294313 0.24358793 -0.950109 0
0.97758484 0.36922836 -1.0056915 0
0.9032588 0.34593377 -0.94536829 0
0.993783 0.4686881 -1.0066676 0
0.90244055 0.43953511 -0.93221092 0
0.16103935 -0.48299909 -0.30837584 0
0.092372894 -0.46369237 -0.26735449 0
-0.0027866364 -0.45380133 -0.20466614 0
-0.060398102 -0.4632628 -0.16682053 0
0.16439342 -0.37599075 -0.29375839 0
0.089388847 -0.36803156 -0.24923134 0
0.014492989 -0.36555892 -0.19387054 0
-0.038894653 -0.36567268 -0.15582085 0
0.113657 -0.28081775 -0.24537277 0
0.02958107 -0.27453858 -0.1826973 0
-0.02910614 -0.27396825 -0.14098358 0
0.10013199 -0.18737209 -0.22737026 0
0.029790878 -0.17080179 -0.17638063 0
-0.027088165 -0.17090861 -0.13560295 0
0.031351089 -0.074547768 -0.17669296 0
-0.028175354 -0.069437414 -0.13334274 0
0.020755768 -0.016371451 -0.1680007 0
-0.025135994 0.025241867 -0.12965679 0
-0.072814941 0.044041514 -0.085870743 0
-0.029428482 0.12833923 -0.11147404 0
-0.069720268 0.12733512 -0.076140404 0
-0.039041519 0.2093458 -0.091187477 0
-0.067034721 0.24883851 -0.068356514 0
-0.087656021 0.33050185 -0.055171967 0
-0.1368227 0.33837125 -0.019856453 0
-0.1224308 0.39491129 -0.031559944 0
-0.14825821 0.42683381 -0.01349926 0
0.41211891 -0.48646685 -0.5074296 0
0.34412575 -0.47225994 -0.45052767 0
0.26100254 -0.47630829 -0.38266611 0
0.21241188 -0.46185401 -0.34061193 0
0.39783001 -0.38717061 -0.48255444 0
0.34476757 -0.38683695 -0.43885803 0
0.26007843 -0.37890249 -0.36804008 0
0.20304298 -0.34629512 -0.31913185 0
0.34836578 -0.28285354 -0.42770433 0
0.27762604 -0.27637875 -0.3693161 0
0.19436932 -0.26891398 -0.30063486 0
0.36469269 -0.21245803 -0.43486643 0
0.28182602 -0.18265101 -0.37333393 0
0.21192932 -0.17802559 -0.31363297 0
0.13576889 -0.16107762 -0.25299788 0
0.27344418 -0.06889981 -0.36961031 0
0.21179581 -0.077462241 -0.31307507 0
0.12650204 -0.08479695 -0.24564075 0
0.071677208 -0.039261997 -0.20534992 0
0.21268082 0.023862228 -0.31326389 0
0.13929462 0.028861657 -0.25346899 0
0.052337646 0.034962147 -0.19056988 0
0.0056362152 0.053201631 -0.15449715 0
0.2017355 0.10329854 -0.30065298 0
0.14240932 0.13748567 -0.25489759 0
0.062030792 0.1315048 -0.19228315 0
0.0059642792 0.12779519 -0.14360619 0
0.14285469 0.22853902 -0.25122166 0
0.065447807 0.23430444 -0.18368292 0
-0.0020332336 0.24251783 -0.12388039 0
0.12919712 0.29541335 -0.24364424 0
0.066394806 0.33745688 -0.19323015 0
-0.003068924 0.34605324 -0.1313014 0
-0.069905281 0.35520086 -0.073931694 0
0.052966118 0.42910016 -0.1890893 0
-0.01099968 0.43518734 -0.13417101 0
-0.084007263 0.44974157 -0.071685791 0
-0.14314842 0.46330285 -0.017793655 0
0.64375544 -0.48144358 -0.69411373 0
0.59178782 -0.46292484 -0.64597225 0
0.50145435 -0.49169493 -0.57713366 0
0.44591999 -0.47284195 -0.53218555 0
0.60260439 -0.37012103 -0.6449337 0
0.51428461 -0.38224772 -0.57567835 0
0.42785025 -0.37578291 -0.50563622 0
0.59777594 -0.28633857 -0.63226557 0
0.52024651 -0.27739188 -0.56797838 0
0.43437862 -0.27485478 -0.49759626 0
0.3994174 -0.24681517 -0.46583605 0
0.58370638 -0.2047426 -0.6172657 0
0.53083277 -0.19504607 -0.5735817 0
0.45475245 -0.17181838 -0.5149498 0
0.37837696 -0.16679153 -0.45355749 0
0.32597828 -0.14885758 -0.41274977 0
0.49757671 -0.11882344 -0.55590248 0
0.45330954 -0.079400025 -0.52039814 0
0.3660593 -0.075178012 -0.45179605 0
0.30917549 -0.065888494 -0.40316439 0
0.43019485 0.0088523626 -0.51027584 0
0.37447214 0.036395475 -0.46453905 0
0.28983688 0.030477673 -0.38711691 0
0.24930954 0.053968117 -0.34898043 0
0.35894108 0.11884984 -0.45243359 0
0.29937649 0.138037 -0.39557171 0
0.23828506 0.13996811 -0.33687115 0
0.31074524 0.24010335 -0.40608215 0
0.23115253 0.22567898 -0.33120823 0
0.1840744 0.25143605 -0.28843355 0
0.30081558 0.33288831 -0.39354038 0
0.24105835 0.3394385 -0.33954334 0
0.16771793 0.33846772 -0.27798462 0
0.10664368 0.36245739 -0.23229647 0
0.28656578 0.42761266 -0.38023567 0
0.2397995 0.43661577 -0.34289169 0
0.15665531 0.43934476 -0.28053617 0
0.086484909 0.44501644 -0.22173929 0
0.80737495 -0.4782722 -0.84774733 0
0.75439596 -0.47885376 -0.79836416 0
0.68190336 -0.47613999 -0.73150492 0
0.80389118 -0.42024446 -0.8391633 0
0.75486851 -0.38475358 -0.79194212 0
0.67425871 -0.37858033 -0.71335173 0
0.76573133 -0.27366158 -0.79070997 0
0.69864511 -0.27633274 -0.72744608 0
0.63053942 -0.2837227 -0.66317415 0
0.75325298 -0.16353814 -0.77033043 0
0.68063498 -0.16412023 -0.70950413 0
0.61852217 -0.19286531 -0.65046024 0
0.57860041 -0.1381425 -0.61466789 0
0.69345665 -0.080083825 -0.72450829 0
0.61607075 -0.084405452 -0.6564374 0
0.54608631 -0.064422026 -0.59851694 0
0.49085093 -0.060775548 -0.55672598 0
0.61862993 0.027881645 -0.66879511 0
0.54314709 0.045560777 -0.60477734 0
0.47012854 0.034014285 -0.54615402 0
0.41392374 0.071555741 -0.5066185 0
0.59836006 0.08954028 -0.65636158 0
0.53794241 0.13151401 -0.61103678 0
0.4581151 0.14437777 -0.54469776 0
0.4128108 0.1468419 -0.50103331 0
0.52025604 0.22590029 -0.6044178 0
0.47283745 0.23945387 -0.55994415 0
0.39728594 0.2389273 -0.48779011 0
0.35071516 0.25517851 -0.4444294 0
0.4631691 0.3421289 -0.54700518 0
0.39131641 0.34654796 -0.47922277 0
0.33735561 0.33318552 -0.42899942 0
0.46321011 0.4520998 -0.54141378 0
0.4081521 0.44863576 -0.49104929 0
0.32823849 0.43493351 -0.41716003 0
0.91937256 -0.47592345 -0.93763781 0
0.94275761 -0.37534416 -0.95452595 0
0.85644579 -0.37252784 -0.88426208 0
0.91223383 -0.27544349 -0.92970514 0
0.8526721 -0.26553348 -0.87049103 0
0.78976107 -0.30059254 -0.81667423 0
0.89801693 -0.18179382 -0.91125536 0
0.85193205 -0.15139076 -0.87062836 0
0.77974129 -0.1624507 -0.80250597 0
0.85364389 -0.065292917 -0.88025093 0
0.78973103 -0.07265909 -0.8136282 0
0.72491407 -0.042012632 -0.75565147 0
0.82912874 -0.00070317835 -0.85284185 0
0.78898573 0.024365053 -0.82254601 0
0.71520233 0.030638114 -0.75645685 0
0.6469698 0.07886035 -0.69954014 0
0.77120972 0.10239783 -0.81071186 0
0.71396685 0.14731044 -0.7642417 0
0.63166618 0.13635695 -0.69362783 0
0.69509506 0.23319367 -0.7598772 0
0.6321702 0.23861352 -0.70086098 0
0.55096149 0.24760173 -0.63094997 0
0.68927097 0.33980325 -0.74932337 0
0.62649536 0.32579005 -0.69600868 0
0.55348492 0.34627503 -0.62972832 0
0.50284767 0.36199966 -0.58530998 0
0.64565945 0.43366998 -0.70111656 0
0.56907797 0.42598003 -0.639606 0
0.50526857 0.45856032 -0.58185816 0
0.97295427 -0.22885771 -0.98135948 0
0.96050787 -0.16811657 -0.96890163 0
0.93910408 -0.074550569 -0.95579004 0
0.94351196 0.035839185 -0.96837568 0
0.87069607 0.039209656 -0.89865971 0
0.97471619 0.12979585 -0.9979167 0
0.88116884 0.13942713 -0.91747093 0
0.7994647 0.15708619 -0.83992529 0
0.87660074 0.23337868 -0.9172821 0
0.80475807 0.24550533 -0.85255432 0
0.74551725 0.25371996 -0.80514431 0
0.86367321 0.33100367 -0.90666485 0
0.78862715 0.34652314 -0.83893871 0
0.737638 0.34681347 -0.79261684 0
0.82422876 0.44804052 -0.85770178 0
0.73328972 0.455403 -0.77498341 0
0.96520567 0.17943446 -0.98990631 0
0.9641552 0.24191871 -0.99433374 0
0.96427536 0.33777386 -0.99378967 0
0.89258623 0.34202948 -0.93335295 0
0.96738768 0.44127703 -0.98401213 0
0.88711309 0.45402575 -0.91416073 0
-0.037782669 -0.45624292 -0.19615221 0
-0.085823059 -0.47559679 -0.16487026 0
-0.021396637 -0.36268359 -0.18292379 0
0.0037136078 -0.2653133 -0.17617702 0
-0.015327454 -0.16823687 -0.15754366 0
-0.04699707 -0.0596928 -0.13276672 0
0.22768021 -0.4702785 -0.36899996 0
0.13903141 -0.46379986 -0.31117439 0
0.050100327 -0.45133138 -0.25498199 0
0.00116539 -0.45119077 -0.22474194 0
0.23776054 -0.37131321 -0.36211157 0
0.14812374 -0.36606145 -0.30083561 0
0.06638813 -0.3587988 -0.24572325 0
0.018449783 -0.35467008 -0.21190453 0
0.23736095 -0.26797161 -0.34748697 0
0.16936111 -0.2614091 -0.29772711 0
0.072957993 -0.26671368 -0.22858763 0
0.026059151 -0.22403403 -0.18854809 0
0.22703838 -0.18022123 -0.33721638 0
0.16902924 -0.16276412 -0.29126406 0
0.083714485 -0.15971947 -0.22919321 0
0.019731522 -0.15955904 -0.18275404 0
0.16318226 -0.075248718 -0.28604555 0
0.090608597 -0.058191851 -0.23306036 0
0.0089149475 -0.065264657 -0.17383766 0
-0.037147522 -0.019761845 -0.13781929 0
0.1562109 0.019162595 -0.27929449 0
0.098601341 0.047051102 -0.23760033 0
0.013511658 0.036560476 -0.17312241 0
-0.034358025 0.055452809 -0.12918854 0
0.092793465 0.14104211 -0.22984409 0
0.026898384 0.13888782 -0.17192984 0
-0.028610229 0.14654461 -0.12123394 0
0.089219093 0.22253346 -0.2157402 0
0.033940315 0.23977277 -0.16649771 0
-0.033741951 0.25075203 -0.10790443 0
0.030911446 0.34297639 -0.17110109 0
-0.035766602 0.35166878 -0.11397839 0
-0.097144127 0.36145329 -0.065711975 0
0.011306763 0.4078325 -0.15978432 0
-0.045017242 0.44532585 -0.11538601 0
-0.10622215 0.45853734 -0.062932014 0
0.4545846 -0.46783328 -0.5524931 0
0.39404488 -0.46118426 -0.50330973 0
0.32331181 -0.45581424 -0.44434309 0
0.46092701 -0.40794685 -0.55072021 0
0.40143204 -0.35765344 -0.49460602 0
0.32291317 -0.3563025 -0.42976236 0
0.27678967 -0.37174168 -0.39390707 0
0.40077925 -0.26134747 -0.48090649 0
0.32133579 -0.26803792 -0.41679096 0
0.27604485 -0.23957166 -0.37804079 0
0.40277863 -0.17690472 -0.48519707 0
0.33177376 -0.17088899 -0.42897701 0
0.25650024 -0.15409474 -0.36564064 0
0.33908176 -0.067298084 -0.43919945 0
0.2560997 -0.065815687 -0.3639431 0
0.20609856 -0.041345246 -0.31955767 0
0.32099915 0.017455444 -0.42604494 0
0.2735014 0.034785822 -0.38204432 0
0.19651985 0.050269708 -0.31077194 0
0.1459856 0.086377084 -0.27172709 0
0.27305698 0.14148597 -0.3804884 0
0.19793606 0.14673705 -0.31156349 0
0.13167477 0.15325792 -0.26027822 0
0.25545597 0.22161099 -0.36416578 0
0.20093727 0.24601772 -0.3140254 0
0.12405872 0.25665444 -0.24648762 0
0.19799328 0.33852613 -0.3157711 0
0.12227154 0.34514606 -0.25134277 0
0.066286087 0.36884376 -0.20573759 0
0.17994118 0.41219103 -0.30975676 0
0.12573051 0.44451764 -0.26653671 0
0.04524231 0.45253062 -0.1976881 0
-0.0096406937 0.48125279 -0.1532445 0
0.63785887 -0.48380122 -0.70059586 0
0.56496572 -0.46824735 -0.63790703 0
0.4988203 -0.46978921 -0.58679342 0
0.63993263 -0.37249601 -0.69111204 0
0.58953857 -0.35787466 -0.64562035 0
0.49249125 -0.36290595 -0.56983423 0
0.63230562 -0.28734902 -0.67711163 0
0.59344769 -0.26813108 -0.6394453 0
0.49995422 -0.25965819 -0.56246758 0
0.44865084 -0.22230747 -0.51712847 0
0.573946 -0.16638857 -0.62288713 0
0.51247549 -0.16409603 -0.57278442 0
0.43428755 -0.16436721 -0.51156139 0
0.50801516 -0.059557602 -0.57849073 0
0.42724943 -0.064257801 -0.51303959 0
0.36272907 -0.042640813 -0.46242142 0
0.50313568 0.015919268 -0.58260489 0
0.42666531 0.042923935 -0.5223031 0
0.36716223 0.054293633 -0.46894312 0
0.42725468 0.13663855 -0.52845383 0
0.36268759 0.14152811 -0.4658308 0
0.31172276 0.15353633 -0.41777372 0
0.42887592 0.21634686 -0.52742195 0
0.36215973 0.24515298 -0.46589375 0
0.29355049 0.2418675 -0.40021992 0
0.37023163 0.34112531 -0.4692564 0
0.29714108 0.34253436 -0.40015602 0
0.23931026 0.36630189 -0.35067129 0
0.35911703 0.44879872 -0.45423365 0
0.30243301 0.45504621 -0.40547276 0
0.2187624 0.45373115 -0.34290028 0
0.15626526 0.49187776 -0.29970503 0
0.80768156 -0.45898363 -0.85568333 0
0.73867321 -0.45272398 -0.79402304 0
0.68232632 -0.45325625 -0.73928642 0
0.7980504 -0.36988243 -0.84242392 0
0.74160528 -0.36594531 -0.78758764 0
0.67456722 -0.3680945 -0.72442722 0
0.79270315 -0.30106995 -0.82929564 0
0.75310659 -0.26233345 -0.78893948 0
0.67316532 -0.27088404 -0.71206379 0
0.73614025 -0.19515952 -0.77080059 0
0.67102098 -0.16569862 -0.70844412 0
0.61894369 -0.13960245 -0.66624403 0
0.73894453 -0.11136483 -0.77492285 0
0.69065237 -0.055553116 -0.73633814 0
0.60929203 -0.064686202 -0.66407919 0
0.55111551 -0.047958799 -0.61626148 0
0.65682602 0.048098847 -0.71939325 0
0.60333633 0.040306091 -0.66768265 0
0.52592421 0.056998253 -0.60536623 0
0.60424042 0.1414334 -0.67745304 0
0.5240736 0.1527531 -0.61039495 0
0.46900511 0.17055832 -0.56229877 0
0.58987808 0.22130242 -0.67203999 0
0.52581263 0.2420502 -0.61987877 0
0.45615673 0.25419164 -0.55356932 0
0.52400208 0.33817416 -0.61636353 0
0.45525551 0.35886154 -0.5485096 0
0.41110611 0.3815344 -0.50856066 0
0.51946592 0.41777405 -0.60811472 0
0.46519709 0.45258194 -0.55603886 0
0.40122938 0.44965389 -0.49591255 0
0.98964405 -0.49463028 -1.0080457 0
0.90510559 -0.48194343 -0.93886423 0
0.84342575 -0.44979537 -0.88786411 0
0.95900774 -0.37914881 -0.98129559 0
0.89954996 -0.35884747 -0.93234873 0
0.83034468 -0.36301285 -0.87248087 0
0.91308212 -0.26328462 -0.93954992 0
0.84125566 -0.24654898 -0.87128496 0
0.90121031 -0.16957961 -0.92315817 0
0.83490705 -0.1569334 -0.86007881 0
0.77926159 -0.13495836 -0.8142314 0
0.89823484 -0.1069333 -0.9183979 0
0.84801912 -0.06967821 -0.88073015 0
0.77126169 -0.050844535 -0.8112855 0
0.82569742 0.0052781031 -0.86923218 0
0.77080441 0.04280176 -0.81776428 0
0.70676994 0.066053785 -0.7623806 0
0.75779915 0.16205418 -0.81697559 0
0.68585014 0.15047902 -0.74953079 0
0.64899588 0.16742402 -0.71843433 0
0.74338007 0.27370498 -0.812644 0
0.69175768 0.23836893 -0.76642132 0
0.62228775 0.23880766 -0.70732117 0
0.70846653 0.35172325 -0.77686691 0
0.62297106 0.34371063 -0.7022562 0
0.56498528 0.3602936 -0.65299082 0
0.70905256 0.44035777 -0.76728392 0
0.62618494 0.44354624 -0.69722033 0
0.54826832 0.47281772 -0.63240862 0
0.99714088 -0.35904539 -1.0166197 0
0.94980669 -0.27058771 -0.97524071 0
0.99446726 -0.17873991 -1.0112944 0
0.93349552 -0.14404792 -0.95660067 0
0.93280268 -0.056971408 -0.96166468 0
0.93533993 0.029109806 -0.96859837 0
0.86375666 0.037498087 -0.90488148 0
0.93420839 0.12820405 -0.97652435 0
0.84914827 0.13899592 -0.89763498 0
0.81266594 0.19609492 -0.86888361 0
0.90402317 0.24250123 -0.95711565 0
0.86720514 0.25841773 -0.92307186 0
0.78228998 0.24940711 -0.84708452 0
0.86164331 0.35410199 -0.9149003 0
0.78669453 0.34417149 -0.84914446 0
0.7400136 0.37820545 -0.80304718 0
0.86671209 0.44624621 -0.90774298 0
0.80425644 0.45232359 -0.85170412 0
0.73644924 0.44468221 -0.79116535 0
0.971766 0.19780514 -1.0140362 0
0.95925426 0.26318902 -1.0036788 0
0.94159555 0.35902122 -0.98521137 0
0.96918154 0.44891316 -0.99763107 0
0.90715456 0.46929085 -0.94111919 0
0.1541996 -0.47662407 -0.30540991 0
0.09886837 -0.45165864 -0.27055168 0
0.016809464 -0.45622137 -0.2213645 0
-0.065092087 -0.4654268 -0.16680717 0
0.094326973 -0.35110909 -0.25160074 0
0.033004761 -0.35935956 -0.20994663 0
-0.041851997 -0.36289877 -0.15429592 0
0.10016918 -0.26874077 -0.23528385 0
0.035298347 -0.26941514 -0.18854666 0
-0.026329994 -0.26207381 -0.14375401 0
0.10402107 -0.21139322 -0.23298788 0
0.041498184 -0.17106099 -0.18721056 0
-0.01631546 -0.15776335 -0.14526939 0
0.017286301 -0.079763159 -0.16853762 0
-0.025987625 -0.05924575 -0.1369276 0
-0.078707695 -0.049187839 -0.09683609 0
-0.031018257 0.045695603 -0.12421989 0
-0.076943398 0.032587111 -0.086344719 0
-0.037015915 0.12504466 -0.10760403 0
-0.062726021 0.14525141 -0.082247734 0
-0.036753654 0.2036957 -0.096745491 0
-0.060009003 0.23654489 -0.073355675 0
-0.092497826 0.32110918 -0.050447464 0
-0.13230228 0.36751235 -0.023472786 0
-0.15813446 0.4405939 -0.0049257278 0
-0.20394421 0.45361394 0.027245522 0
0.35436249 -0.47672015 -0.46263933 0
0.27306652 -0.45466179 -0.39261723 0
0.21000767 -0.4606629 -0.34162092 0
0.35055685 -0.37935722 -0.44561815 0
0.2857914 -0.36736798 -0.39058304 0
0.20292377 -0.36506951 -0.32420206 0
0.14128208 -0.37334666 -0.28610373 0
0.34343338 -0.28430411 -0.42617559 0
0.29712868 -0.27317384 -0.38688517 0
0.21111488 -0.27200946 -0.31682062 0
0.14135361 -0.25736225 -0.26550388 0
0.28996849 -0.17508017 -0.38155556 0
0.22252846 -0.17341691 -0.32415724 0
0.13288689 -0.15681639 -0.25359726 0
0.086028099 -0.13008882 -0.21908665 0
0.22269726 -0.065350384 -0.32446289 0
0.14471626 -0.068248957 -0.26092911 0
0.068472862 -0.05293794 -0.20558405 0
0.01478672 -0.019508772 -0.16646862 0
0.21357727 0.013627589 -0.31541872 0
0.15456295 0.035620958 -0.2671442 0
0.069256783 0.042260051 -0.20480919 0
0.0048971176 0.049179852 -0.1550169 0
0.2052784 0.10997975 -0.3039608 0
0.15767956 0.14496763 -0.2681551 0
0.068257332 0.13802513 -0.19941902 0
0.0021295547 0.15076834 -0.13920069 0
0.14626694 0.22144887 -0.25722313 0
0.081046104 0.24438615 -0.19880056 0
0.0046052933 0.25229955 -0.1312151 0
-0.055847168 0.27246374 -0.085000992 0
0.073478699 0.33979934 -0.19749165 0
0.0035276413 0.34751821 -0.13709164 0
-0.068649292 0.34688693 -0.07469368 0
-0.12799454 0.37563598 -0.037804604 0
-0.00020503998 0.44328329 -0.1462059 0
-0.07221508 0.44797087 -0.081431389 0
-0.13534164 0.46280622 -0.026303291 0
0.59693766 -0.48630029 -0.65490484 0
0.52065563 -0.46681416 -0.59250259 0
0.43530178 -0.48265177 -0.52821636 0
0.38643503 -0.42246783 -0.48130465 0
0.58975029 -0.36638936 -0.63571072 0
0.53106308 -0.37759146 -0.59124899 0
0.45153427 -0.37331611 -0.52772713 0
0.39812088 -0.36878562 -0.48326063 0
0.54001665 -0.27462965 -0.58641481 0
0.4628315 -0.26277408 -0.52199936 0
0.38554096 -0.27576813 -0.46033287 0
0.52030897 -0.1838496 -0.57073307 0
0.46123457 -0.17238021 -0.52232885 0
0.38611174 -0.1643818 -0.46076488 0
0.3092432 -0.1445161 -0.40175056 0
0.45315933 -0.069556892 -0.52231598 0
0.39105463 -0.051093452 -0.47527742 0
0.31243992 -0.059298366 -0.40770769 0
0.26194286 -0.034583025 -0.36017704 0
0.37537909 0.028679579 -0.46759605 0
0.30507946 0.039581507 -0.40250301 0
0.24485588 0.045688137 -0.34630775 0
0.3740983 0.10990198 -0.46358681 0
0.31803703 0.14546105 -0.41362381 0
0.24051285 0.14331554 -0.34228039 0
0.19026375 0.15314344 -0.29751348 0
0.30221272 0.24985532 -0.39770842 0
0.23615074 0.25049353 -0.33792114 0
0.17732239 0.26367807 -0.28222847 0
0.29466248 0.30639946 -0.39136028 0
0.24943829 0.35030293 -0.34707403 0
0.17318821 0.34473854 -0.28561068 0
0.10679722 0.35330719 -0.23068857 0
0.23859119 0.43371269 -0.34346437 0
0.1801796 0.45138323 -0.30079031 0
0.096556664 0.45417842 -0.23186445 0
0.033555031 0.46932843 -0.18093729 0
0.75627375 -0.47895199 -0.80511713 0
0.68082857 -0.45766789 -0.7309041 0
0.62846661 -0.47975433 -0.68440914 0
0.75175333 -0.37675864 -0.78881931 0
0.69329834 -0.36303389 -0.7331872 0
0.63853836 -0.35734639 -0.67986679 0
0.70398426 -0.26397729 -0.73318911 0
0.61831141 -0.28190836 -0.65452003 0
0.57569742 -0.24488403 -0.61276102 0
0.69882822 -0.15361983 -0.7249589 0
0.63842154 -0.17560305 -0.67060423 0
0.57169151 -0.15691045 -0.61164856 0
0.63220882 -0.058811247 -0.67278099 0
0.55762482 -0.059422277 -0.61028337 0
0.49339437 -0.062198646 -0.55770111 0
0.62209797 -0.0038169846 -0.66857862 0
0.56416702 0.049900733 -0.62583733 0
0.46993542 0.048657663 -0.54886627 0
0.40165377 0.066568866 -0.49448442 0
0.55419064 0.11216619 -0.62605667 0
0.48942614 0.15453328 -0.57330513 0
0.39889717 0.14936152 -0.49120855 0
0.36035538 0.15106142 -0.45546961 0
0.477777 0.24130484 -0.56223392 0
0.40687609 0.25089514 -0.49970722 0
0.34448528 0.25884771 -0.43883228 0
0.45659685 0.35018122 -0.54132938 0
0.40715408 0.34424201 -0.49710321 0
0.33352184 0.35315114 -0.42504215 0
0.29268074 0.38751423 -0.3866539 0
0.40640879 0.44687107 -0.49225664 0
0.33962631 0.45107979 -0.42811823 0
0.27312088 0.45888746 -0.37213373 0
0.99998665 -0.47019851 -1.0054107 0
0.92237663 -0.47432208 -0.94200325 0
0.83469343 -0.45963934 -0.87180614 0
0.78674603 -0.41583925 -0.82661486 0
0.94351673 -0.37494463 -0.95757389 0
0.8522768 -0.35201865 -0.88084221 0
0.79278946 -0.35333288 -0.82583761 0
0.86715603 -0.26580927 -0.88679695 0
0.78782654 -0.2654641 -0.81152582 0
0.86962843 -0.14921944 -0.88555622 0
0.79539013 -0.14868854 -0.81873655 0
0.73254347 -0.16010624 -0.76089048 0
0.83959818 -0.10620902 -0.86149931 0
0.81117201 -0.063877575 -0.83918142 0
0.71702862 -0.055281714 -0.75300312 0
0.66672802 -0.05470039 -0.70584822 0
0.77425861 0.030383781 -0.81180859 0
0.72939014 0.057109229 -0.77219105 0
0.64978409 0.061427027 -0.70239735 0
0.71214867 0.15565914 -0.76706696 0
0.64237833 0.15526748 -0.70452213 0
0.57147408 0.16640076 -0.64386988 0
0.6439147 0.25035074 -0.71342754 0
0.56715488 0.25078183 -0.64473772 0
0.49572754 0.2566306 -0.58481741 0
0.62739801 0.33803296 -0.69689608 0
0.57256603 0.35862666 -0.64846706 0
0.49125338 0.34909505 -0.57679605 0
0.4561677 0.40083954 -0.54062796 0
0.56737804 0.45035565 -0.64047098 0
0.50384712 0.45930398 -0.58307219 0
0.44196033 0.47773355 -0.52746201 0
0.957932 -0.35773861 -0.97095108 0
0.94534254 -0.2660175 -0.96063709 0
0.9017272 -0.21128032 -0.92004251 0
0.95010471 -0.15546054 -0.9631052 0
0.9085865 -0.11468049 -0.92913008 0
0.94945335 -0.064013071 -0.97034645 0
0.89458656 -0.032559797 -0.92136192 0
0.83478117 -0.02084405 -0.86224937 0
0.88922787 0.061764605 -0.92168379 0
0.82354212 0.049031876 -0.85697269 0
0.87046432 0.13525502 -0.91140556 0
0.82479858 0.14515063 -0.86617661 0
0.76346684 0.14612165 -0.81263685 0
0.86232376 0.21217477 -0.90445995 0
0.8131671 0.25309047 -0.86479473 0
0.73284054 0.26054245 -0.79386425 0
0.6727829 0.28291416 -0.73894691 0
0.79769611 0.37071967 -0.84650946 0
0.7397666 0.35197663 -0.79609013 0
0.68596888 0.34642366 -0.74879408 0
0.79204369 0.45471871 -0.83282042 0
0.74429226 0.45206803 -0.78778458 0
0.67811918 0.44764635 -0.72990608 0
0.61590052 0.49213213 -0.67723227 0
0.99102068 0.044892564 -1.0080538 0
0.97572947 0.13563845 -1.0026269 0
0.92936277 0.1869106 -0.96429634 0
0.97776175 0.22902808 -1.0089917 0
0.89658928 0.25567782 -0.94144344 0
0.98279142 0.34246659 -1.0116105 0
0.91109037 0.37656626 -0.9465065 0
0.84592342 0.35828507 -0.89063406 0
0.97199774 0.46945703 -0.98720074 0
0.89902544 0.44430035 -0.92867756 0
0.84934473 0.46277931 -0.88132811 0
-0.034204483 -0.4760288 -0.1883707 0
-0.081582069 -0.48079598 -0.15221977 0
-0.0120821 -0.37864292 -0.17725706 0
-0.072617531 -0.40411732 -0.13403797 0
0.0021429062 -0.28109565 -0.16397572 0
-0.0064353943 -0.17896082 -0.15201092 0
-0.043001175 -0.090187624 -0.1251421 0
0.23652077 -0.48479515 -0.36326838 0
0.14999866 -0.47667316 -0.30422163 0
0.059304237 -0.4768824 -0.25020456 0
0.23941994 -0.37968439 -0.35067797 0
0.16187954 -0.39190075 -0.29910326 0
0.073936462 -0.38270459 -0.2416296 0
0.01790905 -0.39194345 -0.20652628 0
0.2351265 -0.29117 -0.33492851 0
0.1669836 -0.28064275 -0.28440762 0
0.085297585 -0.2796495 -0.2256918 0
0.035598755 -0.29086289 -0.19108105 0
0.22971916 -0.17872019 -0.32239342 0
0.18473816 -0.19451551 -0.29210854 0
0.093822479 -0.1883231 -0.22488546 0
0.028870583 -0.17003314 -0.17742252 0
0.17368793 -0.087132141 -0.28150702 0
0.098087311 -0.080578193 -0.22672749 0
0.012568474 -0.079238087 -0.16470194 0
-0.031806946 -0.04944773 -0.1317625 0
0.16335583 -0.0052145943 -0.27318239 0
0.10679245 0.025039241 -0.23202038 0
0.022676468 0.020647004 -0.16885471 0
-0.028394699 0.019361809 -0.12659931 0
0.093458176 0.11644822 -0.21938419 0
0.030961037 0.11584815 -0.16540241 0
-0.026320457 0.12757811 -0.11294079 0
0.098237991 0.22175552 -0.21101904 0
0.041015625 0.21833821 -0.16169596 0
-0.023295403 0.22711168 -0.10453224 0
0.036345482 0.31442523 -0.16302347 0
-0.030826569 0.32545853 -0.10526657 0
-0.079964638 0.35063899 -0.066293716 0
0.025517464 0.39287287 -0.16164064 0
-0.030678749 0.4235068 -0.11591816 0
-0.091315269 0.43464756 -0.064029694 0
-0.15300751 0.4760285 -0.014680862 0
0.39919662 -0.49029505 -0.49750376 0
0.32291698 -0.49527729 -0.4358449 0
0.46152544 -0.43108931 -0.54090357 0
0.41156006 -0.38372704 -0.49295807 0
0.32989407 -0.39291352 -0.42700005 0
0.28150082 -0.38491112 -0.38597393 0
0.41739368 -0.30661443 -0.48674154 0
0.34005737 -0.28515211 -0.42076015 0
0.28188801 -0.2899183 -0.37367487 0
0.41109943 -0.20959496 -0.47541571 0
0.33786392 -0.18183528 -0.42061806 0
0.2686882 -0.18896176 -0.3622756 0
0.34034634 -0.094296202 -0.42938709 0
0.26572514 -0.084519342 -0.36301088 0
0.21400833 -0.071933299 -0.31416035 0
0.31963444 0.0095577091 -0.41319704 0
0.27406311 0.012565047 -0.36999989 0
0.19669914 0.019135252 -0.30000973 0
0.15454769 0.067752689 -0.26626205 0
0.27235985 0.11749662 -0.36757946 0
0.20258331 0.12193917 -0.30437326 0
0.14593315 0.13807744 -0.25890779 0
0.26974297 0.21966711 -0.36292839 0
0.21038342 0.22689566 -0.31048918 0
0.13376331 0.21918806 -0.24534845 0
0.25697136 0.28492278 -0.35258627 0
0.20712662 0.32183218 -0.31043005 0
0.12542343 0.32090223 -0.24271631 0
0.07507515 0.3413102 -0.20021009 0
0.19235229 0.38972408 -0.30652714 0
0.13739395 0.42369926 -0.26517248 0
0.056451797 0.42990905 -0.19518757 0
-0.003238678 0.46874368 -0.14708281 0
0.56916904 -0.49685559 -0.63071203 0
0.50300312 -0.4866682 -0.57852936 0
0.63640356 -0.39328527 -0.67770576 0
0.57758093 -0.39730436 -0.6271944 0
0.50077915 -0.3849552 -0.56591558 0
0.59901142 -0.28692061 -0.63310814 0
0.50165796 -0.29556054 -0.55507565 0
0.45933914 -0.25519484 -0.51726627 0
0.59321165 -0.2206285 -0.62573004 0
0.51821232 -0.19946116 -0.56393385 0
0.45208979 -0.16301396 -0.51439142 0
0.52294445 -0.085152894 -0.57854223 0
0.42872143 -0.082556322 -0.50302362 0
0.38838911 -0.060884714 -0.47048187 0
0.49360752 0.0021161884 -0.56543159 0
0.43845558 0.013212018 -0.51942587 0
0.35270596 0.021520421 -0.44626856 0
0.32075977 0.065459445 -0.4148798 0
0.43435764 0.10515319 -0.52191544 0
0.36935854 0.11953725 -0.45970631 0
0.31676197 0.14724131 -0.41004038 0
0.41942072 0.21186382 -0.50819397 0
0.37153769 0.21979876 -0.46190977 0
0.30118656 0.22363523 -0.39517593 0
0.37163877 0.32184684 -0.4598341 0
0.29533958 0.32203794 -0.38824081 0
0.25142193 0.35538107 -0.34636307 0
0.36144781 0.42481577 -0.44818783 0
0.30811977 0.42653561 -0.39839888 0
0.21945477 0.43207598 -0.33156252 0
0.17574596 0.47044766 -0.30163336 0
0.35324907 0.47879013 -0.43768358 0
0.73570681 -0.48966122 -0.78243923 0
0.6923027 -0.45243353 -0.73717117 0
0.80574751 -0.36520919 -0.83530951 0
0.74713373 -0.39728856 -0.78321075 0
0.68082714 -0.40409845 -0.71991301 0
0.7999444 -0.3354117 -0.82683229 0
0.75771713 -0.29472679 -0.78177071 0
0.67455292 -0.29526085 -0.70355892 0
0.75602055 -0.19656165 -0.77387142 0
0.68388844 -0.18769658 -0.70982981 0
0.61829376 -0.17081013 -0.64933538 0
0.74417877 -0.1143818 -0.76786804 0
0.68104649 -0.087772883 -0.71093702 0
0.60039759 -0.087864578 -0.64277601 0
0.55587244 -0.052381791 -0.60889673 0
0.67094469 0.0005331859 -0.71599627 0
0.60997725 0.029716372 -0.66261768 0
0.52683926 0.038643844 -0.59353018 0
0.60061026 0.12219769 -0.66323519 0
0.5299902 0.11832529 -0.60218668 0
0.47080183 0.13646038 -0.55466413 0
0.58677769 0.21688452 -0.65569973 0
0.53249598 0.2292279 -0.61398172 0
0.46621561 0.23644254 -0.55075502 0
0.52846909 0.33061576 -0.60818958 0
0.46339989 0.32964 -0.54655409 0
0.41230536 0.35442758 -0.50045586 0
0.52249098 0.41125098 -0.60097265 0
0.48370504 0.42969716 -0.56219625 0
0.40710068 0.43257964 -0.48955297 0
0.52921057 0.49041814 -0.60078573 0
0.91166544 -0.49127519 -0.93010807 0
0.83370781 -0.46263409 -0.86741495 0
0.96771574 -0.41012686 -0.97713804 0
0.91621065 -0.38433748 -0.93378973 0
0.83905029 -0.3881864 -0.86971426 0
0.9200902 -0.29031223 -0.93541956 0
0.84392214 -0.28855795 -0.86316776 0
0.89702749 -0.20023252 -0.9108963 0
0.84377861 -0.19268283 -0.86029291 0
0.79081726 -0.18404974 -0.81080103 0
0.84815454 -0.086924121 -0.86957598 0
0.78137922 -0.092620067 -0.8056426 0
0.83184671 0.021466732 -0.86627007 0
0.77694464 0.0047207773 -0.8092823 0
0.71404362 0.034469508 -0.75512791 0
0.82456541 0.083304718 -0.85450172 0
0.77577114 0.11263434 -0.81688976 0
0.69774914 0.13273007 -0.74985886 0
0.64462614 0.16414744 -0.7039814 0
0.76554966 0.18189649 -0.8116703 0
0.71425486 0.22417879 -0.77413893 0
0.6303215 0.22215043 -0.69954491 0
0.70262527 0.30891594 -0.76397324 0
0.62943316 0.32614949 -0.6970439 0
0.57535791 0.3576481 -0.64910984 0
0.69869518 0.42669362 -0.74616146 0
0.62622976 0.42895305 -0.68619823 0
0.5644536 0.43883318 -0.63651609 0
0.9611125 -0.24385554 -0.97042608 0
0.94595432 -0.16631396 -0.95843697 0
0.92787266 -0.0724058 -0.94790745 0
0.95009565 0.023125939 -0.97366047 0
0.87116289 0.0075735152 -0.90193272 0
0.94119549 0.11843851 -0.9699192 0
0.86648035 0.10747423 -0.90082312 0
0.93865728 0.2083953 -0.97339439 0
0.86754704 0.20489472 -0.90977764 0
0.79915667 0.23090884 -0.84767294 0
0.87682486 0.33733609 -0.91702938 0
0.79594517 0.32732865 -0.8465209 0
0.74561405 0.32859123 -0.79914999 0
0.86959648 0.43540204 -0.89937925 0
0.79973316 0.41413769 -0.83872461 0
0.74147224 0.43406934 -0.78454208 0
0.97104073 0.24186374 -1.0018902 0
0.95978403 0.32075211 -0.99247503 0
0.95269203 0.41930985 -0.97434807 0
0.92008114 0.44826671 -0.94236708 0
0.27438736 -0.44198751 -0.38867521 0
0.31374454 -0.49304312 -0.42841244 0
0.59547043 -0.40104035 -0.64374208 0
0.55878067 -0.41276464 -0.61333895 0
0.47040892 -0.40983757 -0.5442872 0
0.39592457 -0.40925869 -0.48406649 0
0.33148861 -0.41349316 -0.43167925 0
0.55719376 -0.32069492 -0.60255909 0
0.46648836 -0.3146919 -0.52858543 0
0.3950634 -0.30256695 -0.46849251 0
0.3287735 -0.31771541 -0.41577005 0
0.54649544 -0.24162978 -0.5860033 0
0.47680664 -0.21751845 -0.53235197 0
0.4056406 -0.20043389 -0.47641706 0
0.33185387 -0.20081167 -0.41628218 0
0.47108841 -0.12795609 -0.53305292 0
0.40374565 -0.096836627 -0.4836669 0
0.32333374 -0.10321882 -0.4180088 0
0.28121948 -0.078168362 -0.38422203 0
0.37453365 -0.012005478 -0.46747303 0
0.32249641 0.0017375201 -0.42177105 0
0.27773762 0.02009891 -0.38143206 0
0.31637478 0.10460795 -0.41678143 0
0.27106953 0.095215619 -0.37360668 0
0.29996109 0.16283071 -0.39995146 0
0.26799488 0.20288023 -0.36999083 0
0.21537876 0.23768042 -0.32292938 0
0.30628586 0.25542071 -0.39857721 0
0.24917316 0.30345353 -0.35093594 0
0.20269394 0.32534835 -0.31129646 0
0.24177647 0.38182402 -0.3432889 0
0.18859863 0.41299042 -0.30684423 0
0.14021778 0.44649872 -0.27530241 0
0.16140747 0.48421973 -0.29209566 0
0.77557993 -0.49861294 -0.8208909 0
0.78466511 -0.40716931 -0.82207346 0
0.69891405 -0.4003827 -0.74132061 0
0.62575388 -0.41823003 -0.67469883 0
0.77949333 -0.31013256 -0.80877447 0
0.70477104 -0.30115023 -0.73583698 0
0.6242342 -0.30707157 -0.66151619 0
0.77306461 -0.21024585 -0.7953558 0
0.71632862 -0.21769109 -0.74411631 0
0.638484 -0.20273596 -0.6721735 0
0.57663441 -0.20495416 -0.61532784 0
0.52027559 -0.16804659 -0.57242632 0
0.70847893 -0.13408884 -0.74097776 0
0.64690113 -0.10037904 -0.68861008 0
0.56184864 -0.096764416 -0.61204958 0
0.48841763 -0.087279335 -0.55364656 0
0.63560581 -0.01746773 -0.68521929 0
0.56775856 -0.0020174757 -0.62719297 0
0.48766565 0.012218967 -0.56161022 0
0.41759253 0.014722444 -0.50389194 0
0.35904169 0.042710632 -0.46397877 0
0.62636328 0.065358855 -0.68119192 0
0.55942535 0.10284705 -0.62833691 0
0.48099709 0.11303614 -0.5642066 0
0.40478992 0.096876875 -0.49841022 0
0.3547883 0.10093218 -0.45480728 0
0.5589056 0.18934748 -0.636199 0
0.48939419 0.19937816 -0.57685804 0
0.41503429 0.19938734 -0.50884771 0
0.34243727 0.20170362 -0.44055414 0
0.4835391 0.30313286 -0.57230091 0
0.41345167 0.29918569 -0.50557327 0
0.33746815 0.30428475 -0.43347502 0
0.2882185 0.31119138 -0.38692522 0
0.47111511 0.40236834 -0.55658007 0
0.42135763 0.40624848 -0.5092783 0
0.34612322 0.41026193 -0.43711519 0
0.27888966 0.41692758 -0.37693071 0
0.21423149 0.44789395 -0.33080435 0
0.92871666 -0.49303213 -0.94648886 0
0.89037228 -0.48423612 -0.91422224 0
0.96091127 -0.40536416 -0.97367573 0
0.86554193 -0.4152526 -0.89591646 0
0.93741369 -0.30537531 -0.95437336 0
0.86369133 -0.29993391 -0.88812971 0
0.82115507 -0.28281784 -0.84380674 0
0.94641638 -0.2073991 -0.9611001 0
0.88248634 -0.20538309 -0.89918327 0
0.80464792 -0.21402285 -0.82748938 0
0.99897528 -0.12694372 -1.0051532 0
0.93390608 -0.10819869 -0.95639706 0
0.87516785 -0.11709782 -0.89886045 0
0.79326868 -0.11245613 -0.82261896 0
0.74373388 -0.085069291 -0.77579784 0
0.86971521 -0.029573835 -0.90093756 0
0.8045826 0.0017939135 -0.83982515 0
0.72589445 -0.010764457 -0.76566029 0
0.85784006 0.05890467 -0.89641714 0
0.79978371 0.087176427 -0.84012508 0
0.72288179 0.092341304 -0.77081156 0
0.66111755 0.11712486 -0.71996927 0
0.79291534 0.18299672 -0.84125853 0
0.71626234 0.21667793 -0.77971745 0
0.63683033 0.18274689 -0.70472383 0
0.57237148 0.21938372 -0.65259218 0
0.77149963 0.30304781 -0.82768297 0
0.71459103 0.30950445 -0.77727413 0
0.64086962 0.29277578 -0.71270847 0
0.56449938 0.30682114 -0.64387703 0
0.52997732 0.34773731 -0.61347389 0
0.72663355 0.38560098 -0.77926779 0
0.67721748 0.39948604 -0.7325387 0
0.58291769 0.38693473 -0.6543026 0
0.50948715 0.41106153 -0.5922575 0
0.71757698 0.48740765 -0.75802279 0
0.96880436 0.0016773716 -0.9888134 0
0.94795561 0.09225665 -0.97578335 0
0.90033817 0.13077402 -0.93406534 0
0.95869017 0.19990873 -0.98951101 0
0.88549328 0.19573522 -0.92618513 0
0.81183481 0.22449443 -0.86543179 0
0.95036745 0.27530843 -0.98773956 0
0.87632418 0.29916477 -0.92186403 0
0.80004358 0.3147893 -0.85346413 0
0.96345091 0.38460672 -0.98759651 0
0.88358307 0.39207542 -0.91847992 0
0.80486822 0.39774728 -0.84776258 0
0.76697016 0.43576819 -0.80818844 0
0.97945881 0.49282295 -0.98747921 0
0.89387131 0.4885205 -0.91632414 0
0.81164455 0.4809798 -0.84386396 0
0.57848454 -0.42472053 -0.62659073 0
0.53308344 -0.41978809 -0.5897007 0
0.57562113 -0.35318053 -0.61771297 0
0.54677725 -0.3149319 -0.58918667 0
0.53909302 -0.22019383 -0.58046579 0
0.90927076 -0.44106787 -0.92589855 0
0.83057642 -0.43460578 -0.86253309 0
0.74816751 -0.42404091 -0.78836346 0
0.67311907 -0.43129292 -0.71818972 0
0.61732721 -0.41277087 -0.66291666 0
0.88031244 -0.32864267 -0.89988995 0
0.83299112 -0.32816318 -0.85903978 0
0.76973104 -0.32066798 -0.79791451 0
0.69353342 -0.31246218 -0.72521067 0
0.61056566 -0.31766307 -0.64670372 0
0.83636808 -0.2390621 -0.85538912 0
0.76450539 -0.22388089 -0.78897333 0
0.69223881 -0.22218578 -0.72030497 0
0.62556601 -0.22617723 -0.65491486 0
0.55219841 -0.20727429 -0.59462738 0
0.82705116 -0.14011605 -0.84573412 0
0.77110767 -0.12619017 -0.79696131 0
0.69311571 -0.12601605 -0.72510815 0
0.62340212 -0.12206227 -0.66267538 0
0.54231119 -0.11511611 -0.59222221 0
0.49338293 -0.095800012 -0.55621052 0
0.76515532 -0.033501625 -0.79954147 0
0.70078325 -0.029932663 -0.74042082 0
0.61522293 -0.015900806 -0.66433477 0
0.54327393 -0.0083387867 -0.60153675 0
0.48768187 -0.0099564418 -0.55619144 0
0.7330966 0.029502764 -0.77514315 0
0.68559742 0.074876204 -0.73495293 0
0.61777353 0.07778541 -0.67690277 0
0.54179192 0.080539547 -0.61010695 0
0.47311258 0.094419703 -0.55499363 0
0.42030716 0.12568796 -0.51730347 0
0.60305357 0.17280227 -0.67426109 0
0.54196167 0.19423395 -0.62031031 0
0.46151543 0.19191854 -0.5515461 0
0.41244459 0.20311181 -0.51013231 0
0.58895683 0.29881054 -0.66312456 0
0.53866053 0.27931336 -0.6206789 0
0.46624422 0.29073483 -0.55416059 0
0.41860771 0.30492577 -0.50804138 0
0.58774662 0.37223583 -0.65317297 0
0.55002356 0.3763772 -0.62425947 0
0.46815872 0.38660946 -0.55149937 0
0.4093194 0.39031982 -0.4966135 0
0.53764629 0.48684567 -0.60959101 0
0.47985649 0.48178369 -0.56004667 0
0.40565109 0.49032307 -0.48998117 0
0.3583107 0.49710363 -0.44671679 0
0.97285652 -0.43801358 -0.9814868 0
0.94717073 -0.41248569 -0.95803499 0
0.98871994 -0.34833914 -0.99749279 0
0.92533922 -0.32111296 -0.94025993 0
0.99905109 -0.23011217 -1.0059891 0
0.9242053 -0.22894433 -0.93632984 0
0.86798954 -0.21062207 -0.88952541 0
0.92179489 -0.11627983 -0.93957996 0
0.849473 -0.11801119 -0.87323809 0
0.99583054 -0.023758478 -1.0064516 0
0.90442514 -0.015511557 -0.92893505 0
0.83859634 -0.024961866 -0.8667531 0
0.78253841 0.01226531 -0.81866932 0
0.91949749 0.072275691 -0.9482789 0
0.84920263 0.081545934 -0.88483334 0
0.77052355 0.085733712 -0.81315994 0
0.7147398 0.10182341 -0.76610279 0
0.93049574 0.18084183 -0.96530533 0
0.85073853 0.18456881 -0.89336586 0
0.76939344 0.18314454 -0.82149076 0
0.69430161 0.19540775 -0.75557327 0
0.64239454 0.20227152 -0.71158743 0
0.92787361 0.26802224 -0.96467352 0
0.83862877 0.27190757 -0.88940382 0
0.77503872 0.28269547 -0.83064699 0
0.69720125 0.28362161 -0.76082134 0
0.63652658 0.30132371 -0.70440769 0
0.92127371 0.36579821 -0.95130682 0
0.85226822 0.37163773 -0.89053869 0
0.76448298 0.3852061 -0.8103075 0
0.70630121 0.37238473 -0.75875759 0
0.63457155 0.39278281 -0.69300365 0
0.57783031 0.43037811 -0.64421082 0
0.91824102 0.47728169 -0.93517637 0
0.86132097 0.46677089 -0.8869791 0
0.78133917 0.48227549 -0.81277323 0
0.70745611 0.47447675 -0.74750471 0
0.63609886 0.48782632 -0.68736553 0
0.5740509 0.48181352 -0.63899851 0
0.95949888 0.36843032 -0.9820857 0
0.95263577 0.46001595 -0.96532583 0
0.76455021 -0.45153612 -0.81856489 0
0.71692419 -0.44166946 -0.774189 0
0.67041731 -0.42070952 -0.72677851 0
0.76676607 -0.36384594 -0.81337452 0
0.7245326 -0.34297773 -0.77131224 0
0.67755461 -0.33581081 -0.72682476 0
0.76964712 -0.27232653 -0.80606318 0
0.73527765 -0.23914973 -0.7736063 0
0.67846107 -0.23027053 -0.72536087 0
0.71652937 -0.14483845 -0.76063204 0
0.69090652 -0.10825593 -0.7393465 0
0.70989323 -0.054158866 -0.75094414 0
0.67319441 -0.031464577 -0.72811651 0
0.95170641 -0.44071087 -0.97580528 0
0.86830425 -0.42448595 -0.90525007 0
0.79936218 -0.44920385 -0.84940004 0
0.94423056 -0.33261728 -0.96994066 0
0.87078714 -0.33918077 -0.90772629 0
0.80843449 -0.34257746 -0.85154533 0
0.94779062 -0.23948407 -0.97242069 0
0.88592386 -0.2328805 -0.91434145 0
0.80935192 -0.23291019 -0.84512234 0
0.7657752 -0.19063294 -0.80415726 0
0.9493618 -0.14537357 -0.97739697 0
0.87992668 -0.14940362 -0.91449213 0
0.80158281 -0.13454977 -0.84301949 0
0.75461292 -0.13406825 -0.79658747 0
0.95777941 -0.049101293 -0.98762465 0
0.87681675 -0.049585603 -0.91846132 0
0.80517864 -0.039817162 -0.8503747 0
0.72535801 -0.037297145 -0.77741814 0
0.68212748 -0.017284483 -0.74055767 0
0.94763899 0.049284071 -0.98425913 0
0.87764454 0.059180982 -0.92522717 0
0.80570412 0.063630879 -0.85845566 0
0.72642517 0.070689999 -0.78776026 0
0.65419102 0.065493517 -0.72317123 0
0.95696735 0.16466647 -0.99833536 0
0.87130165 0.16259016 -0.9278636 0
0.79713297 0.16489249 -0.85919189 0
0.71810818 0.16695583 -0.78813457 0
0.64739799 0.16814893 -0.72474337 0
0.59383774 0.1708771 -0.68928242 0
0.99746561 0.24050309 -1.0321641 0
0.95517445 0.26536638 -0.99939585 0
0.86903286 0.26086462 -0.92789745 0
0.80229187 0.26101759 -0.86963892 0
0.72898722 0.25983524 -0.80401707 0
0.65179396 0.2643016 -0.73411608 0
0.59253693 0.26584554 -0.68113852 0
0.95214844 0.34638268 -0.98976803 0
0.88358021 0.3705979 -0.92984676 0
0.79800987 0.36405945 -0.8546505 0
0.73140764 0.36508366 -0.79447699 0
0.65822029 0.36200213 -0.72944403 0
0.60139513 0.37424713 -0.67826414 0
0.97051907 0.45105577 -0.99201393 0
0.89576912 0.45969427 -0.92932987 0
0.82810259 0.47066915 -0.86805677 0
0.74785662 0.47024524 -0.79600763 0
0.66274357 0.47048429 -0.72205973 0
0.58895254 0.47284755 -0.66211987 0
0.99873829 0.30766508 -1.0331001 0
0.9591136 -0.44917315 -0.98156071 0
