# .PCD v0.7 - Point Cloud Data file format
VERSION 0.7
FIELDS x y z intensity
SIZE 4 4 4 4
TYPE F F F F
COUNT 1 1 1 1
WIDTH 1291
HEIGHT 1
VIEWPOINT 0 0 0 1 0 0 0
POINTS 1291
DATA ascii
0.4772768 0.33553314 -0.35742986 0
0.59135485 0.34476662 -0.35675472 0
0.67140198 0.32414293 -0.35611242 0
0.7601409 0.33315754 -0.35435325 0
0.90406561 0.34561062 -0.35341483 0
-0.052098751 0.46277118 -0.35688248 0
0.025846481 0.4350462 -0.35776535 0
0.10456848 0.42876816 -0.35784259 0
0.22190857 0.45730114 -0.35649341 0
0.32544827 0.42706013 -0.35613227 0
0.43238616 0.44960403 -0.35439926 0
0.49490118 0.46031904 -0.35270536 0
0.61542892 0.42935038 -0.35365421 0
0.73882341 0.44422913 -0.35179883 0
0.79526567 0.43222189 -0.35159603 0
0.85953856 0.4179287 -0.35121885 0
0.99362087 0.45551777 -0.35096747 0
-0.16238952 -0.45685363 -0.36493611 0
-0.071075201 -0.44465303 -0.36479998 0
0.0082697868 -0.45192075 -0.36500487 0
0.12992382 -0.45076275 -0.36562914 0
0.22239542 -0.45386505 -0.36581695 0
0.32022262 -0.4547987 -0.36602998 0
0.39533448 -0.45722485 -0.36571795 0
0.49398518 -0.46752024 -0.36605579 0
0.61374068 -0.4484477 -0.36581999 0
0.74073291 -0.44736576 -0.36590558 0
0.91510057 -0.44536924 -0.36676294 0
-0.16562176 -0.3574512 -0.36357519 0
-0.064869404 -0.34933615 -0.36355615 0
0.042748451 -0.34254217 -0.3637225 0
0.12760067 -0.34092236 -0.36364746 0
0.24467731 -0.35291004 -0.36448392 0
0.30173397 -0.35959101 -0.36401227 0
0.40128231 -0.35668802 -0.36409914 0
0.52073097 -0.35328197 -0.36461937 0
0.64676476 -0.35428572 -0.36486685 0
0.78343725 -0.34988403 -0.36509502 0
0.91132832 -0.34339333 -0.36500323 0
-0.16576099 -0.25970507 -0.36187267 0
-0.064233065 -0.23423481 -0.36179715 0
0.013638496 -0.26900291 -0.36245906 0
0.13613415 -0.23747587 -0.36251569 0
0.24047065 -0.25938177 -0.36282718 0
0.33191991 -0.25320196 -0.36282477 0
0.40286398 -0.24661827 -0.36231551 0
0.52862453 -0.24397087 -0.36298141 0
0.66061497 -0.25478125 -0.36351156 0
0.79033422 -0.27437258 -0.36400384 0
0.92910004 -0.23879719 -0.36367652 0
-0.13985157 -0.16037416 -0.36073157 0
-0.048048019 -0.13035774 -0.36043337 0
0.032397985 -0.15052986 -0.36067811 0
0.11848259 -0.16322708 -0.36099064 0
0.23185658 -0.15471792 -0.36138773 0
0.31476498 -0.15505695 -0.36093411 0
0.43533087 -0.15811396 -0.36154008 0
0.52802086 -0.15470362 -0.36157489 0
0.64279985 -0.16321611 -0.36174065 0
0.8216815 -0.15482521 -0.36214092 0
0.91683245 -0.11673164 -0.36157203 0
-0.15017128 -0.065554619 -0.35985488 0
-0.063551664 -0.0507617 -0.36027715 0
0.013281584 -0.052562714 -0.36014056 0
0.12663126 -0.041002274 -0.36065117 0
0.2253499 -0.04678297 -0.36028644 0
0.31640053 -0.049247742 -0.36034361 0
0.43943214 -0.052842617 -0.36084968 0
0.55045271 -0.062584877 -0.36115623 0
0.63845444 -0.0039224625 -0.36041182 0
0.68541718 -0.062447071 -0.36141902 0
0.7993207 -0.030465603 -0.36046806 0
0.93526268 -0.031876087 -0.36068544 0
-0.14245629 0.0576334 -0.36073932 0
-0.084435463 0.035432816 -0.36072737 0
0.03008008 0.066464424 -0.36115178 0
0.1395731 0.03688097 -0.36114505 0
0.22243452 0.053233624 -0.36130717 0
0.34374475 0.056389809 -0.36143541 0
0.45083141 0.054564476 -0.36166883 0
0.53804255 0.047071934 -0.36144254 0
0.66192865 0.090733051 -0.36044091 0
0.6854353 0.04955101 -0.36102235 0
0.81139851 0.072309494 -0.35981604 0
0.92006969 0.070981026 -0.35894269 0
-0.15776205 0.16656971 -0.36124799 0
-0.086689711 0.13572168 -0.36137074 0
0.028166771 0.15487242 -0.36143589 0
0.13548946 0.14245749 -0.36168411 0
0.24733162 0.15797758 -0.36195996 0
0.35572863 0.16233158 -0.36234391 0
0.43454981 0.13895178 -0.36182389 0
0.52956581 0.1588254 -0.36105397 0
0.65692949 0.16211605 -0.36011922 0
0.79028893 0.16526699 -0.35911289 0
0.90068722 0.16844988 -0.35754496 0
-0.15702105 0.24443436 -0.36152774 0
-0.066822529 0.24933147 -0.36237404 0
0.0091300011 0.2533164 -0.36188397 0
0.11537623 0.23999548 -0.36229369 0
0.23603535 0.25887632 -0.3622691 0
0.33116579 0.26435661 -0.3621414 0
0.44764471 0.24967432 -0.36167479 0
0.52427244 0.25125885 -0.36061674 0
0.65434313 0.25474501 -0.35968673 0
0.75796032 0.2886548 -0.35777387 0
0.77865934 0.2396102 -0.35869974 0
0.8996563 0.26800585 -0.35701823 0
-0.16714835 0.36567688 -0.36034852 0
-0.083384514 0.35002136 -0.36051878 0
0.021933556 0.3556242 -0.36082155 0
0.13306236 0.33888245 -0.36145961 0
0.23066783 0.35666466 -0.360973 0
0.34492207 0.34996557 -0.36080086 0
0.43142104 0.36043787 -0.35952875 0
0.51259899 0.35801458 -0.35851613 0
0.62760353 0.34964943 -0.35755506 0
0.74690962 0.35846758 -0.35614282 0
0.86541843 0.39985418 -0.35391462 0
0.89441586 0.35181379 -0.35543725 0
0.9984045 0.34719515 -0.35444838 0
-0.17116737 0.4566977 -0.35897884 0
-0.078640461 0.44754076 -0.35908717 0
0.020960808 0.46430635 -0.35894784 0
0.10870552 0.4560318 -0.3592335 0
0.22732425 0.45423746 -0.3591139 0
0.29898334 0.44523811 -0.35807374 0
0.44139814 0.45443726 -0.35658291 0
0.60252047 0.43709755 -0.35534996 0
0.74000549 0.4539361 -0.35414967 0
0.85306978 0.47002888 -0.3526327 0
0.97119188 0.42614174 -0.35298932 0
0.99077129 0.47942162 -0.35272938 0
-0.3906548 -0.46000934 -0.36322087 0
-0.33253694 -0.4648037 -0.36402869 0
-0.23126435 -0.44895697 -0.36408401 0
-0.13757205 -0.44820452 -0.36406457 0
-0.026432753 -0.44652534 -0.36447659 0
0.071007252 -0.47913504 -0.36466566 0
0.17008924 -0.44795227 -0.36462468 0
0.22449827 -0.43870354 -0.36464971 0
0.33387351 -0.46200752 -0.3655144 0
0.44620967 -0.44230509 -0.365219 0
0.55668449 -0.46840954 -0.36555764 0
0.69401956 -0.44203854 -0.36540425 0
0.80762434 -0.43439245 -0.36510691 0
0.83489752 -0.47624063 -0.36635572 0
0.96699381 -0.45893192 -0.36563528 0
-0.3221333 -0.36347294 -0.36246371 0
-0.23588896 -0.34304333 -0.3622027 0
-0.13755035 -0.35899949 -0.36289853 0
-0.031381369 -0.36072588 -0.36271954 0
0.067649603 -0.35547686 -0.36351585 0
0.17049384 -0.36816454 -0.36352319 0
0.27326989 -0.35418272 -0.36358234 0
0.33607483 -0.33181381 -0.36331859 0
0.47564054 -0.35031652 -0.36422759 0
0.57275939 -0.394835 -0.36461541 0
0.66864061 -0.35754871 -0.36467594 0
0.73769617 -0.31748152 -0.36418197 0
0.8561883 -0.34337187 -0.36455262 0
-0.31448245 -0.26155734 -0.3611452 0
-0.227494 -0.24907088 -0.36087865 0
-0.11873865 -0.263062 -0.36150819 0
-0.041790724 -0.26819611 -0.36146453 0
0.042592764 -0.26396751 -0.36146986 0
0.13773417 -0.25412655 -0.36154762 0
0.25597119 -0.2404685 -0.36136043 0
0.32577205 -0.26497269 -0.36201155 0
0.45810461 -0.25906992 -0.36238536 0
0.5873313 -0.25319433 -0.36256844 0
0.732162 -0.24012613 -0.36283222 0
0.83109999 -0.24604368 -0.36249501 0
-0.33620024 -0.16586518 -0.35913628 0
-0.22595882 -0.15099859 -0.35945725 0
-0.099671602 -0.15998268 -0.35987192 0
-0.019028187 -0.15201998 -0.36002377 0
0.051426172 -0.16425371 -0.3600294 0
0.16582823 -0.16638947 -0.3601096 0
0.25057697 -0.14139175 -0.36023098 0
0.34502888 -0.15761328 -0.36067516 0
0.43970799 -0.16916275 -0.36059552 0
0.5751524 -0.13386631 -0.36046475 0
0.70818186 -0.13962412 -0.36080304 0
0.85416603 -0.13513136 -0.36123464 0
-0.31376266 -0.069268703 -0.3589654 0
-0.23464012 -0.043136597 -0.3590869 0
-0.1337266 -0.048879623 -0.359274 0
-0.017258406 -0.042061806 -0.35970429 0
0.047079086 -0.046863556 -0.35939693 0
0.16863847 -0.049158096 -0.36004332 0
0.25304079 -0.054438114 -0.35994855 0
0.35878992 -0.069042206 -0.36021993 0
0.44109869 -0.057715416 -0.35983056 0
0.58562565 -0.037132263 -0.36037832 0
0.76113081 -0.02700758 -0.35947067 0
0.86700249 -0.053631306 -0.36026332 0
-0.30456018 0.047582626 -0.35981843 0
-0.24385357 0.060982227 -0.35984373 0
-0.13149619 0.057637215 -0.36006227 0
-0.015049219 0.055633545 -0.36032301 0
0.079617262 0.051221848 -0.36052731 0
0.1688273 0.052982807 -0.3606419 0
0.2426486 0.046732903 -0.3603529 0
0.35098791 0.040720463 -0.36071041 0
0.49017143 0.066478729 -0.36137879 0
0.61747217 0.044229031 -0.36076042 0
0.62010813 0.089567184 -0.36061382 0
0.72677851 0.065960407 -0.35921413 0
0.85776711 0.053315639 -0.35854203 0
-0.3023293 0.16198874 -0.36064529 0
-0.22253394 0.13941097 -0.36036959 0
-0.13173342 0.15036201 -0.36068475 0
-0.034492254 0.14255381 -0.3609463 0
0.068446875 0.16129446 -0.36141437 0
0.16021013 0.15372229 -0.36115155 0
0.27079868 0.13729191 -0.36141121 0
0.34461927 0.15071487 -0.36129445 0
0.46568108 0.15199471 -0.36087698 0
0.58386517 0.15871954 -0.35970435 0
0.71153784 0.161695 -0.35856393 0
0.8415575 0.12359476 -0.35763061 0
-0.33282495 0.25897956 -0.36037713 0
-0.25898457 0.22987556 -0.36064404 0
-0.12559295 0.24033928 -0.36123791 0
-0.015810251 0.2466135 -0.36144924 0
0.078728676 0.25046396 -0.36168355 0
0.16893172 0.26241064 -0.36115819 0
0.25471926 0.22107983 -0.36171705 0
0.34494281 0.24226999 -0.36142483 0
0.45505762 0.24671698 -0.36026013 0
0.58858347 0.25803232 -0.35928565 0
0.70922327 0.23802233 -0.3582873 0
0.7430234 0.2904973 -0.35821399 0
0.84264088 0.23579407 -0.35724416 0
-0.31152201 0.34980416 -0.35947454 0
-0.22773528 0.34572506 -0.35956821 0
-0.1245079 0.34331846 -0.35965699 0
-0.021372318 0.31886959 -0.36063036 0
0.07040596 0.35103178 -0.36044374 0
0.1742754 0.33436251 -0.36039126 0
0.23169065 0.37225103 -0.35938835 0
0.34463072 0.34990311 -0.35948738 0
0.44794726 0.34015465 -0.35843244 0
0.57887697 0.35479641 -0.35725278 0
0.70342064 0.36477184 -0.35588843 0
0.8460989 0.34399843 -0.35552752 0
0.97618151 0.35526037 -0.35389674 0
-0.32728243 0.44603825 -0.3578068 0
-0.22900724 0.45053887 -0.35816401 0
-0.14650631 0.45502687 -0.35829431 0
-0.028734207 0.45308685 -0.35854727 0
0.086360455 0.44426918 -0.35837582 0
0.18423319 0.4297986 -0.35860816 0
0.27247858 0.42283249 -0.3579033 0
0.35635114 0.46675158 -0.35576618 0
0.4725883 0.43903637 -0.35520688 0
0.55215073 0.42892981 -0.35523498 0
0.67369461 0.46386003 -0.35332972 0
0.80219698 0.44465828 -0.35262415 0
0.99101543 0.46492624 -0.35283798 0
-0.55969906 -0.45203328 -0.36234307 0
-0.49448729 -0.45736504 -0.36242771 0
-0.42174959 -0.45032096 -0.36284199 0
-0.30156136 -0.44392943 -0.36284506 0
-0.18135786 -0.46537876 -0.36333013 0
-0.085868597 -0.44870138 -0.36326435 0
0.018718481 -0.45144868 -0.36362353 0
0.10308313 -0.45803499 -0.36372331 0
0.22808743 -0.43200779 -0.36359727 0
0.35978913 -0.45655394 -0.36434624 0
0.48409367 -0.4333663 -0.36403891 0
0.6169672 -0.44323635 -0.36445445 0
0.77689409 -0.47106457 -0.36509308 0
0.94175243 -0.41289854 -0.36416781 0
0.97041464 -0.47483444 -0.36572358 0
-0.55185556 -0.35666943 -0.36090654 0
-0.50642109 -0.35936451 -0.36142084 0
-0.40501571 -0.35099983 -0.36146575 0
-0.28486323 -0.35707688 -0.36185741 0
-0.1869843 -0.34600091 -0.36153698 0
-0.062469721 -0.36978197 -0.36235538 0
0.0075221062 -0.35344172 -0.36229885 0
0.0954988 -0.34661484 -0.36223397 0
0.21687961 -0.36382818 -0.3622368 0
0.31174064 -0.34853745 -0.36235374 0
0.5024488 -0.33491707 -0.36278266 0
0.61485362 -0.3377223 -0.36269641 0
0.80196047 -0.35615683 -0.36370796 0
0.9228735 -0.35278225 -0.36284572 0
-0.555305 -0.29190588 -0.35971761 0
-0.48505211 -0.23947144 -0.35978639 0
-0.41137099 -0.25470233 -0.36002508 0
-0.32621384 -0.26520848 -0.35994479 0
-0.24290299 -0.26323056 -0.36024055 0
-0.10358596 -0.24061728 -0.36022875 0
-0.040187836 -0.28961277 -0.36144608 0
0.091193676 -0.23913574 -0.36067775 0
0.20125318 -0.26477814 -0.36136746 0
0.30234671 -0.281919 -0.36146307 0
0.38650441 -0.24596214 -0.36142564 0
0.46005559 -0.23457718 -0.36038551 0
0.6346302 -0.23111629 -0.36140993 0
0.78973913 -0.24747467 -0.36177495 0
0.96437311 -0.2674551 -0.36232063 0
-0.49933362 -0.16363406 -0.35839498 0
-0.37509322 -0.14312077 -0.35862595 0
-0.29176474 -0.15434456 -0.35883451 0
-0.20939374 -0.16222668 -0.35889509 0
-0.12217069 -0.13497257 -0.35848144 0
0.018055916 -0.16069746 -0.35940987 0
0.11887264 -0.17630339 -0.35942602 0
0.15897107 -0.12741947 -0.35945016 0
0.28311944 -0.15474606 -0.36020181 0
0.37423015 -0.14710188 -0.35967726 0
0.51248741 -0.12781572 -0.35977417 0
0.62897635 -0.13188744 -0.35980356 0
0.78330421 -0.13755131 -0.35999739 0
0.98195505 -0.14952278 -0.36088231 0
-0.49658751 -0.063022137 -0.35826245 0
-0.40197587 -0.048641682 -0.35850567 0
-0.28806233 -0.045245647 -0.35888228 0
-0.18523312 -0.059992313 -0.3584511 0
-0.07923913 -0.032392502 -0.35880452 0
0.015220642 -0.050580978 -0.35883722 0
0.092597246 -0.0476861 -0.35895622 0
0.1522975 -0.081903934 -0.35905334 0
0.27759504 -0.068384647 -0.35942888 0
0.37322855 -0.029440403 -0.3593505 0
0.51295757 -0.031573296 -0.35968339 0
0.61530876 -0.05729866 -0.35924387 0
0.80512571 -0.031495094 -0.35887799 0
0.97220469 -0.031550884 -0.35898829 0
-0.47805715 0.033596039 -0.35890853 0
-0.38584304 0.069801331 -0.3592459 0
-0.2738266 0.062623501 -0.35952681 0
-0.19978619 0.039096832 -0.35949662 0
-0.11047363 0.062723637 -0.35933772 0
-0.025352001 0.037025928 -0.35967198 0
0.10042977 0.038159847 -0.35985461 0
0.18946743 0.061109543 -0.35993993 0
0.27122593 0.043750763 -0.35999888 0
0.40056467 0.067157269 -0.36040038 0
0.49571753 0.061161995 -0.35982832 0
0.62978506 0.052044392 -0.35905877 0
0.67277765 0.064205647 -0.35977539 0
0.75351381 0.054517746 -0.35708535 0
0.98230648 0.055958748 -0.35795897 0
-0.47915173 0.14459705 -0.35973501 0
-0.38640499 0.16718531 -0.36004961 0
-0.28977823 0.14810228 -0.36023265 0
-0.20322275 0.1495285 -0.3601996 0
-0.11486483 0.14191055 -0.3599301 0
-0.015609741 0.16987038 -0.36025417 0
0.08480835 0.12490559 -0.3599239 0
0.1873796 0.17989159 -0.36130798 0
0.30628157 0.16323948 -0.36137128 0
0.39737797 0.16406536 -0.36098567 0
0.51281452 0.16512299 -0.35989749 0
0.60930586 0.15004396 -0.35832861 0
0.7999115 0.13468361 -0.35760903 0
0.93257904 0.10918808 -0.35628745 0
0.97141123 0.17029619 -0.35621211 0
-0.51648402 0.25857735 -0.35974079 0
-0.38858914 0.24499822 -0.36047626 0
-0.30570436 0.2324276 -0.36033943 0
-0.21919942 0.26142597 -0.36030304 0
-0.12256455 0.24214077 -0.36028409 0
-0.029684067 0.27387762 -0.36077645 0
0.087340117 0.24944019 -0.360971 0
0.2037251 0.24878407 -0.36095428 0
0.29011559 0.22938681 -0.36157888 0
0.37293935 0.25616026 -0.36026013 0
0.53287268 0.26702595 -0.35966527 0
0.6437335 0.21300125 -0.35875371 0
0.66326618 0.26540232 -0.35889643 0
0.77626467 0.24308681 -0.35675448 0
0.92331219 0.21708345 -0.35503593 0
0.96764708 0.29143429 -0.35515824 0
-0.49341655 0.35999489 -0.35876524 0
-0.40327668 0.33103633 -0.35914215 0
-0.28776622 0.3520422 -0.35932693 0
-0.18907547 0.36087608 -0.35906294 0
-0.11003208 0.33237886 -0.35933965 0
0.010242939 0.34333372 -0.35986429 0
0.095023155 0.36054993 -0.35963163 0
0.18839335 0.32372856 -0.36034128 0
0.25605583 0.36379147 -0.35935017 0
0.37332439 0.35468578 -0.35844025 0
0.49767685 0.36380911 -0.35715541 0
0.6349802 0.33742952 -0.35685602 0
0.74499321 0.38617039 -0.35361904 0
0.76683569 0.32955837 -0.35519028 0
0.9372263 0.37212467 -0.35307387 0
-0.56372881 0.45268488 -0.356776 0
-0.4982512 0.47147036 -0.35698903 0
-0.40277076 0.434618 -0.35800922 0
-0.31950593 0.46077681 -0.35722744 0
-0.20043802 0.44945741 -0.35771319 0
-0.071299076 0.43872333 -0.35807529 0
0.016944885 0.45029259 -0.35794407 0
0.12305641 0.45911407 -0.35810322 0
0.23013282 0.4297061 -0.35755852 0
0.34848046 0.47128201 -0.35568219 0
0.39669299 0.45317507 -0.35519758 0
0.47486186 0.43800449 -0.35524151 0
0.59485626 0.44165373 -0.35399991 0
0.72787714 0.46014214 -0.35183504 0
0.91230154 0.44906425 -0.35161424 0
-0.74266458 -0.4196856 -0.3608771 0
-0.68415928 -0.45904016 -0.36202684 0
-0.60156226 -0.44346619 -0.36169603 0
-0.49680042 -0.44146562 -0.36178195 0
-0.39890313 -0.44940615 -0.36224788 0
-0.27440763 -0.45307541 -0.36265674 0
-0.17914128 -0.43294907 -0.36245808 0
-0.047947645 -0.45306993 -0.36309385 0
0.038323879 -0.45957518 -0.36275497 0
0.11816359 -0.44484615 -0.36255988 0
0.29374313 -0.43410444 -0.36269516 0
0.45842576 -0.43998432 -0.36361858 0
0.6250658 -0.46520329 -0.36429352 0
0.76058316 -0.47187901 -0.36382031 0
0.76697493 -0.41133738 -0.36299288 0
0.94259501 -0.43761444 -0.36330974 0
-0.705796 -0.35050893 -0.3600654 0
-0.58443236 -0.35908484 -0.360661 0
-0.49254537 -0.36047363 -0.36040756 0
-0.38517499 -0.34267092 -0.36052427 0
-0.28509855 -0.34009385 -0.36082089 0
-0.17442751 -0.35360074 -0.36123151 0
-0.070257187 -0.33436537 -0.36112505 0
0.056705236 -0.31813622 -0.36081153 0
0.12580013 -0.34674644 -0.36094189 0
0.31941891 -0.33135605 -0.36154523 0
0.46285081 -0.33778477 -0.36208731 0
0.61287045 -0.35552359 -0.36234009 0
0.77392864 -0.35445023 -0.36224991 0
0.95560598 -0.37264967 -0.36256477 0
0.96928263 -0.31028175 -0.36188987 0
-0.67789626 -0.24283004 -0.35861784 0
-0.57478738 -0.26219034 -0.35942096 0
-0.47039938 -0.26120687 -0.35930851 0
-0.42073417 -0.21940351 -0.35863614 0
-0.28876209 -0.23798823 -0.35938591 0
-0.19378805 -0.24706221 -0.35972443 0
-0.086968422 -0.23191404 -0.35959867 0
0.013034344 -0.26531219 -0.3601822 0
0.077070236 -0.22926712 -0.35982531 0
0.17423654 -0.24193144 -0.35969388 0
0.34633493 -0.19994926 -0.36005881 0
0.40977144 -0.22841644 -0.36055776 0
0.47096515 -0.25299692 -0.36095142 0
0.6097064 -0.24361658 -0.36058334 0
0.77609921 -0.26353407 -0.36093277 0
0.97142935 -0.24917364 -0.36103004 0
-0.67346597 -0.15805078 -0.3578493 0
-0.59110546 -0.13960838 -0.35750329 0
-0.47701025 -0.14766741 -0.35804415 0
-0.40039468 -0.14184451 -0.35747474 0
-0.31090856 -0.1750586 -0.35851538 0
-0.1999979 -0.15734386 -0.35823268 0
-0.088917732 -0.14325476 -0.35796264 0
0.086758375 -0.15728045 -0.35892782 0
0.19986463 -0.16917849 -0.35909197 0
0.32503295 -0.13491917 -0.35870671 0
0.43628073 -0.15130377 -0.35879308 0
0.61271048 -0.13913202 -0.35912436 0
0.78072405 -0.14607525 -0.35931885 0
-0.68401098 -0.060831785 -0.3573547 0
-0.58695984 -0.043898344 -0.35773197 0
-0.51072264 -0.036262989 -0.35757303 0
-0.40451145 -0.055998802 -0.35765126 0
-0.27815247 -0.061759949 -0.35768157 0
-0.19359803 -0.027498722 -0.35787579 0
-0.096256256 -0.042119026 -0.35819662 0
0.030763149 -0.043523788 -0.35815084 0
0.070405245 -0.090527534 -0.35792083 0
0.19980979 -0.072407246 -0.35827535 0
0.33483171 -0.032175541 -0.35876665 0
0.44859457 -0.046972275 -0.35856116 0
0.50164461 -0.092745781 -0.35919064 0
0.64476204 -0.022471905 -0.35925609 0
0.80718565 -0.029986858 -0.35819983 0
0.99645472 -0.032634258 -0.35845143 0
-0.68694782 0.041762352 -0.35772085 0
-0.56893945 0.047473431 -0.35837057 0
-0.48288083 0.054962158 -0.35848075 0
-0.3890779 0.04327631 -0.35855895 0
-0.31633663 0.038217068 -0.35838896 0
-0.21198797 0.057862282 -0.35886687 0
-0.082842588 0.062737942 -0.35886702 0
-0.011286974 0.0037107468 -0.35896 0
0.098314047 0.07026577 -0.35941392 0
0.20650077 0.045881271 -0.35913706 0
0.34231567 0.072767735 -0.35956725 0
0.47853899 0.033344746 -0.35956508 0
0.62917662 0.057017326 -0.35875207 0
0.77803612 0.055018902 -0.35687512 0
0.97970295 0.060978413 -0.35688177 0
-0.68033934 0.15000725 -0.35890645 0
-0.59661579 0.1342473 -0.35909185 0
-0.49156284 0.14545012 -0.3590914 0
-0.36620331 0.16838551 -0.35940981 0
-0.29785943 0.15540123 -0.35907963 0
-0.17534828 0.16141272 -0.35973781 0
-0.082416534 0.14826918 -0.3601945 0
-0.031184673 0.16191387 -0.35972795 0
0.078748703 0.16174412 -0.3597402 0
0.17530894 0.16178131 -0.35943002 0
0.32648277 0.17120886 -0.35999501 0
0.47895908 0.13904333 -0.36002302 0
0.62346315 0.14190578 -0.35838634 0
0.75328779 0.16375971 -0.35610706 0
0.76357889 0.11543512 -0.35642755 0
0.95616198 0.15272379 -0.35525009 0
-0.6758709 0.25605583 -0.35895506 0
-0.56507015 0.21390224 -0.35952586 0
-0.50111008 0.25014496 -0.3593016 0
-0.42150545 0.24417233 -0.35928386 0
-0.2829411 0.25672388 -0.35955408 0
-0.10106897 0.26570654 -0.35992682 0
-0.021603584 0.22559404 -0.36037201 0
0.074216127 0.25260687 -0.36011124 0
0.22652698 0.26779604 -0.36068547 0
0.32845807 0.2710166 -0.36002284 0
0.44741344 0.24418116 -0.35906699 0
0.60721493 0.24823523 -0.35767466 0
0.78211737 0.26237488 -0.35612866 0
0.93485594 0.27054739 -0.35379949 0
-0.68896127 0.35314536 -0.35785148 0
-0.59026408 0.33972597 -0.3581996 0
-0.50061989 0.35010147 -0.35801655 0
-0.38370013 0.34450364 -0.35839596 0
-0.27117133 0.35570335 -0.35842144 0
-0.18626332 0.352566 -0.3584193 0
-0.058355331 0.35187197 -0.35867345 0
0.094221115 0.35242748 -0.35877129 0
0.18668485 0.33477545 -0.35926783 0
0.31181693 0.36933422 -0.35783815 0
0.4239471 0.34310341 -0.35700086 0
0.59235001 0.36252785 -0.35548568 0
0.72494936 0.400177 -0.35256818 0
0.76964092 0.35010481 -0.35441536 0
0.93662071 0.35846424 -0.3523657 0
-0.74873519 0.46735716 -0.3558802 0
-0.67041492 0.4561615 -0.35651946 0
-0.59003305 0.43073153 -0.35673976 0
-0.48184419 0.45710421 -0.35647097 0
-0.35502458 0.44615054 -0.35691589 0
-0.27119923 0.43936038 -0.35698324 0
-0.19219398 0.45750284 -0.35701865 0
-0.08084774 0.47833681 -0.35685748 0
0.0035586357 0.46370459 -0.35722885 0
0.12211752 0.44362497 -0.35754532 0
0.18266082 0.43000984 -0.35771877 0
0.27510929 0.46469259 -0.35532576 0
0.40048146 0.44275951 -0.3546336 0
0.57247591 0.46666813 -0.35311911 0
0.69445562 0.455935 -0.35092118 0
0.91020012 0.45061684 -0.35080379 0
-0.86882687 -0.43823195 -0.36423784 0
-0.76319599 -0.43160677 -0.3645559 0
-0.64776158 -0.42367244 -0.36450848 0
-0.55494738 -0.45790935 -0.36528179 0
-0.45151281 -0.43527055 -0.36465961 0
-0.36449647 -0.44575691 -0.36499125 0
-0.16500759 -0.43712854 -0.36535674 0
0.013262749 -0.45365763 -0.36573237 0
0.14738345 -0.42580271 -0.36548728 0
0.30129313 -0.43379259 -0.3662087 0
0.4616189 -0.45895004 -0.36672422 0
0.63020825 -0.43158484 -0.36630088 0
0.85023308 -0.43155479 -0.3669976 0
-0.86089635 -0.34049177 -0.36286375 0
-0.76506472 -0.33910656 -0.36297178 0
-0.64412904 -0.34313035 -0.36353964 0
-0.56919909 -0.32305241 -0.36333179 0
-0.47327566 -0.34831929 -0.36361665 0
-0.35519004 -0.30827665 -0.36314499 0
-0.25183392 -0.34548855 -0.36388892 0
-0.08079195 -0.33416033 -0.36420324 0
0.034191132 -0.3562665 -0.36453551 0
0.16478539 -0.3210516 -0.36413381 0
0.30175662 -0.32645607 -0.36450744 0
0.46149135 -0.35101652 -0.36501279 0
0.67714739 -0.33886194 -0.36574662 0
0.82506847 -0.33556795 -0.36504829 0
-0.85040569 -0.25256991 -0.36156461 0
-0.75963545 -0.21878099 -0.3613914 0
-0.67752624 -0.2361691 -0.36176866 0
-0.58838415 -0.25114012 -0.3622117 0
-0.49623823 -0.24645019 -0.3619082 0
-0.38584781 -0.23652935 -0.36225539 0
-0.27790546 -0.23580265 -0.36206454 0
-0.20439816 -0.20637131 -0.36191505 0
-0.085071087 -0.24293041 -0.3626771 0
0.05398941 -0.25535536 -0.36331329 0
0.15324235 -0.22103596 -0.36237326 0
0.26208639 -0.19743824 -0.36178523 0
0.30695081 -0.25381041 -0.36348215 0
0.45306444 -0.24001503 -0.36315921 0
0.64219809 -0.2518239 -0.36377043 0
0.82162285 -0.2379837 -0.36352587 0
-0.87046599 -0.15141773 -0.35985422 0
-0.76089716 -0.13689923 -0.36006659 0
-0.67761755 -0.13483477 -0.35990101 0
-0.56207538 -0.13537669 -0.36052752 0
-0.47319865 -0.13939238 -0.36029148 0
-0.3552978 -0.14066601 -0.36051014 0
-0.25237226 -0.16105938 -0.36112007 0
-0.18154263 -0.11519575 -0.36096269 0
-0.083850145 -0.14651823 -0.36123052 0
0.058027983 -0.13541079 -0.36162618 0
0.1529479 -0.12369204 -0.36091638 0
0.28294778 -0.14463186 -0.36140433 0
0.31286287 -0.089823246 -0.36118227 0
0.47126055 -0.15443611 -0.36223039 0
0.49133682 -0.093453407 -0.36172998 0
0.62240219 -0.14041853 -0.36177009 0
0.83823776 -0.15055656 -0.36257899 0
-0.84158659 -0.05503583 -0.35980016 0
-0.77811861 -0.0070579052 -0.35996854 0
-0.66496277 -0.039188623 -0.36025596 0
-0.57623386 -0.04577446 -0.36011907 0
-0.46077943 -0.027440786 -0.3607879 0
-0.39443493 -0.034141541 -0.3604565 0
-0.28103471 -0.040421009 -0.36046571 0
-0.20957232 -0.033421993 -0.36062464 0
-0.084191084 -0.054697037 -0.36075827 0
0.055436611 -0.015305042 -0.36138052 0
0.17061901 -0.045772552 -0.36109388 0
0.23348689 -0.013237953 -0.36132392 0
0.29758549 0.014039993 -0.36153808 0
0.4458437 -0.038983822 -0.361139 0
0.49698257 0.013085842 -0.36229777 0
0.64737368 -0.01897192 -0.36157772 0
0.81740713 -0.022893906 -0.36040422 0
-0.85891032 0.059830427 -0.3605096 0
-0.78376842 0.058959723 -0.36066139 0
-0.66673875 0.065690517 -0.3608906 0
-0.55655551 0.052420855 -0.36105686 0
-0.4803381 0.068839312 -0.36107215 0
-0.36823177 0.069244385 -0.36153963 0
-0.25427699 0.080458164 -0.36154589 0
-0.19372511 0.064083099 -0.36149016 0
-0.076287508 0.057784081 -0.36158475 0
0.040347099 0.084336758 -0.36175874 0
0.12763643 0.051321983 -0.36097127 0
0.19227862 0.10958672 -0.36242563 0
0.30208445 0.069171906 -0.36195812 0
0.42454481 0.070298672 -0.36145294 0
0.63051844 0.065777302 -0.36099327 0
0.79378748 0.066543102 -0.35891196 0
-0.87194753 0.17317796 -0.36110631 0
-0.78469753 0.14371061 -0.36124817 0
-0.68193841 0.15245414 -0.36147213 0
-0.55257392 0.15409374 -0.36149022 0
-0.49159932 0.18150926 -0.36168063 0
-0.36283016 0.16001487 -0.36188927 0
-0.26988268 0.17996454 -0.36174041 0
-0.18010139 0.14445305 -0.36225885 0
-0.10844898 0.16523886 -0.36177287 0
0.016927958 0.17416763 -0.36198434 0
0.14662385 0.17815256 -0.36213952 0
0.26928735 0.14351511 -0.36190659 0
0.4689889 0.15286589 -0.36245453 0
0.60362673 0.15144873 -0.36026335 0
0.77955961 0.13397455 -0.35845304 0
0.83050013 0.19705057 -0.35917884 0
0.99126339 0.18087435 -0.35763586 0
-0.85428786 0.27282619 -0.36126578 0
-0.77112079 0.22195888 -0.36169338 0
-0.67763853 0.25899243 -0.36173984 0
-0.57706857 0.25549388 -0.3619206 0
-0.49113107 0.26337504 -0.3619507 0
-0.37060761 0.26380014 -0.36212116 0
-0.26289558 0.25706863 -0.36204731 0
-0.066684484 0.26901722 -0.36286539 0
0.025465965 0.26930094 -0.36246598 0
0.17219663 0.28152084 -0.36285678 0
0.30721116 0.25583649 -0.36310023 0
0.42726469 0.25926018 -0.36126041 0
0.61526203 0.26988029 -0.35988957 0
0.7950716 0.28348637 -0.35797521 0
0.97845793 0.27835083 -0.35661367 0
-0.86938572 0.3610177 -0.35997653 0
-0.77166939 0.3490591 -0.36028415 0
-0.64798069 0.36180162 -0.36068714 0
-0.58369803 0.3402648 -0.36049348 0
-0.47352695 0.36227989 -0.36062798 0
-0.40680718 0.37432671 -0.36068469 0
-0.26832199 0.35271311 -0.36105794 0
-0.15934253 0.37094474 -0.36072201 0
0.0013799667 0.36542749 -0.36094376 0
0.13922 0.37862349 -0.36109716 0
0.27612782 0.35819721 -0.36106876 0
0.44782066 0.36850834 -0.35974684 0
0.54736757 0.40655899 -0.35614377 0
0.62875319 0.35378218 -0.35872898 0
0.81257248 0.37512493 -0.35666335 0
0.9694829 0.37422466 -0.35485268 0
-0.92223859 0.42799902 -0.35858259 0
-0.86590242 0.46607852 -0.35841596 0
-0.75030637 0.46719122 -0.35859287 0
-0.68227386 0.463202 -0.35852388 0
-0.59541416 0.44476652 -0.35873213 0
-0.44846225 0.46738958 -0.35887858 0
-0.35729861 0.44764137 -0.3595413 0
-0.26896524 0.4682107 -0.3589395 0
-0.15974808 0.459373 -0.35903633 0
-0.094488621 0.42451811 -0.36062485 0
0.0049891472 0.46401024 -0.35987824 0
0.10615301 0.47593498 -0.35909915 0
0.26900578 0.46178627 -0.35895365 0
0.4226768 0.48309851 -0.35709149 0
0.56695294 0.47896338 -0.35516137 0
0.75871277 0.46462536 -0.35392565 0
0.969625 0.47033405 -0.35373071 0
-0.9607749 -0.44343019 -0.36552778 0
-0.85194755 -0.43558931 -0.36592159 0
-0.77456498 -0.44031954 -0.36612308 0
-0.68096495 -0.4409008 -0.36640871 0
-0.56237626 -0.43877673 -0.36646372 0
-0.4475317 -0.468889 -0.36700383 0
-0.3842802 -0.42562628 -0.36682484 0
-0.27867961 -0.42831683 -0.36678478 0
-0.17073703 -0.45840573 -0.36711052 0
0.041122913 -0.4323349 -0.36723846 0
0.2844553 -0.43470192 -0.36783013 0
0.44589472 -0.43092299 -0.3676694 0
0.6336484 -0.43436384 -0.36782849 0
0.84679461 -0.44289637 -0.36858097 0
-0.95188642 -0.34147191 -0.36435008 0
-0.86881328 -0.34766746 -0.36455044 0
-0.78006601 -0.35279131 -0.36460233 0
-0.67811394 -0.34647489 -0.36488837 0
-0.57240987 -0.34395218 -0.36469141 0
-0.46390152 -0.34233856 -0.36479566 0
-0.38774657 -0.35865378 -0.36567611 0
-0.27538371 -0.3346436 -0.3653574 0
-0.16253638 -0.30684257 -0.364878 0
-0.064204693 -0.34266949 -0.36576799 0
0.1216681 -0.32943439 -0.36602867 0
0.25328422 -0.34901762 -0.3659288 0
0.45484257 -0.35114002 -0.36664674 0
0.64251947 -0.33652973 -0.36655486 0
0.82754803 -0.35062695 -0.36686626 0
-0.96111894 -0.24570918 -0.36273047 0
-0.85544634 -0.23941398 -0.36305177 0
-0.77325416 -0.2531724 -0.36344737 0
-0.67745972 -0.24969578 -0.3633559 0
-0.56848669 -0.24067116 -0.36370468 0
-0.45518947 -0.25228143 -0.36395359 0
-0.39202261 -0.20363927 -0.36320043 0
-0.26356649 -0.24244785 -0.36416453 0
-0.15706182 -0.2347641 -0.36389333 0
-0.061504126 -0.20335817 -0.36297268 0
0.039312601 -0.22452641 -0.36405033 0
0.10696411 -0.25170183 -0.36458153 0
0.26510191 -0.21033812 -0.36412057 0
0.29533792 -0.26756334 -0.36551985 0
0.47564936 -0.25294018 -0.3656041 0
0.61867237 -0.24558783 -0.36479557 0
0.86421156 -0.24649096 -0.36607909 0
-0.95059133 -0.12147522 -0.36136526 0
-0.85339093 -0.14904094 -0.36180389 0
-0.7694366 -0.1401639 -0.36156148 0
-0.67521691 -0.14683223 -0.3618626 0
-0.5917387 -0.1391933 -0.36173749 0
-0.45083117 -0.15189934 -0.36239257 0
-0.35759616 -0.14637566 -0.36198959 0
-0.27674603 -0.12726355 -0.36222526 0
-0.14384437 -0.13592863 -0.36278942 0
-0.029884577 -0.11963987 -0.3624213 0
0.11103463 -0.11372423 -0.36278191 0
0.25713396 -0.12711763 -0.3627995 0
0.4377141 -0.13752127 -0.36326113 0
0.63079786 -0.15020847 -0.36370397 0
0.83669424 -0.14719582 -0.36419156 0
-0.94374752 -0.033435822 -0.36146301 0
-0.85403442 -0.047433853 -0.3614912 0
-0.75547743 -0.027997971 -0.36185539 0
-0.68058777 -0.055195332 -0.3615815 0
-0.56629491 -0.035596371 -0.3622205 0
-0.46456647 -0.039906979 -0.36184636 0
-0.40753269 -0.034475803 -0.36197299 0
-0.28126717 -0.03850174 -0.36224392 0
-0.1641674 -0.019040108 -0.36239785 0
-0.022446394 -0.019858837 -0.36274415 0
0.093729019 -0.041110992 -0.36252734 0
0.26825857 -0.0154953 -0.36306721 0
0.43760967 -0.020177364 -0.36310977 0
0.6271596 -0.02321434 -0.36289537 0
0.81983995 -0.01631546 -0.36213425 0
-0.98247313 0.055542469 -0.36196658 0
-0.8553772 0.064456224 -0.36238927 0
-0.77939272 0.064727306 -0.36208907 0
-0.65950966 0.044970036 -0.36224747 0
-0.57599401 0.087588549 -0.36289251 0
-0.48133874 0.064187765 -0.36282879 0
-0.38844681 0.076423645 -0.36303997 0
-0.27537251 0.07665062 -0.36310887 0
-0.16494823 0.076396942 -0.36302787 0
-0.030406237 0.075585842 -0.36325043 0
0.11378264 0.044997692 -0.36342812 0
0.24227047 0.067109108 -0.36318326 0
0.45141315 0.072917938 -0.36395556 0
0.62000227 0.068353653 -0.36249793 0
0.84342861 0.083005905 -0.36153632 0
-0.98888874 0.15433478 -0.36260134 0
-0.88584185 0.14248371 -0.36285344 0
-0.76665211 0.16473985 -0.36332798 0
-0.65718484 0.17302799 -0.36323336 0
-0.5969677 0.14729118 -0.36299479 0
-0.46591759 0.14382315 -0.36319205 0
-0.3654561 0.18980551 -0.36425555 0
-0.28933096 0.16978312 -0.36356011 0
-0.18014312 0.17219019 -0.36347616 0
-0.049052238 0.17732096 -0.36367831 0
0.099143028 0.14377451 -0.36388159 0
0.2583468 0.14826059 -0.3640261 0
0.45859861 0.15920544 -0.36438426 0
0.59044552 0.18450546 -0.36171418 0
0.65775204 0.12955189 -0.36301705 0
0.78168201 0.20941019 -0.36017835 0
0.84749079 0.15210962 -0.36144948 0
-0.97046781 0.25202036 -0.36296535 0
-0.88267398 0.24704933 -0.36316931 0
-0.79102659 0.2565279 -0.36317247 0
-0.67840338 0.25977397 -0.36350018 0
-0.56245136 0.26397896 -0.36357939 0
-0.45798969 0.26072502 -0.3637284 0
-0.40842509 0.22749972 -0.36384013 0
-0.28338671 0.26357317 -0.36403877 0
-0.16408157 0.26857519 -0.36408901 0
-0.029706001 0.30835581 -0.36392128 0
-0.0085020065 0.25677109 -0.3649255 0
0.09927249 0.24692345 -0.36448419 0
0.25169611 0.25924778 -0.36440325 0
0.45304394 0.2781105 -0.36368847 0
0.61793709 0.28496981 -0.36158794 0
0.79414845 0.27648258 -0.36012679 0
-0.96337914 0.33807755 -0.36166608 0
-0.8553133 0.36333799 -0.3615385 0
-0.76012158 0.35026121 -0.36175954 0
-0.66283536 0.37029266 -0.36182296 0
-0.5513823 0.34469962 -0.36230773 0
-0.4248445 0.33679533 -0.36262366 0
-0.35818744 0.39069223 -0.36224741 0
-0.26242638 0.35508823 -0.36235723 0
-0.20824909 0.33808541 -0.36248699 0
-0.050512314 0.37860537 -0.36273211 0
0.044131756 0.37660074 -0.36227599 0
0.10814738 0.32773685 -0.36402565 0
0.26301646 0.37330294 -0.36310849 0
0.3985405 0.35824203 -0.36123011 0
0.58306408 0.3728199 -0.3593418 0
0.75044346 0.37259722 -0.35747269 0
-0.97219896 0.45462108 -0.35996974 0
-0.8744514 0.44776917 -0.36018664 0
-0.76616693 0.46345711 -0.36029345 0
-0.65484786 0.48165941 -0.36001232 0
-0.55312753 0.47054243 -0.36091048 0
-0.450737 0.45153737 -0.361406 0
-0.32847285 0.46466875 -0.36099195 0
-0.20171165 0.459512 -0.36126894 0
-0.095599651 0.47198153 -0.3608703 0
0.061292171 0.45506811 -0.3617312 0
0.22209525 0.47903681 -0.36038572 0
0.40850616 0.44648218 -0.3598012 0
0.5581677 0.45974445 -0.35727417 0
0.74785948 0.46780443 -0.35569137 0
-0.94273019 -0.43873596 -0.36800849 0
-0.86782241 -0.44310474 -0.367989 0
-0.75606751 -0.44049835 -0.36829016 0
-0.64761043 -0.43928051 -0.36813998 0
-0.55452728 -0.46658397 -0.36905351 0
-0.46623015 -0.42639971 -0.36813918 0
-0.32522702 -0.45196581 -0.36896867 0
-0.18803048 -0.45147824 -0.36919016 0
-0.17729926 -0.39797354 -0.36855838 0
-0.062527418 -0.43161154 -0.36890203 0
0.10152674 -0.43873549 -0.3691496 0
0.30234838 -0.42952824 -0.36959463 0
0.50233698 -0.43115282 -0.36988339 0
0.69226313 -0.43927956 -0.3701064 0
0.96107864 -0.43567181 -0.37057132 0
-0.92218566 -0.33753538 -0.36599958 0
-0.86643291 -0.38092232 -0.36697018 0
-0.74533319 -0.32597995 -0.36618042 0
-0.64653993 -0.36618567 -0.36698875 0
-0.57203889 -0.31308532 -0.36645913 0
-0.45463204 -0.33477402 -0.36691123 0
-0.32015562 -0.35700345 -0.36756754 0
-0.196316 -0.3216393 -0.36703017 0
-0.085885525 -0.35909796 -0.36735031 0
-0.066095352 -0.29719591 -0.36679643 0
0.10852242 -0.35076475 -0.36795887 0
0.30455852 -0.33591366 -0.36824679 0
0.49031782 -0.36184931 -0.36863682 0
0.52017522 -0.29438925 -0.36822578 0
0.70222902 -0.30007029 -0.36829764 0
0.72259283 -0.36916542 -0.36966088 0
0.94052458 -0.3277216 -0.36864793 0
-0.93373823 -0.22946095 -0.36484146 0
-0.8395319 -0.24130893 -0.36525318 0
-0.75294399 -0.23669958 -0.36521673 0
-0.62913704 -0.23172808 -0.36495835 0
-0.42709875 -0.24052191 -0.36599267 0
-0.33328533 -0.25964785 -0.36584049 0
-0.18845439 -0.2447238 -0.36603522 0
-0.18089533 -0.18887711 -0.365358 0
-0.069022179 -0.22518396 -0.36568898 0
0.10561371 -0.20796061 -0.36581904 0
0.13794398 -0.25986814 -0.36717176 0
0.30900264 -0.24609709 -0.3670302 0
0.48322797 -0.23855114 -0.36674592 0
0.68184185 -0.24765587 -0.36717892 0
0.96240997 -0.22437143 -0.36763346 0
-0.93543625 -0.13739014 -0.36351222 0
-0.83281898 -0.14556241 -0.36395648 0
-0.76194167 -0.13645315 -0.36354792 0
-0.63845801 -0.13658643 -0.36365402 0
-0.57179189 -0.16464567 -0.36422917 0
-0.42840385 -0.14474607 -0.36456844 0
-0.33967805 -0.13731861 -0.36403933 0
-0.20770001 -0.14258242 -0.36420354 0
-0.13138127 -0.09360218 -0.36390665 0
-0.078308821 -0.14314938 -0.36434478 0
0.10696912 -0.12481022 -0.36468619 0
0.30337548 -0.1314435 -0.36532623 0
0.48472548 -0.14066076 -0.36542916 0
0.67935181 -0.14119005 -0.36568257 0
0.91874647 -0.13035107 -0.36556047 0
-0.93985772 -0.050197124 -0.36374426 0
-0.84208894 -0.028008938 -0.36376214 0
-0.74887514 -0.033472061 -0.36385775 0
-0.63209391 -0.035107851 -0.36392191 0
-0.55516219 -0.070074081 -0.36388466 0
-0.46113968 -0.03323102 -0.36384612 0
-0.31482291 -0.0085067749 -0.36447829 0
-0.20671988 -0.020857811 -0.36414668 0
-0.067338228 -0.012142181 -0.36446419 0
0.071697474 -0.016937256 -0.36416578 0
0.27137518 -0.021793365 -0.36464328 0
0.46957111 -0.023454666 -0.36485547 0
0.65036583 -0.046810627 -0.36437318 0
0.90578699 -0.051761627 -0.36429375 0
0.92218781 0.017934799 -0.36370879 0
-0.9408145 0.049331188 -0.36430842 0
-0.82384181 0.069200039 -0.36472902 0
-0.72550535 0.068601131 -0.36493668 0
-0.64093256 0.067269564 -0.3648313 0
-0.56761241 0.061306953 -0.36456534 0
-0.43854809 0.0821383 -0.36500469 0
-0.3270514 0.082348824 -0.36490273 0
-0.19443703 0.082472801 -0.36505714 0
-0.066458464 0.070880413 -0.36504307 0
0.10948539 0.06343317 -0.36533147 0
0.29076576 0.069252491 -0.36557424 0
0.485466 0.069316387 -0.36573651 0
0.65971184 0.053026199 -0.36425075 0
0.91498947 0.087062359 -0.36271042 0
-0.99313545 0.13190866 -0.36490589 0
-0.93451357 0.17129898 -0.36532992 0
-0.82398725 0.16915512 -0.3654848 0
-0.73440671 0.1724298 -0.36557189 0
-0.63600278 0.17351842 -0.36570662 0
-0.56562948 0.17153263 -0.36541393 0
-0.46023202 0.17103863 -0.36530969 0
-0.29902411 0.18069124 -0.36608684 0
-0.19029236 0.18649244 -0.36589292 0
-0.04253602 0.1506896 -0.36601329 0
0.10361147 0.18532705 -0.36611354 0
0.11855197 0.12505722 -0.36591345 0
0.27701211 0.16130352 -0.36600628 0
0.46924973 0.19243002 -0.36555904 0
0.53483868 0.14200878 -0.36679098 0
0.64890003 0.1837678 -0.36377439 0
0.89314699 0.15790367 -0.36165819 0
-0.9450562 0.25938964 -0.36523035 0
-0.84645987 0.26626921 -0.36545241 0
-0.75950623 0.27340317 -0.3654106 0
-0.66445827 0.27703428 -0.36546451 0
-0.54597521 0.25862455 -0.36610976 0
-0.42860603 0.26911974 -0.36619151 0
-0.31599498 0.27550364 -0.36609879 0
-0.24039984 0.27871299 -0.365224 0
-0.05979681 0.25655413 -0.36628312 0
0.096050262 0.26568127 -0.36631793 0
0.27991891 0.27639055 -0.36649406 0
0.51816654 0.26018047 -0.36630183 0
0.65238285 0.28456879 -0.36341912 0
0.88568926 0.23333454 -0.36140341 0
0.93135977 0.30386639 -0.3616505 0
-0.93574476 0.35427904 -0.3638261 0
-0.86495924 0.34491539 -0.36421511 0
-0.74794626 0.36329222 -0.36405352 0
-0.62942576 0.35954809 -0.36410975 0
-0.56795931 0.36889124 -0.36459973 0
-0.45642638 0.35887098 -0.36473176 0
-0.33490705 0.37207031 -0.36466968 0
-0.2187314 0.35532308 -0.36474162 0
-0.12798834 0.37521911 -0.36468664 0
0.076643944 0.37592268 -0.36485726 0
0.26501775 0.36372995 -0.36494845 0
0.44950914 0.35407925 -0.36341113 0
0.60578394 0.37931442 -0.36076304 0
0.87698555 0.3610425 -0.3595584 0
-0.961689 0.45599747 -0.36240178 0
-0.82350898 0.47440338 -0.36256212 0
-0.73950958 0.44828463 -0.36275035 0
-0.64245749 0.47310019 -0.36264974 0
-0.46053004 0.45007992 -0.36365891 0
-0.36919379 0.46151876 -0.36306736 0
-0.25000954 0.4828198 -0.36278012 0
-0.10856676 0.46575046 -0.36330259 0
0.029436588 0.48175335 -0.36284071 0
0.24367976 0.4524641 -0.3629162 0
0.4157033 0.47071505 -0.36064047 0
0.57054305 0.47532892 -0.35835955 0
0.84571648 0.4676199 -0.35716414 0
-0.98710179 -0.43878675 -0.36612302 0
-0.89978313 -0.44043922 -0.36621502 0
-0.79595065 -0.46173525 -0.36662441 0
-0.70499849 -0.44490433 -0.36634797 0
-0.56200194 -0.4440136 -0.36702067 0
-0.42870831 -0.47192025 -0.36739212 0
-0.28595304 -0.44690919 -0.36769125 0
-0.16831732 -0.45702958 -0.36768582 0
-0.0016751289 -0.42774343 -0.36738029 0
0.19448638 -0.4575448 -0.36827686 0
0.37192464 -0.45743513 -0.3680543 0
0.61010361 -0.43397856 -0.36866409 0
0.86591339 -0.43077564 -0.36878532 0
-0.99575734 -0.33989358 -0.36438376 0
-0.85796452 -0.35160995 -0.36554793 0
-0.79403996 -0.35369849 -0.36506259 0
-0.69466782 -0.33286905 -0.36493832 0
-0.57962966 -0.35720348 -0.36536616 0
-0.44978786 -0.35284758 -0.36549419 0
-0.42364883 -0.34510565 -0.36587834 0
-0.32131028 -0.34332395 -0.36541855 0
-0.17725921 -0.3470521 -0.36583042 0
0.01578021 -0.3413868 -0.36641467 0
0.20336175 -0.33062696 -0.36656493 0
0.42832303 -0.35520506 -0.36762327 0
0.60389829 -0.33882236 -0.36717832 0
0.84940624 -0.35910034 -0.3674649 0
-0.97135401 -0.2396524 -0.36327165 0
-0.88855553 -0.25028253 -0.36338133 0
-0.78477597 -0.24319959 -0.36351469 0
-0.70677495 -0.24418879 -0.36334968 0
-0.56517935 -0.25510216 -0.36407933 0
-0.43634558 -0.1983757 -0.36344025 0
-0.43404341 -0.24887538 -0.36422732 0
-0.29476738 -0.2375598 -0.36434802 0
-0.16464734 -0.2145071 -0.36412388 0
-0.077775002 -0.27214575 -0.36511332 0
0.0077164173 -0.22219515 -0.36453408 0
0.18471384 -0.24554157 -0.36499214 0
0.38181543 -0.23385525 -0.36502445 0
0.59320736 -0.22871923 -0.36544514 0
0.85401773 -0.21808147 -0.36562189 0
0.92230129 -0.27554512 -0.36768198 0
-0.96923137 -0.13918638 -0.36179638 0
-0.87110066 -0.14922619 -0.36218995 0
-0.77933121 -0.15936589 -0.36237097 0
-0.68667531 -0.15555501 -0.36242166 0
-0.56223726 -0.16067791 -0.36274534 0
-0.44010496 -0.10179186 -0.36206624 0
-0.38759685 -0.13867092 -0.36350563 0
-0.30442524 -0.13434982 -0.36268768 0
-0.15909791 -0.12939167 -0.36302987 0
-0.014395237 -0.14208364 -0.36299706 0
0.1853528 -0.15200996 -0.36370265 0
0.38982677 -0.13238144 -0.36379015 0
0.58144665 -0.12780285 -0.36386263 0
0.83845663 -0.13687229 -0.3642503 0
-0.97774172 -0.04207468 -0.36173642 0
-0.88047528 -0.044815063 -0.36191043 0
-0.78083062 -0.05236578 -0.36200526 0
-0.69799089 -0.043676138 -0.36198181 0
-0.57271981 -0.045577288 -0.36219084 0
-0.41384053 -0.023682594 -0.36299992 0
-0.29349518 -0.033470631 -0.36286932 0
-0.17284822 -0.050803661 -0.36268976 0
-0.00081562996 -0.02780056 -0.36308688 0
0.17280245 -0.030535698 -0.36311412 0
0.39381933 -0.038020611 -0.36362842 0
0.57643223 -0.062804699 -0.36340612 0
0.82297421 -0.067349911 -0.3630622 0
-0.99028611 0.067242384 -0.36272776 0
-0.86026239 0.061788559 -0.36296374 0
-0.7505095 0.060833454 -0.36326933 0
-0.6912775 0.070606232 -0.36287031 0
-0.56106496 0.071262121 -0.36317447 0
-0.41454482 0.073338747 -0.36364818 0
-0.30508637 0.068992615 -0.36336976 0
-0.15635443 0.031112194 -0.36350623 0
-0.01291275 0.057659626 -0.36346203 0
0.17971754 0.058505058 -0.36382425 0
0.38738155 0.057728767 -0.36415476 0
0.57352066 0.042806149 -0.36371019 0
0.82629156 0.039625168 -0.36183384 0
-0.98997188 0.16669679 -0.36336768 0
-0.89083838 0.14004207 -0.36303389 0
-0.79400539 0.14126348 -0.3631382 0
-0.66749144 0.16157341 -0.36392897 0
-0.55767679 0.18886709 -0.36410141 0
-0.47743511 0.16875076 -0.36429209 0
-0.39194393 0.14804459 -0.36456284 0
-0.31749272 0.14324808 -0.36369643 0
-0.17825866 0.1376462 -0.36389875 0
-0.012486696 0.14540958 -0.36409453 0
0.17483115 0.14812374 -0.3643848 0
0.40023708 0.15262365 -0.36504343 0
0.57512474 0.13287258 -0.36354262 0
0.82194614 0.14544392 -0.36125627 0
-0.86693525 0.25642276 -0.3634845 0
-0.807971 0.22674727 -0.36348379 0
-0.69049191 0.2498641 -0.36395445 0
-0.56441116 0.2578578 -0.36418101 0
-0.45309782 0.26593614 -0.36403471 0
-0.29442573 0.22648048 -0.36471349 0
-0.18470621 0.23970079 -0.3643865 0
-0.0032453537 0.25442266 -0.36480522 0
0.12911487 0.28677654 -0.36403671 0
0.17095876 0.23256683 -0.36494997 0
0.36008644 0.24217129 -0.3646538 0
0.58070898 0.23782492 -0.36347973 0
0.80441713 0.24969387 -0.360686 0
-0.9811151 0.35629487 -0.36188629 0
-0.90772581 0.34471965 -0.36231363 0
-0.79641795 0.35378313 -0.36259776 0
-0.71711397 0.35745025 -0.36241406 0
-0.57149553 0.35205555 -0.36310855 0
-0.47612357 0.38432932 -0.36233038 0
-0.38536739 0.3704958 -0.36302221 0
-0.30659437 0.32560873 -0.3638446 0
-0.19362855 0.35195446 -0.36334538 0
-0.061403275 0.39317703 -0.36244702 0
0.0088224411 0.34361076 -0.36430538 0
0.14155293 0.35513496 -0.36349386 0
0.33811641 0.3406992 -0.36271805 0
0.52376032 0.36884451 -0.36047277 0
0.74005604 0.34762144 -0.35809875 0
-0.9741025 0.45356393 -0.36044696 0
-0.85831189 0.47752881 -0.36013532 0
-0.79365087 0.45122814 -0.36079198 0
-0.71890831 0.45117569 -0.36135715 0
-0.63103819 0.43908262 -0.36105376 0
-0.51379848 0.45381784 -0.36088327 0
-0.34357667 0.47198582 -0.36154616 0
-0.1959796 0.45886683 -0.36212155 0
-0.040901184 0.44535589 -0.36225954 0
0.13133621 0.44338894 -0.36218384 0
0.32620168 0.46147251 -0.36030605 0
0.52014589 0.47296381 -0.35854328 0
0.74218702 0.45652437 -0.35620955 0
-0.94106054 -0.44154143 -0.36602309 0
-0.76235962 -0.4444077 -0.36647308 0
-0.6403451 -0.46798968 -0.36664122 0
-0.49073553 -0.44358373 -0.36683071 0
-0.36577463 -0.45096469 -0.36698887 0
-0.20575643 -0.44996285 -0.36702889 0
-0.059135675 -0.42840719 -0.36623085 0
0.019041777 -0.480618 -0.36846679 0
0.17410374 -0.44469213 -0.36729166 0
0.37827516 -0.43411684 -0.36745828 0
0.64673996 -0.42588758 -0.3677626 0
0.93718481 -0.46017933 -0.3685565 0
-0.98524046 -0.33049369 -0.36434042 0
-0.87341404 -0.35250211 -0.36511362 0
-0.77456069 -0.35188079 -0.36483103 0
-0.62809587 -0.34050298 -0.36515355 0
-0.58125782 -0.39181042 -0.36680946 0
-0.48061943 -0.33875394 -0.36553565 0
-0.36680627 -0.344347 -0.36540207 0
-0.21141076 -0.394274 -0.36609423 0
-0.18237615 -0.33658671 -0.36578313 0
-0.018442392 -0.3646636 -0.36604559 0
0.1800797 -0.35158682 -0.36605409 0
0.37245512 -0.32542372 -0.36579859 0
0.63889861 -0.35356236 -0.36660233 0
0.95679951 -0.33792019 -0.36723608 0
-0.98890686 -0.2475462 -0.36300689 0
-0.87228417 -0.23987651 -0.3634187 0
-0.76133585 -0.25534534 -0.36361894 0
-0.62262273 -0.26949191 -0.36419347 0
-0.60106802 -0.19907355 -0.36356401 0
-0.45576096 -0.23217225 -0.36442932 0
-0.36517572 -0.23813939 -0.36388385 0
-0.1868875 -0.25549316 -0.36452436 0
-0.0017938614 -0.26809931 -0.36496982 0
0.17006731 -0.22992039 -0.36416474 0
0.38079381 -0.22792482 -0.36461237 0
0.63654709 -0.24390173 -0.3650645 0
0.92679071 -0.22606707 -0.36518323 0
-0.9651916 -0.15964818 -0.36215359 0
-0.86128473 -0.15203214 -0.36234373 0
-0.74532127 -0.16222191 -0.36256582 0
-0.61723518 -0.15052724 -0.36258072 0
-0.58519721 -0.099781275 -0.36258557 0
-0.49809527 -0.13927126 -0.36233145 0
-0.37142992 -0.13303065 -0.36229509 0
-0.18706775 -0.13696909 -0.36287203 0
-0.013961077 -0.11612034 -0.36265615 0
0.028802395 -0.17340899 -0.36421925 0
0.17105246 -0.13278294 -0.36286685 0
0.40162134 -0.12030983 -0.36355576 0
0.61238956 -0.14014339 -0.36324808 0
0.91944075 -0.14874792 -0.36404818 0
-0.96640348 -0.051772356 -0.36192697 0
-0.8473444 -0.061062813 -0.3623566 0
-0.76090837 -0.04913497 -0.36200541 0
-0.62669039 -0.010248899 -0.36249751 0
-0.6081202 -0.05071497 -0.36252955 0
-0.49592543 -0.03256321 -0.36243695 0
-0.36515951 -0.048589706 -0.36241239 0
-0.19522238 -0.028515339 -0.36274338 0
-0.017478228 0.0007610321 -0.36302769 0
0.011900425 -0.055731297 -0.36313564 0
0.16006422 -0.0098776817 -0.3627938 0
0.20680285 -0.065291405 -0.3631852 0
0.37517834 -0.063744545 -0.3629052 0
0.63075972 -0.069935799 -0.3630386 0
0.88823891 -0.082734108 -0.36263102 0
0.90535593 -0.0033230782 -0.36195096 0
-0.95566773 0.056447983 -0.36284852 0
-0.85307765 0.04829216 -0.36301535 0
-0.76062679 0.070427895 -0.36284274 0
-0.62388372 0.071728706 -0.36312801 0
-0.51460624 0.094889879 -0.3630321 0
-0.50796342 0.039768219 -0.36274195 0
-0.34230518 0.033890247 -0.36334556 0
-0.18024445 0.061951637 -0.36360908 0
-0.023304224 0.05235672 -0.3632969 0
0.18810081 0.058272362 -0.36372197 0
0.36787796 0.041113853 -0.36349249 0
0.63818836 0.038761139 -0.36327183 0
0.89989853 0.080975533 -0.36082393 0
-0.96762061 0.14114809 -0.36329675 0
-0.82684183 0.16649151 -0.3643223 0
-0.75945711 0.16117001 -0.36354715 0
-0.6568346 0.16148019 -0.36326861 0
-0.46641088 0.17413974 -0.36441052 0
-0.37469649 0.13923454 -0.36359173 0
-0.22172546 0.16522169 -0.36370364 0
-0.17439342 0.117589 -0.36410621 0
0.00020647049 0.15084553 -0.36439514 0
0.18310976 0.14746237 -0.36428547 0
0.35414457 0.16958332 -0.36419615 0
0.62928677 0.14441299 -0.36289006 0
0.86011219 0.14248419 -0.35970935 0
-0.97067857 0.24838257 -0.36368388 0
-0.8850162 0.24925566 -0.36374217 0
-0.7695899 0.25172424 -0.36375219 0
-0.64603901 0.25778866 -0.36379761 0
-0.52397084 0.24393201 -0.36401781 0
-0.45356488 0.28365684 -0.36369801 0
-0.389431 0.21900082 -0.3639687 0
-0.22306347 0.27711272 -0.36399165 0
-0.19634604 0.2276845 -0.36458647 0
-0.040628672 0.26353312 -0.36423093 0
0.18063951 0.24848986 -0.36501294 0
0.36049342 0.27040243 -0.36437669 0
0.56919336 0.24595881 -0.36152142 0
0.87229252 0.25726938 -0.35953984 0
-0.94570041 0.36282897 -0.36226013 0
-0.89767122 0.33454752 -0.36264139 0
-0.75844049 0.34571934 -0.36300725 0
-0.65048885 0.35855913 -0.36266768 0
-0.51522541 0.37486863 -0.36268362 0
-0.41941357 0.37556911 -0.36215919 0
-0.38514805 0.32602739 -0.36333394 0
-0.22927856 0.36239886 -0.36291471 0
-0.0543046 0.34780884 -0.36316344 0
0.13417578 0.337111 -0.36333388 0
0.34020233 0.36657524 -0.36221218 0
0.5842247 0.35340738 -0.36025956 0
0.8228569 0.36811399 -0.35700119 0
-0.96141028 0.46111965 -0.36014137 0
-0.82831025 0.45663333 -0.36055362 0
-0.78698134 0.41513419 -0.36173624 0
-0.68942571 0.45231104 -0.36095622 0
-0.56027317 0.46857786 -0.36086717 0
-0.43200016 0.45032334 -0.36112535 0
-0.27145934 0.47075319 -0.36097574 0
-0.064180851 0.43601704 -0.36202121 0
