# .PCD v0.7 - Point Cloud Data file format
VERSION 0.7
FIELDS x y z intensity
SIZE 4 4 4 4
TYPE F F F F
COUNT 1 1 1 1
WIDTH 1295
HEIGHT 1
VIEWPOINT 0 0 0 1 0 0 0
POINTS 1295
DATA ascii
0.3073318 0.41071606 -0.35432562 0
0.34940255 0.37957907 -0.35518447 0
0.46266091 0.38673639 -0.35407996 0
0.54483914 0.38080597 -0.3538951 0
0.65833867 0.38043356 -0.35249138 0
0.78468108 0.37829161 -0.35086301 0
0.85209835 0.34681797 -0.35130775 0
0.96527505 0.32690334 -0.34937263 0
0.27073991 0.48180294 -0.35060424 0
0.38028705 0.4929862 -0.35018191 0
0.47947788 0.48568487 -0.35072964 0
0.58396387 0.46656132 -0.3509624 0
0.69011748 0.46084118 -0.34984806 0
0.77637374 0.4590621 -0.34876597 0
0.89798915 0.43853807 -0.34839588 0
0.99542093 0.4409337 -0.34727675 0
0.4676069 -0.47427464 -0.28895941 0
0.44425356 -0.4242034 -0.25977898 0
0.464535 -0.39101601 -0.26812175 0
0.44999588 -0.35357428 -0.24569201 0
0.48886979 -0.31490946 -0.25281256 0
0.50856793 -0.22959518 -0.25029147 0
0.54824352 -0.13537216 -0.24309546 0
0.61355305 -0.10521698 -0.23914939 0
0.57929349 -0.059264183 -0.27601689 0
0.59734297 -0.042746544 -0.25628778 0
0.72787607 -0.027685642 -0.23212495 0
0.80848145 -0.027174473 -0.21402436 0
0.88848066 -0.033934116 -0.19394454 0
0.63239169 0.030440331 -0.28032777 0
0.75177586 0.030117035 -0.267901 0
0.85175586 0.042667866 -0.25234294 0
0.95539534 0.040380478 -0.22406375 0
0.94782758 0.1167922 -0.27712831 0
0.43124163 -0.42568445 -0.17173643 0
0.47623861 -0.44348764 -0.13421257 0
0.4525516 -0.33028746 -0.16351686 0
0.476372 -0.33685541 -0.14297178 0
0.46369994 -0.24726868 -0.15209752 0
0.49338007 -0.23359537 -0.15098935 0
0.66126406 -0.2294178 -0.10215789 0
0.68497276 -0.21069431 -0.11725993 0
0.52278805 -0.14997196 -0.17814547 0
0.60346103 -0.13470078 -0.16283625 0
0.72206736 -0.16144037 -0.14240012 0
0.82691622 -0.14949131 -0.12516205 0
0.9357903 -0.12142563 -0.12132943 0
0.74866116 -0.091562748 -0.18412498 0
0.81671989 -0.074275494 -0.18469888 0
0.92101645 -0.052929878 -0.16188091 0
0.52741909 -0.42636442 -0.070689529 0
0.60479975 -0.45587635 -0.029789448 0
0.53141785 -0.33400869 -0.068139613 0
0.63122058 -0.33750629 -0.04456903 0
0.71614087 -0.35140753 -0.016321361 0
0.80633831 -0.31131077 -0.025138959 0
0.52313471 -0.25180674 -0.087165385 0
0.60565555 -0.2746253 -0.077774689 0
0.71191275 -0.26298141 -0.074406907 0
0.8247304 -0.25326633 -0.058242112 0
0.93409503 -0.26253128 -0.033402383 0
0.92033577 -0.19424009 -0.075305715 0
0.63684452 -0.47191286 0.011380911 0
0.70104611 -0.43414736 0.019095182 0
0.79427695 -0.45616341 0.045484364 0
0.88101172 -0.45658016 0.052897811 0
0.64057887 -0.38534069 -0.0040623546 0
0.83613646 -0.35888815 0.0045311451 0
0.94716907 -0.36573172 0.01762867 0
0.97625947 -0.41592693 0.037941515 0
0.93592083 -0.31498194 0.00057834387 0
0.059587955 -0.460886 -0.36532521 0
0.15660346 -0.45557547 -0.35974222 0
0.27126658 -0.43033218 -0.35418409 0
0.35309982 -0.42935419 -0.34923548 0
0.45318997 -0.40927792 -0.33617726 0
0.51581693 -0.42236233 -0.33391562 0
0.067057252 -0.35863113 -0.36946085 0
0.13971555 -0.36524773 -0.36473724 0
0.24216151 -0.33711338 -0.36010078 0
0.34903145 -0.32949543 -0.35416085 0
0.44892037 -0.29435587 -0.34020445 0
0.51373625 -0.27975273 -0.33436558 0
0.072769046 -0.30090952 -0.37142396 0
0.13235891 -0.26157856 -0.36982143 0
0.22238708 -0.23304033 -0.36594164 0
0.31734729 -0.23813868 -0.35998356 0
0.43327546 -0.17888641 -0.35593846 0
0.53506029 -0.1932683 -0.33322257 0
0.12953997 -0.13999653 -0.37135118 0
0.22799075 -0.14420128 -0.36874959 0
0.32747722 -0.12572145 -0.36443159 0
0.42356515 -0.11369181 -0.35946366 0
0.49001205 -0.065523148 -0.35763377 0
0.59575772 -0.080564499 -0.3327229 0
0.12645674 -0.049920559 -0.36863548 0
0.2052182 -0.035386562 -0.36753246 0
0.30950546 -0.034493446 -0.36669451 0
0.4002496 0.0096268654 -0.36381468 0
0.5010823 0.021063328 -0.3610771 0
0.62532198 0.0087122917 -0.3429133 0
0.66442657 0.050516605 -0.32788819 0
0.86288285 0.087946892 -0.29529667 0
0.12780976 0.099045753 -0.36448619 0
0.1674633 0.045554161 -0.36577976 0
0.29786181 0.073615074 -0.36350614 0
0.38118875 0.057672024 -0.36279827 0
0.51563096 0.11738586 -0.36054146 0
0.58964276 0.11622477 -0.35792625 0
0.6895684 0.1265254 -0.34055445 0
0.80470479 0.14034986 -0.32265767 0
0.85212851 0.14159822 -0.3245585 0
0.98075843 0.16842413 -0.30882949 0
0.12342477 0.16624212 -0.36264381 0
0.20053315 0.13325691 -0.36280024 0
0.29695618 0.19121981 -0.36075228 0
0.35567868 0.17630291 -0.36015019 0
0.44406462 0.2026701 -0.3587853 0
0.56922603 0.2364769 -0.35625762 0
0.69335949 0.2479558 -0.35484019 0
0.77560687 0.22022247 -0.35355657 0
0.90615475 0.24824572 -0.3494356 0
0.93115318 0.26993418 -0.34886333 0
0.11048579 0.26783371 -0.35893241 0
0.17900908 0.26151752 -0.35929415 0
0.26132131 0.27703667 -0.35852811 0
0.34354734 0.28478098 -0.35720259 0
0.44238579 0.30148029 -0.35620275 0
0.54772234 0.31724024 -0.35428485 0
0.66035509 0.3233757 -0.35289276 0
0.80040205 0.34517288 -0.35065961 0
0.81693542 0.31218004 -0.35167977 0
0.95043254 0.40307236 -0.34812447 0
0.089847565 0.36072922 -0.35461381 0
0.14737511 0.34430122 -0.35579681 0
0.26171887 0.37578106 -0.35465172 0
0.34158766 0.38642693 -0.35376191 0
0.45224071 0.39785385 -0.35318005 0
0.54058862 0.40287209 -0.35206637 0
0.64270151 0.45378113 -0.34945843 0
0.71637142 0.41036129 -0.35021734 0
0.80870736 0.43125725 -0.34858423 0
0.92770219 0.48890352 -0.34574538 0
0.12510037 0.45014954 -0.35115501 0
0.22774851 0.46563578 -0.35065162 0
0.32173562 0.49687958 -0.34885275 0
0.43739188 0.48766422 -0.34999567 0
0.43562222 -0.4938674 -0.27701473 0
0.45317411 -0.40796041 -0.25957173 0
0.48211253 -0.31846142 -0.24911496 0
0.50593293 -0.28509903 -0.26522905 0
0.52831435 -0.20345736 -0.25052813 0
0.55872416 -0.12826443 -0.24774107 0
0.58981645 -0.074852467 -0.25891873 0
0.7141732 -0.054590225 -0.22227553 0
0.82877243 -0.022360802 -0.21294451 0
0.91964638 0.001502037 -0.19814032 0
0.63130248 0.0031476021 -0.27088404 0
0.74864256 0.035079002 -0.26652324 0
0.81429338 0.041738987 -0.2551268 0
0.88335299 0.041923046 -0.24545529 0
0.98357308 0.07597971 -0.23997921 0
0.98124313 0.13922262 -0.28295845 0
0.45211458 -0.42235041 -0.16524903 0
0.50722873 -0.38379908 -0.1235982 0
0.46793306 -0.31565762 -0.15887527 0
0.50533366 -0.27771902 -0.15936559 0
0.51241481 -0.20512295 -0.15290263 0
0.63296437 -0.20057487 -0.12383409 0
0.72955382 -0.16797066 -0.13469848 0
0.8155638 -0.14412308 -0.13365652 0
0.88554692 -0.13780642 -0.11528113 0
0.54227781 -0.13426304 -0.18522733 0
0.60415423 -0.10395193 -0.17983523 0
0.70188046 -0.10797787 -0.18569732 0
0.80983353 -0.0771451 -0.17607212 0
0.92096841 -0.042826176 -0.17052951 0
0.50925851 -0.47083282 -0.10154182 0
0.5758605 -0.49649429 -0.068312615 0
0.50934851 -0.42831945 -0.099017054 0
0.55511522 -0.40464211 -0.059426799 0
0.60588109 -0.38845539 -0.018908337 0
0.71744454 -0.33885574 -0.026285276 0
0.83782649 -0.32168007 -0.00924851 0
0.89657438 -0.31280231 -0.014060855 0
0.53212631 -0.32066679 -0.078082591 0
0.64013672 -0.30571795 -0.057359979 0
0.71965337 -0.27723074 -0.057231754 0
0.82554245 -0.25310326 -0.054579645 0
0.92701352 -0.23711586 -0.050798595 0
0.5288285 -0.23847961 -0.089361235 0
0.83420765 -0.19731855 -0.088713378 0
0.98171031 -0.14385271 -0.088706344 0
0.67634952 -0.47724867 0.015947968 0
0.79164183 -0.47654152 0.05645144 0
0.90889812 -0.4269762 0.053856939 0
0.99247348 -0.45355844 0.061794668 0
0.65436387 -0.41762543 0.008674562 0
0.74820924 -0.38939524 0.007206738 0
0.89330113 -0.38032484 0.018045962 0
0.99301505 -0.34529209 0.014015347 0
0.42928016 -0.49016476 -0.33087456 0
0.45934916 -0.4173336 -0.32277131 0
0.27456915 -0.46743011 -0.351973 0
0.38227487 -0.42315865 -0.34725443 0
0.46292126 -0.359231 -0.33741546 0
0.49718451 -0.29339123 -0.31400031 0
0.13982069 -0.43003035 -0.36169106 0
0.2348454 -0.39862871 -0.3573873 0
0.31783235 -0.32936716 -0.35575998 0
0.3991071 -0.2805686 -0.35310313 0
0.49853289 -0.22652531 -0.33956733 0
0.55057633 -0.15202951 -0.32963043 0
0.99017763 0.15589285 -0.28821215 0
0.029008865 -0.44288254 -0.36750811 0
0.093812108 -0.35126925 -0.36785209 0
0.18890715 -0.30790663 -0.36432913 0
0.25202048 -0.25255442 -0.36310291 0
0.33070755 -0.19545555 -0.36107522 0
0.43461931 -0.13159609 -0.3577967 0
0.5329237 -0.093358517 -0.3450489 0
0.61088407 -0.021242619 -0.32582402 0
0.64947355 0.034197807 -0.33733782 0
0.77290845 0.092859268 -0.29768878 0
0.81268263 0.13200092 -0.32005295 0
0.923226 0.18643427 -0.32346329 0
0.056394458 -0.31530237 -0.37140879 0
0.11685848 -0.23117447 -0.37181768 0
0.20354629 -0.16708517 -0.36940724 0
0.29700017 -0.10049009 -0.36664867 0
0.38010895 -0.050019741 -0.36439478 0
0.46058309 0.013457775 -0.36183736 0
0.53152907 0.042276382 -0.35981014 0
0.62866235 0.10756636 -0.34669769 0
0.71732211 0.16334963 -0.34610853 0
0.79639745 0.21436167 -0.35222104 0
0.87834668 0.28730345 -0.35093254 0
0.10828757 -0.13109589 -0.37151259 0
0.16419446 -0.072253704 -0.36945322 0
0.24353957 -0.011300087 -0.36709046 0
0.30979431 0.038849831 -0.36471298 0
0.40837264 0.10056925 -0.36211091 0
0.50571084 0.1547718 -0.35977674 0
0.60055995 0.20776749 -0.35738716 0
0.64809811 0.25534153 -0.35525998 0
0.78611326 0.35181856 -0.35150018 0
0.89667869 0.41353846 -0.34847519 0
0.10025609 0.015062809 -0.36748448 0
0.19054425 0.066837311 -0.36553833 0
0.28242469 0.12628603 -0.36299387 0
0.34118795 0.17254162 -0.36068243 0
0.42094398 0.23085833 -0.35832396 0
0.51290071 0.29900551 -0.35561848 0
0.56801987 0.31832552 -0.35436854 0
0.68405712 0.39318466 -0.35157812 0
0.75751567 0.43207407 -0.34932399 0
0.12300777 0.14644241 -0.36397624 0
0.20555556 0.20890236 -0.361191 0
0.3127954 0.27308178 -0.35848635 0
0.36510956 0.30493832 -0.3571609 0
0.45216691 0.35588169 -0.35435438 0
0.54286826 0.41491175 -0.35185596 0
0.63884795 0.48076963 -0.34912926 0
0.07320714 0.2320714 -0.36114705 0
0.14426661 0.27995491 -0.35918066 0
0.23992908 0.33648968 -0.3567206 0
0.33305919 0.40714693 -0.35363162 0
0.43928754 0.46397114 -0.35122246 0
0.51127458 0.49504852 -0.34946933 0
0.033899069 0.35701418 -0.35532251 0
0.095164418 0.35677004 -0.3558729 0
0.18579459 0.43260527 -0.35286769 0
0.28728378 0.47842503 -0.35066074 0
0.029434204 0.42559624 -0.35217717 0
0.41305506 -0.49461269 -0.25141627 0
0.45303714 -0.44009304 -0.27835944 0
0.42882967 -0.42524958 -0.23432371 0
0.45673931 -0.36901617 -0.25746429 0
0.51033783 -0.27755022 -0.25071704 0
0.49803722 -0.2442956 -0.24837002 0
0.54559505 -0.15125799 -0.25078321 0
0.66293275 -0.077425957 -0.21763933 0
0.7387532 -0.031105042 -0.22664258 0
0.82087934 0.015906811 -0.23845842 0
0.90096045 0.047029495 -0.23642656 0
0.99536061 0.10174417 -0.2499671 0
0.56971204 -0.096062183 -0.25977468 0
0.59470832 -0.048586369 -0.2497243 0
0.62973082 0.026362419 -0.27481216 0
0.77582633 0.058824539 -0.27614793 0
0.47742164 -0.44906473 -0.13283837 0
0.88080764 -0.15747356 -0.10275039 0
0.41356432 -0.43252897 -0.18062124 0
0.45820546 -0.34382915 -0.15454376 0
0.51333857 -0.31239748 -0.12088078 0
0.70612097 -0.18010139 -0.125084 0
0.77774942 -0.14362383 -0.14176235 0
0.87742257 -0.083831787 -0.14976536 0
0.95268214 -0.02809 -0.17227562 0
0.48941123 -0.22820377 -0.14911826 0
0.54216731 -0.14295483 -0.17899936 0
0.65993547 -0.10938931 -0.19297817 0
0.77176201 -0.066480637 -0.17753677 0
0.81211543 -0.057603836 -0.18896607 0
0.61848962 -0.48453236 -0.026882887 0
0.81576622 -0.32641315 -0.019197807 0
0.98053408 -0.26704502 -0.024009421 0
0.52677453 -0.43684721 -0.079742625 0
0.59056616 -0.40266371 -0.033640206 0
0.6724205 -0.30128527 -0.053760469 0
0.75402462 -0.27177095 -0.060484841 0
0.8629384 -0.22455072 -0.069006875 0
0.96163058 -0.20570374 -0.064187422 0
0.98015273 -0.15408278 -0.090156391 0
0.49493849 -0.37972116 -0.073041514 0
0.54340851 -0.32291079 -0.068366408 0
0.6203227 -0.29518795 -0.069985077 0
0.72370768 -0.22515249 -0.086795837 0
0.51900578 -0.25231791 -0.08816424 0
0.82074559 -0.44487715 0.047966599 0
0.92497802 -0.42238522 0.04367283 0
0.65450454 -0.47184324 0.0095072091 0
0.7255317 -0.43736124 0.028533459 0
0.80158401 -0.35839701 0.0053444505 0
0.93096149 -0.34230232 0.0079141557 0
0.62063789 -0.41997814 0.0027503967 0
0.42946601 -0.46376371 -0.33567318 0
0.46600962 -0.42225695 -0.33733922 0
0.29337299 -0.46048737 -0.34921598 0
0.37484407 -0.39296722 -0.33495101 0
0.46159744 -0.34318495 -0.33291313 0
0.49574769 -0.27795267 -0.321596 0
0.059171796 -0.48812532 -0.3619357 0
0.1594404 -0.42228889 -0.35907155 0
0.25196385 -0.35278988 -0.35694358 0
0.30160725 -0.30399466 -0.35617796 0
0.39664221 -0.27509308 -0.35170591 0
0.50997198 -0.20249891 -0.33325547 0
0.56244195 -0.12654495 -0.33077785 0
-0.062830448 -0.44280767 -0.37106279 0
0.015229344 -0.38575888 -0.36907178 0
0.093715429 -0.33452511 -0.36686465 0
0.18777478 -0.28867912 -0.36351338 0
0.2642684 -0.21803713 -0.36210212 0
0.3703301 -0.17278719 -0.35796684 0
0.39899766 -0.13294315 -0.35777667 0
0.52203655 -0.062535763 -0.34853193 0
0.60827732 -0.018822193 -0.32913098 0
0.64179873 0.051773548 -0.31855151 0
0.77480543 0.11923599 -0.31527796 0
0.860502 0.15338564 -0.31923082 0
0.98062789 0.20963764 -0.32305929 0
-0.035988331 -0.32141161 -0.37439144 0
0.051726818 -0.25871897 -0.3723003 0
0.11460757 -0.19459295 -0.37111065 0
0.2060926 -0.15797567 -0.36794648 0
0.30625498 -0.085227489 -0.36526364 0
0.37295067 -0.036345959 -0.36400542 0
0.46725166 0.015972614 -0.36015224 0
0.56260562 0.097774029 -0.3586362 0
0.62781143 0.12549639 -0.35560247 0
0.73699582 0.16575098 -0.34908974 0
0.77738512 0.25534058 -0.3530972 0
0.87914169 0.27890873 -0.34961402 0
0.99477243 0.3075223 -0.34562442 0
-0.064932942 -0.18065453 -0.37268969 0
0.00263834 -0.18994713 -0.37293723 0
0.035368085 -0.12661314 -0.37078539 0
0.14800239 -0.075372219 -0.36841491 0
0.2465452 -0.0049438477 -0.36555877 0
0.33876717 0.06020689 -0.36284587 0
0.40965152 0.067848682 -0.36086515 0
0.44544721 0.14974785 -0.35920066 0
0.55478561 0.18667984 -0.35725859 0
0.62763143 0.24976063 -0.35438806 0
0.74933922 0.31521606 -0.3513917 0
0.88347006 0.36171246 -0.34879795 0
0.8692776 0.40958071 -0.34753984 0
0.9749012 0.49838638 -0.34358391 0
-0.048286676 -0.078835011 -0.3701891 0
0.040287137 -0.028408527 -0.36826795 0
0.10332453 0.020647526 -0.36610264 0
0.19633329 0.07103014 -0.36354375 0
0.22510922 0.15135717 -0.36089277 0
0.33281541 0.1714797 -0.35954821 0
0.41769302 0.22126007 -0.35718837 0
0.50752676 0.27693558 -0.35462603 0
0.60941517 0.33492374 -0.35219294 0
0.69898224 0.41070795 -0.34868547 0
0.76508021 0.40655899 -0.34937951 0
-0.054844618 0.041142464 -0.36705419 0
0.054868698 0.10147905 -0.36451986 0
0.12621808 0.14772844 -0.36212537 0
0.20351887 0.21575117 -0.35966158 0
0.29421914 0.25313568 -0.35722148 0
0.40366268 0.32936859 -0.35449871 0
0.49352443 0.39155674 -0.35181981 0
0.57408214 0.41546345 -0.35000703 0
-0.059965849 0.15246773 -0.36363649 0
-0.0035226345 0.18361092 -0.36158338 0
0.084233284 0.23338413 -0.35975072 0
0.17661548 0.30200863 -0.35704753 0
0.24339819 0.36008167 -0.3544693 0
0.33464825 0.38940096 -0.35305983 0
0.36726224 0.47708511 -0.34952447 0
0.47851646 0.48173189 -0.34935391 0
-0.11342394 0.22890902 -0.35938773 0
-0.047241211 0.27646923 -0.35777277 0
0.023755908 0.32728195 -0.3553355 0
0.10277903 0.3721447 -0.35364354 0
0.17238414 0.42478895 -0.35145566 0
0.25012136 0.48641443 -0.3487637 0
-0.11535609 0.33873081 -0.35443851 0
-0.025397301 0.4189477 -0.35129634 0
0.081693649 0.46970367 -0.34947824 0
-0.17001176 0.42799234 -0.35052484 0
-0.081126571 0.48463583 -0.34831613 0
0.41381848 -0.48626089 -0.25802779 0
0.454211 -0.42792463 -0.25548202 0
0.41978383 -0.40896797 -0.23423117 0
0.46140349 -0.33940887 -0.25290346 0
0.92981803 0.0076041222 -0.20040628 0
0.49741662 -0.22029018 -0.24772349 0
0.54882038 -0.12648535 -0.26291075 0
0.66483307 -0.074904919 -0.21574005 0
0.72216153 -0.041636944 -0.22293442 0
0.83404243 0.029157162 -0.23362294 0
0.91109061 0.06568718 -0.24910986 0
0.56109869 -0.086994171 -0.23364729 0
0.59794199 -0.026130199 -0.24933752 0
0.68686545 0.039568424 -0.27642888 0
0.43537486 -0.49138784 -0.16821657 0
0.50357628 -0.43472052 -0.11666596 0
0.94704783 -0.14063978 -0.098109022 0
0.43568456 -0.41424465 -0.15710738 0
0.45447969 -0.34765339 -0.15040512 0
0.49697888 -0.27844954 -0.10145985 0
0.70677578 -0.18184948 -0.123207 0
0.78415298 -0.14717102 -0.13281079 0
0.86701548 -0.085011005 -0.15400708 0
0.97872913 -0.043605804 -0.15055138 0
0.45173621 -0.28210211 -0.14429113 0
0.48293674 -0.22139883 -0.15359785 0
0.53294313 -0.14185381 -0.16981898 0
0.71215653 -0.11393642 -0.17528886 0
0.82721412 -0.048333168 -0.18741575 0
0.54095614 -0.10826778 -0.17090955 0
0.97632706 -0.32170534 -0.00088354945 0
0.64107037 -0.49377251 -0.0071878731 0
0.76283467 -0.33724165 -0.0097097158 0
0.88578141 -0.27330112 -0.029506058 0
0.51785195 -0.43289518 -0.07052879 0
0.58390355 -0.38722134 -0.028258592 0
0.67455208 -0.33169651 -0.028447852 0
0.78397143 -0.27311707 -0.04824324 0
0.84276569 -0.17442274 -0.08725819 0
0.91806626 -0.19370031 -0.069180831 0
0.49985075 -0.38327503 -0.084560677 0
0.50880241 -0.3167429 -0.075788721 0
0.63188362 -0.27040052 -0.083355829 0
0.71928358 -0.24068546 -0.079469651 0
0.87343049 -0.41838264 0.04288283 0
0.6592257 -0.47549391 0.019727975 0
0.75061631 -0.41107082 0.023364931 0
0.86330628 -0.3561759 0.0051150918 0
0.42593312 -0.47064352 -0.32513437 0
0.29818428 -0.44903612 -0.35050052 0
0.38623047 -0.4020052 -0.34740248 0
0.46760762 -0.37518978 -0.32555115 0
0.50686538 -0.28343201 -0.33290407 0
0.051214337 -0.48758078 -0.36360794 0
0.14907169 -0.4248395 -0.36082357 0
0.21653533 -0.3749795 -0.35902441 0
0.32855821 -0.32056618 -0.35481194 0
0.42279553 -0.23080826 -0.35350412 0
0.50297606 -0.23486376 -0.33572209 0
0.54552174 -0.15131617 -0.32666698 0
-0.063876987 -0.45106173 -0.37208116 0
0.025013924 -0.40254831 -0.36911383 0
0.090489388 -0.34673977 -0.36760271 0
0.19379318 -0.29357767 -0.36399132 0
0.24181449 -0.23908806 -0.36356667 0
0.34826481 -0.20161724 -0.35920039 0
0.41305935 -0.1348033 -0.35826251 0
0.55659425 -0.076897144 -0.35254893 0
0.60481989 -0.02846384 -0.32851258 0
0.63602436 0.042185783 -0.31864613 0
0.76191688 0.12192488 -0.32364494 0
0.83080912 0.099899769 -0.29478875 0
0.9188081 0.17213154 -0.32364377 0
0.98012018 0.24711132 -0.34712821 0
-0.20566368 -0.43114805 -0.38053507 0
-0.12101018 -0.38199568 -0.37825292 0
-0.040333033 -0.32199812 -0.37595075 0
0.035437584 -0.26558542 -0.37406331 0
0.12291729 -0.22603559 -0.37085432 0
0.20660758 -0.16596794 -0.36891121 0
0.29225791 -0.068784714 -0.36743727 0
0.36049855 -0.063485622 -0.36427635 0
0.46338046 0.011093616 -0.3614558 0
0.56948233 0.064278603 -0.35791758 0
0.66106951 0.081727028 -0.3197529 0
0.69604468 0.15435839 -0.3536557 0
0.84925103 0.24245834 -0.35084632 0
0.9724164 0.29660797 -0.34768829 0
-0.18310559 -0.30380821 -0.37902752 0
-0.10211301 -0.22768927 -0.37587962 0
0.00036990643 -0.18017721 -0.37330174 0
0.072508812 -0.12446022 -0.37099066 0
0.1799469 -0.088497162 -0.36923072 0
0.23121572 -0.016483307 -0.36694616 0
0.30814421 0.02112484 -0.36471283 0
0.40203214 0.082885742 -0.36204949 0
0.45881295 0.1596427 -0.35974157 0
0.57069612 0.19081879 -0.35746235 0
0.7164247 0.27658176 -0.35405457 0
0.83534193 0.37515163 -0.34998623 0
0.96430838 0.44253302 -0.34671479 0
-0.22365224 -0.19859266 -0.37618697 0
-0.15378046 -0.16451597 -0.37447661 0
-0.092422962 -0.10300303 -0.37238985 0
0.015820265 -0.056186676 -0.36992604 0
0.08303082 0.033775806 -0.36719027 0
0.18041205 0.05420351 -0.3652254 0
0.23511887 0.11726809 -0.36276254 0
0.33312321 0.15657473 -0.36066931 0
0.4414736 0.22305107 -0.35809377 0
0.55078185 0.28046465 -0.3551966 0
0.66836274 0.38217831 -0.35121706 0
0.78780091 0.48816538 -0.34704444 0
-0.20748091 -0.073671341 -0.372816 0
-0.13695014 -0.023191929 -0.37061927 0
-0.044816017 0.043989658 -0.3679361 0
0.052602649 0.11507893 -0.36497578 0
0.14728665 0.15790606 -0.36296079 0
0.23559475 0.21674061 -0.36045569 0
0.31853318 0.26628494 -0.35800537 0
0.41764545 0.30544615 -0.35599887 0
0.42718577 0.40010595 -0.35396138 0
0.53165746 0.41170168 -0.35207599 0
-0.24219906 0.024068356 -0.36986646 0
-0.16739345 0.075335503 -0.36785033 0
-0.095542789 0.11065245 -0.36597118 0
-0.033707619 0.18933058 -0.36244676 0
0.070382595 0.22881079 -0.36069381 0
0.17568529 0.27948666 -0.3585766 0
0.28988445 0.32379484 -0.35646832 0
0.28138101 0.39394808 -0.35389632 0
0.37904322 0.44254446 -0.35197559 0
-0.23195326 0.14926672 -0.36434674 0
-0.14401209 0.21905518 -0.36114344 0
-0.059265614 0.2638669 -0.35958484 0
0.0041517019 0.30848598 -0.3575753 0
0.11391866 0.36159515 -0.3551867 0
0.15788317 0.42860556 -0.35221815 0
0.25377715 0.48060322 -0.35008448 0
-0.29079044 0.21907759 -0.36078244 0
-0.22493279 0.29326916 -0.35740793 0
-0.12048292 0.33724308 -0.35592952 0
-0.03241694 0.3987999 -0.35341609 0
0.032854795 0.43042612 -0.35162538 0
-0.32764268 0.31047249 -0.35658342 0
-0.30338538 0.36791849 -0.35396355 0
-0.18599248 0.40660429 -0.35267335 0
-0.11162567 0.47154522 -0.34977454 0
-0.38066602 0.37940645 -0.35436124 0
-0.31726861 0.45284939 -0.35194612 0
-0.43752801 0.49659491 -0.35141766 0
0.41974556 -0.48453856 -0.24538532 0
0.4567498 -0.43620205 -0.28884792 0
0.46410537 -0.35922146 -0.25128835 0
0.49863088 -0.29118872 -0.29372904 0
0.94700158 0.010082245 -0.19811666 0
0.51107311 -0.2356081 -0.24966252 0
0.54203916 -0.15222502 -0.24142456 0
0.73028708 -0.072488308 -0.20336229 0
0.79443276 0.0227561 -0.24566945 0
0.89175904 0.039364338 -0.23264173 0
0.97717535 0.10568666 -0.25815025 0
0.56587613 -0.086728096 -0.28303486 0
0.5856564 -0.05090332 -0.2433643 0
0.71465051 0.033831596 -0.27674657 0
0.42809594 -0.49766636 -0.17533119 0
0.49069774 -0.44804907 -0.12765056 0
0.40449905 -0.43098783 -0.19104594 0
0.45477998 -0.3603735 -0.14659266 0
0.47396839 -0.2992506 -0.17034532 0
0.7092222 -0.1936841 -0.12148625 0
0.78832722 -0.1190486 -0.15506975 0
0.85982025 -0.098359108 -0.14274487 0
0.96598601 -0.045264244 -0.15753609 0
0.48490119 -0.23729753 -0.15105268 0
0.50896215 -0.16100073 -0.17553701 0
0.69870508 -0.12574148 -0.17147046 0
0.730353 -0.39401817 -0.00099694729 0
0.87352359 -0.32380342 -0.020209476 0
0.53472149 -0.43011379 -0.073216453 0
0.57863533 -0.40094995 -0.029701412 0
0.66441941 -0.32969666 -0.028927058 0
0.73398495 -0.30035067 -0.048364758 0
0.80503726 -0.22502995 -0.079251885 0
0.92306435 -0.20475578 -0.075093284 0
0.48797739 -0.33550167 -0.080693081 0
0.51723123 -0.31796598 -0.075384274 0
0.89530146 -0.45104265 0.059732199 0
0.91139865 -0.36787653 0.019274533 0
0.64922202 -0.47843933 0.011270314 0
0.75407743 -0.43117857 0.024384558 0
0.6362797 -0.4100275 0.0055194497 0
0.43471587 -0.4802866 -0.315918 0
0.32588804 -0.45285606 -0.34787557 0
0.41773844 -0.45830774 -0.33198315 0
0.47039068 -0.35898018 -0.33257687 0
0.11131024 -0.49542999 -0.35859615 0
0.18563163 -0.42289591 -0.3575052 0
0.25252247 -0.38970327 -0.35516214 0
0.36231041 -0.35577822 -0.3502557 0
0.44471216 -0.29768848 -0.34097511 0
0.51480484 -0.21221447 -0.327775 0
-0.027654409 -0.49612713 -0.36663342 0
0.038209319 -0.41396046 -0.36654636 0
0.12678504 -0.35840464 -0.36375704 0
0.21514463 -0.2923274 -0.3616212 0
0.29322457 -0.22222996 -0.36032566 0
0.38734746 -0.20178843 -0.35554823 0
0.49406409 -0.14181328 -0.35179442 0
0.56718123 -0.11215115 -0.31106126 0
0.61975229 -0.02842474 -0.33592117 0
0.73666167 0.084652901 -0.30983439 0
0.88264608 0.15022182 -0.31571713 0
0.99353695 0.19338703 -0.31640279 0
-0.24371874 -0.48989916 -0.37978175 0
-0.16292489 -0.43666029 -0.37736806 0
-0.089265227 -0.3852973 -0.3752616 0
-0.017488003 -0.33246088 -0.37315848 0
0.078030348 -0.27550983 -0.37038758 0
0.16308582 -0.223032 -0.36783373 0
0.25165129 -0.14426613 -0.36661637 0
0.30334747 -0.13371706 -0.36361712 0
0.41565001 -0.060176849 -0.36027759 0
0.53279793 0.00015735626 -0.35607767 0
0.68246615 0.097498417 -0.33810022 0
0.78249025 0.15618229 -0.34697372 0
0.81106603 0.22038221 -0.3498688 0
0.95322943 0.23945141 -0.34617528 0
0.97323978 0.31928158 -0.34653282 0
-0.36017609 -0.46215582 -0.38350421 0
-0.32050192 -0.41128874 -0.38175359 0
-0.21738005 -0.35367298 -0.37936348 0
-0.15522194 -0.29122639 -0.37675968 0
-0.058300972 -0.23346615 -0.37426376 0
0.040321946 -0.18012285 -0.37198716 0
0.12380397 -0.13739681 -0.36976707 0
0.20433486 -0.099972725 -0.36752322 0
0.27756834 -0.043020725 -0.36549324 0
0.36371422 0.033146858 -0.3625209 0
0.45718515 0.12263155 -0.35998526 0
0.55584669 0.11609507 -0.35836938 0
0.55990028 0.17852449 -0.35692412 0
0.68511045 0.2194047 -0.35429341 0
0.78805029 0.29287195 -0.35068884 0
0.97490144 0.41031885 -0.34609333 0
-0.34357798 -0.31185675 -0.37962076 0
-0.27738464 -0.28357029 -0.37803066 0
-0.19517875 -0.20436621 -0.37489575 0
-0.11586094 -0.15249157 -0.37241685 0
-0.031139851 -0.0711689 -0.36950561 0
0.053957343 -0.075295448 -0.36883259 0
0.093107939 0.00029563904 -0.36607772 0
0.19525087 0.03900528 -0.36405906 0
0.295241 0.096313953 -0.3616434 0
0.3705734 0.12968683 -0.3590281 0
0.53069103 0.23753357 -0.35529038 0
0.63846362 0.30211782 -0.35197082 0
0.76400697 0.37454987 -0.34861636 0
0.79178834 0.46396303 -0.34684074 0
-0.36747074 -0.24347019 -0.37757707 0
-0.32193398 -0.17807531 -0.3754777 0
-0.24631596 -0.11961699 -0.3731623 0
-0.18768942 -0.086007118 -0.3713704 0
-0.099230766 -0.010926723 -0.36885351 0
-0.0035457611 0.031032562 -0.36636731 0
0.10197198 0.10175848 -0.36375621 0
0.17113745 0.14182234 -0.36141971 0
0.26875746 0.17979383 -0.35945216 0
0.32856297 0.24685097 -0.35720167 0
0.38908124 0.31367111 -0.35496667 0
0.50882769 0.33925343 -0.35278553 0
0.61699522 0.41088676 -0.3493363 0
-0.39554596 -0.10115385 -0.37333551 0
-0.29646528 -0.045495033 -0.37121037 0
-0.22054017 0.015703678 -0.36849114 0
-0.10826766 0.071876049 -0.36595881 0
-0.041707158 0.11728191 -0.36429191 0
0.057396293 0.18903065 -0.36099988 0
0.19785786 0.26656771 -0.35809198 0
0.23257661 0.3378706 -0.35498461 0
0.3543725 0.39725018 -0.35248151 0
0.49232221 0.44174576 -0.35037583 0
0.59452236 0.48215437 -0.3475824 0
-0.40555847 0.010092258 -0.36876079 0
-0.34412932 0.052448273 -0.36685282 0
-0.28548753 0.096795082 -0.36480889 0
-0.18726051 0.14580393 -0.36298212 0
-0.11698139 0.18289137 -0.3618122 0
-0.064191222 0.24314547 -0.35865825 0
0.038803101 0.30049992 -0.35660455 0
0.12312543 0.33877087 -0.35476604 0
0.20195568 0.39971495 -0.3520273 0
0.31736684 0.48849106 -0.34843504 0
-0.4442035 0.054854393 -0.36615217 0
-0.40449703 0.12891102 -0.36335969 0
-0.34725404 0.19088697 -0.3603974 0
-0.25642085 0.22088528 -0.3594414 0
-0.17291749 0.27808619 -0.35700563 0
-0.10412049 0.33726358 -0.35427615 0
-0.019889235 0.3840189 -0.35226604 0
0.079657316 0.44087124 -0.35006261 0
0.15944767 0.47853565 -0.3482368 0
-0.49379766 0.13649893 -0.36195892 0
-0.45577705 0.21099329 -0.3594186 0
-0.38660359 0.27669716 -0.35660899 0
-0.29495955 0.2940917 -0.3554993 0
-0.23219836 0.36678886 -0.35289177 0
-0.12979281 0.41485405 -0.3508805 0
-0.071242571 0.4776988 -0.34778655 0
-0.51612628 0.28469801 -0.35695049 0
-0.42283201 0.35197449 -0.3541837 0
-0.32560587 0.41085291 -0.35155982 0
-0.29373634 0.45850134 -0.34966972 0
-0.57099915 0.36175156 -0.3550311 0
-0.49582863 0.44022322 -0.352617 0
-0.40552616 0.48138428 -0.3503848 0
-0.34849155 0.49595594 -0.34754235 0
-0.59437132 0.46636295 -0.35285002 0
0.42009091 -0.49739313 -0.24542761 0
0.42993951 -0.43182993 -0.24635571 0
0.46744013 -0.35553789 -0.2618959 0
0.47591138 -0.28825521 -0.24517167 0
0.52417076 -0.21219635 -0.25650054 0
0.76863563 -0.036955833 -0.21639231 0
0.87548339 0.0012874603 -0.21328583 0
0.93148589 0.028810024 -0.22175342 0
0.50862598 -0.1646142 -0.21257707 0
0.56035364 -0.10613203 -0.25006542 0
0.60126734 -0.02936554 -0.25881255 0
0.82907903 0.059430599 -0.26127115 0
0.98608732 0.14993572 -0.28190118 0
0.62220359 0.017003059 -0.27662161 0
0.50050807 -0.4799881 -0.12331615 0
0.43113005 -0.42359495 -0.17223918 0
0.46794987 -0.36718416 -0.14331496 0
0.76068962 -0.14741707 -0.14671376 0
0.83145761 -0.15729952 -0.11715156 0
0.96366954 -0.026154995 -0.16085273 0
0.46009707 -0.2913599 -0.15231344 0
0.48613071 -0.22102594 -0.1581676 0
0.70225155 -0.13317013 -0.16650131 0
0.85032761 -0.051495075 -0.18038812 0
0.51824248 -0.14842081 -0.17241624 0
0.96826804 -0.27069616 -0.024474174 0
0.4834367 -0.47600889 -0.10158427 0
0.545591 -0.4622426 -0.065848663 0
0.61472261 -0.39766264 -0.020156249 0
0.78469884 -0.33468866 -0.014836445 0
0.84632933 -0.24386454 -0.05612579 0
0.95083678 -0.24429274 -0.050905466 0
0.5086962 -0.37720251 -0.079287723 0
0.5488745 -0.33317471 -0.049288034 0
0.64723814 -0.31351995 -0.058280408 0
0.72872031 -0.23354912 -0.09035179 0
0.47897637 -0.30007648 -0.096030787 0
0.51058042 -0.26441717 -0.083372727 0
0.77942443 -0.49005461 0.066462636 0
0.91275847 -0.41343784 0.033902347 0
0.96631527 -0.44028378 0.06178388 0
0.71686912 -0.49592352 0.027630061 0
0.77283752 -0.44934893 0.039247483 0
0.80169666 -0.38113022 0.011869431 0
0.93211305 -0.34661245 0.0053927004 0
0.66284835 -0.42085791 0.018537641 0
0.33335793 -0.45975637 -0.34703162 0
0.43715394 -0.40831852 -0.33627504 0
0.47247267 -0.33496523 -0.32719684 0
0.11630857 -0.46456432 -0.36032501 0
0.21689582 -0.45250511 -0.35492527 0
0.28932619 -0.37736988 -0.35407737 0
0.34665084 -0.31403828 -0.3534207 0
0.45026064 -0.29576826 -0.34800231 0
0.52866113 -0.21028709 -0.32381701 0
0.57302737 -0.14458895 -0.33661288 0
-0.097438335 -0.49694633 -0.37123767 0
0.022978306 -0.4382 -0.36669534 0
0.088526249 -0.37462616 -0.36588454 0
0.1242311 -0.33403873 -0.36542988 0
0.25255406 -0.29182386 -0.36005154 0
0.36993563 -0.23949146 -0.35551742 0
0.37273276 -0.1697197 -0.35834104 0
0.50019026 -0.1480546 -0.35198876 0
0.55886972 -0.089282513 -0.33021021 0
0.62880147 -0.0051875114 -0.33856285 0
0.87981701 0.16268635 -0.32738534 0
0.98996711 0.21044493 -0.32829037 0
-0.25018978 -0.48249865 -0.38082194 0
-0.15512693 -0.42440701 -0.37786198 0
-0.060881138 -0.37454176 -0.37467864 0
0.0050494671 -0.32900333 -0.37269467 0
0.07125473 -0.25093365 -0.37240657 0
0.17020714 -0.19924831 -0.36896211 0
0.27340162 -0.15072727 -0.36511526 0
0.3889302 -0.092239857 -0.36091572 0
0.41304314 -0.024641037 -0.36273065 0
0.51002538 -0.0017132759 -0.35777804 0
0.64904463 0.060705662 -0.33809286 0
0.64881372 0.089414597 -0.32365358 0
0.77685273 0.16632366 -0.34589598 0
-0.46778738 -0.48888111 -0.38589364 0
-0.3835355 -0.45631647 -0.38436666 0
-0.31286836 -0.39912128 -0.38175026 0
-0.23156631 -0.33359432 -0.37916189 0
-0.10045135 -0.29164171 -0.37712207 0
-0.044901967 -0.2404561 -0.37506449 0
0.043738008 -0.16803932 -0.37209037 0
0.17176247 -0.082064152 -0.36853942 0
0.2684648 -0.032936096 -0.36572379 0
0.38558888 0.03044939 -0.36261627 0
0.53109717 0.12230968 -0.3589794 0
0.64637148 0.20352554 -0.35531741 0
0.82333839 0.31004858 -0.35089603 0
0.98478293 0.40270281 -0.34620148 0
-0.50749135 -0.42196751 -0.38445914 0
-0.43420815 -0.36499882 -0.38221204 0
-0.3595587 -0.30550241 -0.37991926 0
-0.28313196 -0.27305651 -0.37789613 0
-0.21906018 -0.20731592 -0.37572369 0
-0.10128748 -0.14333344 -0.3726418 0
0.003344655 -0.10817194 -0.37058696 0
0.051306009 -0.030489445 -0.36815789 0
0.14556205 0.0042200089 -0.36623794 0
0.24607956 0.057730675 -0.36338684 0
0.37797511 0.14133883 -0.35997504 0
0.51625562 0.22737169 -0.35643721 0
0.64384496 0.33120394 -0.35241005 0
0.77348018 0.40766954 -0.34830001 0
-0.52194011 -0.35802937 -0.38264066 0
-0.48370802 -0.27568197 -0.3803491 0
-0.402089 -0.21226597 -0.37755615 0
-0.30015492 -0.15271664 -0.37517476 0
-0.23102975 -0.13297319 -0.37380189 0
-0.16096175 -0.073678493 -0.37118202 0
-0.076905847 -0.016785622 -0.36870402 0
0.034155488 0.060885906 -0.36588004 0
0.12239468 0.086556911 -0.36412141 0
0.19468534 0.15886354 -0.36145216 0
0.20978057 0.22115183 -0.35935867 0
0.35268652 0.23602724 -0.35761461 0
0.47342348 0.32002401 -0.3540113 0
0.59292889 0.41852474 -0.35007152 0
-0.53831542 -0.19046879 -0.37786132 0
-0.46347022 -0.15453625 -0.37598172 0
-0.37764454 -0.084450245 -0.37338984 0
-0.28558278 -0.022349358 -0.37081444 0
-0.19163811 0.020999432 -0.36839527 0
-0.094370365 0.090090275 -0.36564973 0
-0.024618626 0.11524773 -0.36508507 0
0.034823895 0.19099092 -0.3619056 0
0.083861589 0.24586582 -0.35951588 0
0.18315017 0.28631306 -0.35734504 0
0.3140012 0.35197639 -0.35444844 0
0.45949352 0.42922449 -0.35144126 0
-0.57518947 -0.10202026 -0.37356937 0
-0.49332714 -0.043917656 -0.37149981 0
-0.43220401 0.0040931702 -0.36976781 0
-0.35141027 0.061035156 -0.36673814 0
-0.26580811 0.093315601 -0.36556846 0
-0.17277992 0.13145447 -0.36374924 0
-0.129812 0.2151351 -0.36046332 0
-0.032405257 0.26706696 -0.35839552 0
0.051803827 0.30658722 -0.35658187 0
0.1535176 0.38072824 -0.35326883 0
0.26075375 0.49498034 -0.34844655 0
0.29084384 0.45770264 -0.35040632 0
-0.57381833 0.017748356 -0.368545 0
-0.48569334 0.089683056 -0.36557454 0
-0.38786685 0.13234997 -0.36378846 0
-0.34136224 0.16879416 -0.36177608 0
-0.25312543 0.2162652 -0.35988683 0
-0.16714263 0.2636795 -0.35788405 0
-0.084713936 0.33345461 -0.35486159 0
0.022471666 0.39563036 -0.35269412 0
0.11596859 0.47183418 -0.34917954 0
-0.60641062 0.10712004 -0.36446643 0
-0.55006325 0.16828156 -0.36169431 0
-0.44728231 0.2267518 -0.35942912 0
-0.36973464 0.26574993 -0.35758981 0
-0.2968179 0.27916098 -0.35666525 0
-0.20862675 0.37164116 -0.35356727 0
-0.10356414 0.43217802 -0.35021231 0
-0.032482862 0.43278885 -0.35024756 0
-0.67097056 0.18371439 -0.36172536 0
-0.58027816 0.25423098 -0.35902309 0
-0.49233794 0.3178091 -0.3564629 0
-0.4169898 0.37186289 -0.35412517 0
-0.32468355 0.40850687 -0.352303 0
-0.24562025 0.46080399 -0.34998012 0
-0.68256903 0.27870512 -0.35972106 0
-0.66028392 0.33825254 -0.35770422 0
-0.55848444 0.38522053 -0.35519484 0
-0.46949637 0.44865751 -0.35228905 0
-0.3671546 0.49661016 -0.35018921 0
-0.75945818 0.37857246 -0.35733852 0
-0.69331336 0.43438768 -0.35534483 0
-0.62337101 0.46675634 -0.35380113 0
-0.8223927 0.43238401 -0.35600626 0
0.41865385 -0.4836545 -0.26399332 0
0.4384625 -0.41210318 -0.24728069 0
0.48288596 -0.33436394 -0.27536291 0
0.48046494 -0.28934002 -0.249421 0
0.52266896 -0.19370794 -0.24704996 0
0.77592409 -0.019261837 -0.22133756 0
0.88501775 -0.0016031265 -0.20171812 0
0.92827988 0.060774803 -0.24031362 0
0.53486633 -0.13127756 -0.23811466 0
0.58203757 -0.070348263 -0.26151529 0
0.6340133 0.015305042 -0.27281117 0
0.77751148 0.016937256 -0.25713152 0
0.83546841 0.095863819 -0.28787088 0
0.465747 -0.49445534 -0.14452051 0
0.44380248 -0.40177441 -0.16459003 0
0.47438765 -0.36364317 -0.13272244 0
0.74492466 -0.20071363 -0.10483648 0
0.85431969 -0.13176107 -0.12912494 0
0.9447031 -0.056183338 -0.15131617 0
0.96240973 -0.012880802 -0.1824927 0
0.47829711 -0.25646734 -0.15410016 0
0.49689341 -0.1993432 -0.15097573 0
0.71720088 -0.093706131 -0.18561572 0
0.79070318 -0.10853052 -0.16775435 0
0.51049161 -0.17486715 -0.14965129 0
0.5464381 -0.11509752 -0.19518632 0
0.55055416 -0.44709635 -0.061150849 0
0.60994661 -0.38369083 -0.016257122 0
0.81520939 -0.28736544 -0.039592683 0
0.51000178 -0.36543036 -0.074881569 0
0.61925364 -0.34183359 -0.039341792 0
0.71226668 -0.25224161 -0.072746933 0
0.88001931 -0.17725182 -0.083646059 0
0.51837611 -0.26809216 -0.085319206 0
0.77397156 -0.49868059 0.060155243 0
0.66464174 -0.48633432 0.021593362 0
0.7819947 -0.40713072 0.017722338 0
0.6351335 -0.42080879 0.010733396 0
0.96539259 -0.35637045 1.2084483 0
0.36896932 -0.44650173 -0.34832606 0
0.44392252 -0.39028025 -0.33315498 0
0.5005492 -0.30467081 -0.329101 0
0.11367404 -0.47921133 -0.36284447 0
0.20180559 -0.41465282 -0.36060122 0
0.32556903 -0.38042879 -0.35492411 0
0.39051378 -0.32091522 -0.35373577 0
0.45928288 -0.25408411 -0.35268345 0
0.53517735 -0.21053648 -0.32405117 0
-0.09002161 -0.47495747 -0.37522954 0
-0.0093560219 -0.46247101 -0.37100136 0
0.065654635 -0.3826766 -0.37028775 0
0.12180877 -0.33999062 -0.36885366 0
0.24126709 -0.27915764 -0.36455774 0
0.34896684 -0.23174286 -0.36015165 0
0.48832285 -0.18720198 -0.35420665 0
0.52173698 -0.12914896 -0.34100753 0
0.60510588 -0.06940794 -0.32878643 0
0.64850819 0.0072541237 -0.33403599 0
0.87551391 0.10671139 -0.29345357 0
0.93062806 0.1877346 -0.32625419 0
-0.20159614 -0.47144318 -0.38195497 0
-0.17136872 -0.40013313 -0.38263309 0
-0.071107626 -0.36755705 -0.37885082 0
0.023794174 -0.29563046 -0.376351 0
0.14312661 -0.25882053 -0.37135696 0
0.15100718 -0.1875329 -0.37406027 0
0.2554009 -0.15736294 -0.36912695 0
0.38048136 -0.090008259 -0.36478838 0
0.51104605 0.001812458 -0.36126012 0
0.64867795 0.046005726 -0.33894467 0
0.68035066 0.1278038 -0.35705104 0
0.81237376 0.17213774 -0.3400788 0
0.85107303 0.22058296 -0.3522152 0
-0.45037568 -0.49241877 -0.38896418 0
-0.35781372 -0.41453028 -0.38630623 0
-0.26695108 -0.37422228 -0.38437581 0
-0.1938684 -0.32719374 -0.38195258 0
-0.070039153 -0.25550365 -0.37862718 0
-0.015187621 -0.21105051 -0.37605986 0
0.13897693 -0.11769438 -0.37270403 0
0.23796034 -0.066833496 -0.36971271 0
0.38015735 0.015837669 -0.36623251 0
0.49720931 0.10891342 -0.36230287 0
0.68050683 0.22087669 -0.35778669 0
0.8432976 0.30940628 -0.35324568 0
-0.65069664 -0.49889135 -0.39081195 0
-0.56271398 -0.45992613 -0.38922554 0
-0.5085479 -0.38786077 -0.38677436 0
-0.43290472 -0.36630774 -0.38540587 0
-0.3366915 -0.30339289 -0.38272724 0
-0.24947762 -0.24150324 -0.37998146 0
-0.19220901 -0.18835354 -0.37794456 0
-0.072647095 -0.13057423 -0.37562042 0
-0.014675498 -0.10824203 -0.37363929 0
0.10584736 -0.039210796 -0.37058482 0
0.20552492 -0.0057015419 -0.36801726 0
0.24842477 0.078158379 -0.36647153 0
0.361552 0.09224844 -0.36432844 0
0.42084837 0.17706013 -0.36153141 0
0.47989571 0.24892759 -0.35904115 0
0.64399207 0.29365778 -0.35588589 0
0.64061344 0.36101389 -0.35438913 0
0.79407549 0.44726419 -0.34994033 0
0.85079312 0.43020058 -0.3507368 0
-0.63516128 -0.37368727 -0.38784373 0
-0.55407095 -0.32046366 -0.38543221 0
-0.47546327 -0.26176453 -0.38283908 0
-0.40222788 -0.2275033 -0.38076317 0
-0.28122938 -0.14971495 -0.37816095 0
-0.21671963 -0.11023426 -0.37590817 0
-0.12948406 -0.053180695 -0.37333363 0
-0.026045918 0.018039227 -0.37065113 0
0.075972557 0.053678513 -0.36822361 0
0.20116568 0.13749123 -0.36476684 0
0.33115804 0.22264099 -0.36119008 0
0.44708145 0.32860327 -0.35705981 0
0.59604239 0.42730951 -0.35264516 0
-0.65850985 -0.27258873 -0.38451907 0
-0.60618532 -0.23452568 -0.38313332 0
-0.5327996 -0.1900959 -0.38074988 0
-0.43535018 -0.13352394 -0.37846604 0
-0.32728386 -0.06633091 -0.37544277 0
-0.25775218 -0.017487526 -0.37302831 0
-0.1288054 0.051339149 -0.37083247 0
-0.057727933 0.12926865 -0.36749887 0
0.063820362 0.18557501 -0.3649171 0
0.17192078 0.2328167 -0.3624047 0
0.29366255 0.32067108 -0.35868204 0
0.41499698 0.4380064 -0.35409051 0
-0.71710837 -0.19531965 -0.38078937 0
-0.64472497 -0.16401434 -0.37954256 0
-0.59291863 -0.093019962 -0.37670904 0
-0.50074685 -0.057086945 -0.37471479 0
-0.40217495 0.0051960945 -0.37265819 0
-0.31784856 0.060619831 -0.36998707 0
-0.23667598 0.12191296 -0.3672761 0
-0.14061439 0.17365885 -0.3652021 0
0.001200676 0.28457832 -0.36029816 0
0.093284488 0.35340881 -0.35683137 0
0.16724825 0.31982851 -0.3595123 0
0.26532888 0.42876339 -0.35455275 0
0.36278737 0.49782753 -0.35102683 0
-0.70289576 -0.072329521 -0.37569779 0
-0.63237214 -0.0073947906 -0.37273842 0
-0.54599905 0.025080204 -0.37119263 0
-0.47966802 0.079200268 -0.36891446 0
-0.39185607 0.1291585 -0.36691472 0
-0.28862941 0.20485067 -0.36336872 0
-0.1424005 0.28636885 -0.35998997 0
-0.037401676 0.37194395 -0.35635188 0
0.065018415 0.45408964 -0.35264897 0
-0.78279614 -0.0069198608 -0.37218738 0
-0.69240868 0.067290306 -0.36914951 0
-0.57885146 0.12295771 -0.36727384 0
-0.49915743 0.17228603 -0.36461076 0
-0.45208323 0.23643208 -0.36177993 0
-0.36801016 0.28218889 -0.35982025 0
-0.23149061 0.3300004 -0.35800746 0
-0.20572543 0.38043785 -0.35536435 0
-0.068545461 0.43399525 -0.35352227 0
-0.809654 0.095434666 -0.36902598 0
-0.73887372 0.13945866 -0.36671689 0
-0.66010892 0.21426678 -0.36386847 0
-0.57988083 0.2560811 -0.3617951 0
-0.48228669 0.30442762 -0.3597548 0
-0.41468489 0.34968758 -0.35753465 0
-0.31491756 0.41901207 -0.35493201 0
-0.24871826 0.4556098 -0.35267109 0
-0.85881627 0.17689657 -0.3670913 0
-0.79530847 0.23478651 -0.36468497 0
-0.70841026 0.28527784 -0.36252907 0
-0.59956622 0.36347961 -0.3595767 0
-0.53490508 0.41114759 -0.35736954 0
-0.45676553 0.44250727 -0.35549283 0
-0.91333222 0.27590275 -0.36488488 0
-0.82810128 0.31439734 -0.36330655 0
-0.75479352 0.3638587 -0.36100566 0
-0.67071354 0.43706226 -0.35835078 0
-0.94638681 0.3522234 -0.36312574 0
-0.89201558 0.40395689 -0.36094284 0
-0.82550347 0.45684671 -0.35866854 0
0.43977964 -0.46497202 -0.2920967 0
0.45544589 -0.3958745 -0.25614855 0
0.48742056 -0.31672478 -0.2833482 0
0.4900887 -0.26616955 -0.24336383 0
0.5308491 -0.19411135 -0.26067293 0
0.76473975 -0.045585155 -0.21385986 0
0.96479595 0.086132526 -0.252157 0
0.54442596 -0.14422989 -0.24872747 0
0.58716464 -0.079620838 -0.25261432 0
0.63864934 0.0058698654 -0.27221364 0
0.81556809 0.028040409 -0.25123265 0
0.67515254 0.074248791 -0.29091489 0
0.47921228 -0.49849319 -0.13399352 0
0.40892947 -0.47975683 -0.20766774 0
0.45066202 -0.39880323 -0.16303934 0
0.79743767 -0.15501976 -0.12603043 0
0.84079826 -0.098231316 -0.16445397 0
0.96134758 -0.10507679 -0.12297571 0
0.44307697 -0.33227921 -0.15372819 0
0.47487617 -0.27303123 -0.15057042 0
0.52622771 -0.19400024 -0.16677704 0
0.89731443 -0.011023045 -0.19220647 0
0.53698766 -0.14154005 -0.17379504 0
0.87459958 -0.31595898 -0.009633854 0
0.49994349 -0.48392057 -0.10726172 0
0.5610342 -0.44618464 -0.05380486 0
0.63901126 -0.35983133 -0.03056784 0
0.87310207 -0.27309084 -0.04249154 0
0.93538904 -0.18978548 -0.071991473 0
0.52801442 -0.33927822 -0.082312599 0
0.68430614 -0.29678822 -0.058269203 0
0.76228988 -0.21086788 -0.091588199 0
0.52089787 -0.23573589 -0.10161689 0
0.85527635 -0.4691205 0.064943492 0
0.67634785 -0.45816231 0.026471317 0
0.81195068 -0.41262054 0.021555156 0
0.6102581 -0.42212772 -5.2720308e-05 0
0.95432079 -0.30237246 1.2456068 0
0.98029006 -0.2202177 1.2473819 0
0.432585 -0.49521112 -0.31700861 0
0.46356738 -0.4294281 -0.30400604 0
0.48742449 -0.3778019 -0.32382044 0
0.53718936 -0.30249214 -0.34326595 0
0.024083853 -0.49951792 -0.36453897 0
0.22635043 -0.42685747 -0.35544756 0
0.24916005 -0.40364742 -0.35542116 0
0.37805116 -0.3281827 -0.35126588 0
0.48589754 -0.2969799 -0.34577799 0
0.51646054 -0.24129343 -0.33019412 0
0.55395877 -0.19415712 -0.31608409 0
-0.012741804 -0.49248457 -0.36648077 0
0.010097861 -0.40905619 -0.36900494 0
0.14004433 -0.38710594 -0.36258492 0
0.19536209 -0.29908752 -0.36306354 0
0.26603687 -0.2992177 -0.35909045 0
0.4027431 -0.21022844 -0.35517123 0
0.41408277 -0.15583038 -0.35698855 0
0.57213998 -0.10655689 -0.32840753 0
0.62787485 -0.015367508 -0.31465438 0
0.8390857 0.095189095 -0.30112365 0
0.86214018 0.15462399 -0.33384559 0
0.99043107 0.13053226 -0.28217557 0
-0.25558162 -0.4667182 -0.38182312 0
-0.185377 -0.46036577 -0.37818912 0
-0.086982369 -0.38809156 -0.3756341 0
0.019936919 -0.33896112 -0.37156191 0
0.034315467 -0.28155613 -0.37338781 0
0.15988839 -0.23915911 -0.36802655 0
0.2832334 -0.19068861 -0.36296514 0
0.28826892 -0.14166689 -0.36484742 0
0.41652656 -0.078170776 -0.36022305 0
0.58147097 0.014657974 -0.35479483 0
0.67307997 0.076745033 -0.32764038 0
0.75244761 0.19596481 -0.35275838 0
0.95582676 0.28195667 -0.34713376 0
-0.37840343 -0.4506526 -0.38313481 0
-0.30904984 -0.45336914 -0.38289917 0
-0.22243404 -0.34627628 -0.37870649 0
-0.18104708 -0.32233953 -0.37782344 0
-0.09590435 -0.27310276 -0.37542289 0
0.026905417 -0.21230745 -0.37254974 0
0.14380383 -0.11929321 -0.36872956 0
0.18365252 -0.14436626 -0.36965838 0
0.27589512 -0.067652702 -0.36587247 0
0.39915311 -0.0055098534 -0.36268526 0
0.43720269 0.090105534 -0.3608624 0
0.58931756 0.14044952 -0.3574239 0
0.73670912 0.25797367 -0.3522234 0
0.93792999 0.38682032 -0.34680611 0
-0.54427826 -0.432971 -0.38459748 0
-0.45089781 -0.39388561 -0.38247856 0
-0.39161623 -0.32832909 -0.38003802 0
-0.29563975 -0.29432535 -0.37817276 0
-0.19233811 -0.20334911 -0.37491024 0
-0.12781405 -0.17113352 -0.37276265 0
0.016990304 -0.13624382 -0.37069651 0
0.026123524 -0.068562508 -0.36923864 0
0.12286067 -0.016871452 -0.36623967 0
0.24204981 0.058761597 -0.36276707 0
0.26240635 0.081749439 -0.36241642 0
0.39600527 0.15436029 -0.35911992 0
0.54278934 0.2428422 -0.35486105 0
0.72793531 0.36702108 -0.34982476 0
0.91319454 0.48371172 -0.34458345 0
-0.77919543 -0.47367716 -0.38769123 0
-0.67334688 -0.41837597 -0.38548318 0
-0.5788703 -0.34009314 -0.38241878 0
-0.50343478 -0.28654385 -0.37991309 0
-0.42080307 -0.24290228 -0.37838668 0
-0.33233607 -0.20209122 -0.3756943 0
-0.24416077 -0.14114332 -0.37303936 0
-0.14442611 -0.072618961 -0.3703863 0
-0.10299706 0.0026268959 -0.36783063 0
-0.004294157 -0.012340069 -0.36772361 0
0.093259454 0.10700512 -0.36327702 0
0.2340796 0.1828928 -0.35999268 0
0.33847094 0.24381256 -0.35675347 0
0.5074631 0.35751247 -0.35216668 0
0.66101062 0.4566679 -0.34745905 0
-0.80257809 -0.37659025 -0.38484421 0
-0.7214241 -0.32524395 -0.38294986 0
-0.64306271 -0.27296352 -0.38057154 0
-0.56394339 -0.22722673 -0.37866947 0
-0.46227133 -0.15088463 -0.37533239 0
-0.37946892 -0.13343143 -0.37461212 0
-0.32163954 -0.052834988 -0.37131137 0
-0.23186839 -0.013614178 -0.36929283 0
-0.13517046 0.059267998 -0.36598757 0
-0.077733874 0.13178968 -0.36319461 0
0.071415782 0.21391821 -0.36034316 0
0.19694436 0.24353027 -0.35836899 0
0.27500188 0.32766676 -0.35415277 0
0.45572662 0.45453691 -0.34939188 0
-0.84381568 -0.29151773 -0.38063392 0
-0.75940835 -0.22929859 -0.37845209 0
-0.67611372 -0.1641469 -0.37572449 0
-0.60551214 -0.14895535 -0.3754096 0
-0.55440366 -0.094158649 -0.37276298 0
-0.47371972 -0.032329082 -0.37014222 0
-0.36811996 0.023911953 -0.36817792 0
-0.28515363 0.07334137 -0.36519796 0
-0.123757 0.19904613 -0.3606793 0
0.0027110577 0.26111221 -0.3572664 0
0.0062196255 0.32021761 -0.35519549 0
0.13875127 0.33307886 -0.35440487 0
0.26561952 0.42550516 -0.35061091 0
0.24446726 0.4734602 -0.34849727 0
-0.82161927 -0.15957451 -0.3753804 0
-0.76521921 -0.10743856 -0.37288064 0
-0.68907833 -0.057903767 -0.37086111 0
-0.57941318 0.011788845 -0.36826396 0
-0.5150826 0.060332298 -0.36584595 0
-0.42694879 0.08579731 -0.36469376 0
-0.33013999 0.16775131 -0.36151403 0
-0.25996983 0.19921255 -0.35972425 0
-0.15680385 0.28090239 -0.35620138 0
-0.09502387 0.37421083 -0.35133281 0
-0.023522973 0.35901928 -0.35323125 0
0.084974527 0.42477417 -0.3500894 0
-0.88900006 -0.080096722 -0.3716051 0
-0.80398452 -0.013680458 -0.36876783 0
-0.68853748 0.056495667 -0.36600813 0
-0.63289547 0.084518909 -0.36451659 0
-0.55395722 0.1286149 -0.36257887 0
-0.4669888 0.18813944 -0.36017451 0
-0.37973809 0.26398611 -0.357097 0
-0.29664314 0.28128338 -0.35605732 0
-0.19725907 0.36823893 -0.35231185 0
-0.12183309 0.44144058 -0.34846038 0
-0.93323553 0.0033841133 -0.36877924 0
-0.86775768 0.069828033 -0.36652774 0
-0.78027511 0.11428976 -0.36416146 0
-0.69855714 0.17552423 -0.36137405 0
-0.59374619 0.22525644 -0.35936096 0
-0.52182519 0.26951313 -0.35719675 0
-0.44466555 0.3485117 -0.35428071 0
-0.35035324 0.38486004 -0.35235801 0
-0.24161232 0.45549154 -0.34926873 0
-0.98267698 0.092773438 -0.36625314 0
-0.93857336 0.13396406 -0.36527148 0
-0.83302152 0.19470739 -0.36240223 0
-0.73328352 0.26933384 -0.35934564 0
-0.64643121 0.33046627 -0.35701555 0
-0.56868386 0.36608982 -0.35506529 0
-0.51123953 0.40822935 -0.3533656 0
-0.38399827 0.49660635 -0.34997723 0
-0.97982252 0.2218709 -0.36326411 0
-0.88220704 0.27553415 -0.36060086 0
-0.7832346 0.34584951 -0.35809043 0
-0.7334156 0.40627289 -0.3556864 0
-0.61570609 0.46031523 -0.35304728 0
-0.52849817 0.4980731 -0.350981 0
-0.95044506 0.37281132 -0.35854515 0
-0.86174393 0.41747236 -0.35645828 0
-0.75981605 0.49450397 -0.35297075 0
-0.89890897 0.49803114 -0.35291207 0
0.43052602 -0.49876642 -0.25746635 0
0.43905616 -0.43497515 -0.23169056 0
0.47353208 -0.36856699 -0.25239781 0
0.49108267 -0.31496429 -0.25152761 0
