# .PCD v0.7 - Point Cloud Data file format
VERSION 0.7
FIELDS x y z intensity
SIZE 4 4 4 4
TYPE F F F F
COUNT 1 1 1 1
WIDTH 1293
HEIGHT 1
VIEWPOINT 0 0 0 1 0 0 0
POINTS 1293
DATA ascii
0.18680978 -0.14653349 -0.35838619 0
0.31308889 -0.15564013 -0.35855734 0
0.39373994 -0.14775658 -0.35853946 0
0.46418214 -0.16005945 -0.3584168 0
0.57858229 -0.16230726 -0.3582702 0
0.66335511 -0.13739204 -0.35819602 0
0.75779295 -0.1537056 -0.35846791 0
0.85245991 -0.16534758 -0.35821074 0
0.9879384 -0.1301837 -0.35777226 0
0.099084854 -0.064718246 -0.35798538 0
0.17823267 -0.038663387 -0.35792148 0
0.27914166 -0.044505119 -0.35791251 0
0.39561653 -0.037800312 -0.35810256 0
0.45994878 -0.042665958 -0.35767141 0
0.58150673 -0.045078278 -0.35807687 0
0.66590333 -0.050441265 -0.35781857 0
0.77163887 -0.065148354 -0.35789341 0
0.85395718 -0.053902626 -0.35732755 0
0.99850464 -0.03346014 -0.35756469 0
0.10840273 0.0521245 -0.35869902 0
0.1691227 0.065464497 -0.35858887 0
0.28147721 0.062010288 -0.35858598 0
0.39792228 0.059893131 -0.35861573 0
0.49258471 0.055389404 -0.35863504 0
0.58179617 0.057063103 -0.35856926 0
0.65561008 0.050740242 -0.35813892 0
0.76394463 0.044621944 -0.35828578 0
0.90315437 0.070244789 -0.35864887 0
0.1107471 0.16652989 -0.35940289 0
0.19051981 0.14387321 -0.35899082 0
0.28133178 0.15473557 -0.35911286 0
0.37856531 0.14683294 -0.35918784 0
0.48152328 0.16547298 -0.35943043 0
0.57327819 0.15781069 -0.35899174 0
0.683851 0.14127302 -0.35904711 0
0.75768423 0.15462303 -0.35876864 0
0.87874699 0.15578413 -0.35810745 0
0.99693489 0.16239262 -0.3566913 0
0.080345631 0.26355004 -0.35909531 0
0.15415764 0.23437405 -0.35924456 0
0.28756118 0.24470758 -0.35956055 0
0.39734983 0.25087452 -0.35954559 0
0.49189258 0.25463343 -0.35958666 0
0.58210611 0.26649046 -0.35886842 0
0.66785431 0.22507668 -0.35929829 0
0.75809765 0.24617815 -0.35880351 0
0.86821461 0.25051689 -0.35741377 0
0.10173583 0.354352 -0.35805595 0
0.1855185 0.35019159 -0.35798612 0
0.28874302 0.34768391 -0.35787079 0
0.39185715 0.32313538 -0.35866299 0
0.4836657 0.35520744 -0.35825932 0
0.58751893 0.3384366 -0.35801619 0
0.64496922 0.37626791 -0.35685909 0
0.75788665 0.35380983 -0.3567552 0
0.86119151 0.34395933 -0.35550353 0
0.99213266 0.35847139 -0.35404658 0
0.086065531 0.45059991 -0.35632005 0
0.18434596 0.45500493 -0.35647589 0
0.26685119 0.4594121 -0.35643643 0
0.38462234 0.45735741 -0.35645562 0
0.49970698 0.4484272 -0.35606289 0
0.59756565 0.43386126 -0.3561143 0
0.6858027 0.42680788 -0.35524005 0
0.76971412 0.47064257 -0.35288948 0
0.88592267 0.44281387 -0.35212621 0
0.96547508 0.43262863 -0.35200548 0
-0.14721751 -0.44723868 -0.36225194 0
-0.082010746 -0.45263362 -0.36221159 0
-0.0092656612 -0.44566059 -0.36247292 0
0.1109283 -0.43938661 -0.36222878 0
0.23111153 -0.46095324 -0.36249542 0
0.32661653 -0.44436932 -0.36222127 0
0.43120146 -0.44721818 -0.36237386 0
0.51556015 -0.45388699 -0.3623116 0
0.640589 -0.42798233 -0.36190838 0
0.7722683 -0.45265627 -0.36241916 0
0.89659452 -0.4295907 -0.36183891 0
-0.13928413 -0.35188389 -0.36070091 0
-0.093851089 -0.3546226 -0.36112702 0
0.0075626373 -0.34635735 -0.3609603 0
0.12770939 -0.3525517 -0.36111778 0
0.22559834 -0.34157157 -0.36058989 0
0.35009098 -0.36547375 -0.36118367 0
0.42009807 -0.34920216 -0.36097011 0
0.50808167 -0.34246111 -0.36072204 0
0.62944508 -0.35979319 -0.36049971 0
0.72432065 -0.34459543 -0.3604109 0
0.91504312 -0.33116055 -0.36044395 0
-0.1426723 -0.2871182 -0.35945177 0
-0.072368383 -0.23475289 -0.35932562 0
0.0012981892 -0.25005531 -0.35943255 0
0.086444616 -0.26064491 -0.35919273 0
0.16975808 -0.25874853 -0.35931969 0
0.30909634 -0.2362709 -0.35900557 0
0.37244916 -0.28532743 -0.36014664 0
0.50387812 -0.23497963 -0.35906309 0
0.61391306 -0.26072884 -0.35955906 0
0.71499014 -0.27796841 -0.35947007 0
0.79918289 -0.24209404 -0.35922685 0
0.87274241 -0.23078203 -0.3580277 0
-0.086578608 -0.15890265 -0.35788426 0
0.03768158 -0.1385107 -0.35784525 0
0.12099981 -0.1498158 -0.35789862 0
0.20336246 -0.15777826 -0.35780248 0
0.29061103 -0.13061047 -0.35718599 0
0.4308145 -0.15647125 -0.35786039 0
0.53161621 -0.17217588 -0.35769087 0
0.57176232 -0.12333107 -0.35758415 0
0.69588494 -0.15077829 -0.35811549 0
0.78700137 -0.14322376 -0.35740063 0
0.92527771 -0.12407303 -0.35720086 0
-0.083734751 -0.058293343 -0.35764202 0
0.010891676 -0.044005394 -0.35768092 0
0.12480831 -0.040720463 -0.35782596 0
0.22762275 -0.055568218 -0.35720423 0
0.33364367 -0.02807188 -0.35731691 0
0.42808533 -0.046352386 -0.35717928 0
0.50546503 -0.043533325 -0.35714042 0
0.5651319 -0.077808857 -0.35715348 0
0.6904428 -0.064412117 -0.35726422 0
0.78611422 -0.02556181 -0.35695404 0
0.92584133 -0.027830601 -0.35700944 0
-0.065108776 0.038306952 -0.3581509 0
0.027141094 0.074422359 -0.35826617 0
0.13915038 0.067135334 -0.35833031 0
0.21316791 0.043536186 -0.35817623 0
0.30250359 0.067075729 -0.35781407 0
0.38760018 0.041295528 -0.35800451 0
0.51338315 0.042305946 -0.35793421 0
0.60244346 0.065168858 -0.35781753 0
0.68418455 0.047729969 -0.35773078 0
0.81354618 0.071011066 -0.35784912 0
0.90869188 0.064920902 -0.3570928 0
-0.066092968 0.14930987 -0.35886458 0
0.026675224 0.17180753 -0.35897011 0
0.12328362 0.15263081 -0.35897946 0
0.20984077 0.15397167 -0.35877168 0
0.29819012 0.14626694 -0.3583332 0
0.3974731 0.17412996 -0.35842964 0
0.49784684 0.12906694 -0.35794491 0
0.60047412 0.18395376 -0.35906667 0
0.7193594 0.16718578 -0.35890925 0
0.8104558 0.16792202 -0.35834044 0
0.92589045 0.1688652 -0.35702008 0
-0.10331392 0.26332664 -0.35882699 0
0.024568796 0.24962306 -0.35932052 0
0.10744095 0.23697138 -0.35903078 0
0.19397306 0.26588488 -0.3587912 0
0.29058909 0.24650478 -0.3585988 0
0.38350177 0.27815151 -0.35887229 0
0.50050211 0.25360012 -0.35885793 0
0.6168859 0.25282955 -0.35860893 0
0.70325899 0.23334932 -0.35908064 0
0.78610587 0.26004028 -0.35756838 0
0.94604778 0.27074862 -0.35664213 0
-0.080150127 0.36472034 -0.35770023 0
0.0099625587 0.33567381 -0.3579267 0
0.12549305 0.35656691 -0.35785851 0
0.2241919 0.36530423 -0.35738778 0
0.30320787 0.33673 -0.35753581 0
0.42349458 0.34756804 -0.35780829 0
0.50829053 0.36470032 -0.35738811 0
0.6016264 0.32778883 -0.35794896 0
0.66932535 0.3677845 -0.35678092 0
0.78658295 0.35856295 -0.35564566 0
0.91094208 0.36756325 -0.35410243 0
-0.15037537 0.45747709 -0.35575572 0
-0.084879875 0.47619867 -0.35581824 0
0.01056695 0.43925405 -0.35668546 0
0.093855858 0.46533036 -0.35570997 0
0.21291304 0.45389509 -0.35596901 0
0.34204149 0.44303465 -0.35608372 0
0.43029761 0.45451784 -0.35576385 0
0.53641629 0.46323633 -0.35570145 0
0.64346361 0.43372297 -0.35497284 0
0.76184726 0.47518063 -0.35281655 0
0.81004119 0.457026 -0.35225421 0
0.88819575 0.44177914 -0.35215738 0
-0.33015418 -0.41471338 -0.3611187 0
-0.27168512 -0.45412421 -0.36219209 0
-0.18907332 -0.4386313 -0.36167985 0
-0.084309816 -0.43673277 -0.36155391 0
0.013580561 -0.44476891 -0.36183208 0
0.13807249 -0.44855976 -0.36199555 0
0.23335814 -0.42852688 -0.36158532 0
0.36453319 -0.44877529 -0.36197934 0
0.45079732 -0.4553647 -0.36147451 0
0.53065085 -0.44071436 -0.36110437 0
0.70624113 -0.43014336 -0.36087698 0
0.87091899 -0.43618345 -0.36147681 0
-0.29321909 -0.3455739 -0.36016154 0
-0.17186379 -0.3542676 -0.3605231 0
-0.079978943 -0.35574651 -0.36008716 0
0.027409315 -0.33804893 -0.35997051 0
0.12748885 -0.33556938 -0.36006409 0
0.23814678 -0.34918404 -0.36026716 0
0.34233546 -0.33005047 -0.35993224 0
0.46931291 -0.31394577 -0.35934776 0
0.53838038 -0.34262371 -0.3593694 0
0.73201418 -0.32742214 -0.35956928 0
0.87544131 -0.33399057 -0.35983086 0
-0.26521778 -0.23792386 -0.35854661 0
-0.1621263 -0.25738358 -0.35916334 0
-0.057737827 -0.25650287 -0.35884091 0
-0.0080337524 -0.21474862 -0.35802582 0
0.12392187 -0.23346186 -0.35853067 0
0.21888781 -0.24262834 -0.35868847 0
0.32572103 -0.22758484 -0.35833317 0
0.42569256 -0.26107979 -0.35875112 0
0.48976254 -0.22509813 -0.35822868 0
0.58691621 -0.23785734 -0.35791585 0
0.75905561 -0.19604349 -0.35789281 0
0.82246518 -0.22457218 -0.35829428 0
0.883636 -0.24921179 -0.3585909 0
-0.2607069 -0.15314984 -0.35768136 0
-0.17832851 -0.13478804 -0.35715139 0
-0.064240456 -0.14295793 -0.35747218 0
0.012379408 -0.13721132 -0.3567434 0
0.10183501 -0.17051101 -0.35763928 0
0.21276212 -0.15290546 -0.35711622 0
0.32385516 -0.13892508 -0.35660923 0
0.49951911 -0.15312147 -0.35723722 0
0.61261368 -0.16513014 -0.35718733 0
0.73781419 -0.13099384 -0.356516 0
0.84904623 -0.14748669 -0.35639668 0
-0.2711575 -0.055921316 -0.35710713 0
-0.17408895 -0.039082289 -0.35727262 0
-0.097844601 -0.031521559 -0.35695317 0
0.0083463192 -0.051360846 -0.35683921 0
0.1347003 -0.057246208 -0.35662252 0
0.21928763 -0.023067474 -0.35661203 0
0.31661606 -0.037782192 -0.35675308 0
0.44363356 -0.039311409 -0.35645452 0
0.48322916 -0.086353779 -0.35619384 0
0.61265206 -0.068359852 -0.35627055 0
0.74771357 -0.028259277 -0.3564499 0
0.86146116 -0.043167591 -0.35603198 0
0.91446829 -0.088992596 -0.35660273 0
-0.27399325 0.046676397 -0.35737294 0
-0.1559782 0.052272558 -0.35778043 0
-0.06991291 0.059677362 -0.35771063 0
0.023879051 0.047899723 -0.35761318 0
0.096614122 0.042769432 -0.35730281 0
0.20098376 0.062312603 -0.35755152 0
0.3301332 0.067062855 -0.35728806 0
0.40163136 0.0079655647 -0.35729891 0
0.5112977 0.074413776 -0.35746452 0
0.61946011 0.049922943 -0.35699633 0
0.75530195 0.076677322 -0.3571268 0
0.89148569 0.037121296 -0.35689276 0
-0.267277 0.15491605 -0.35843313 0
-0.18356848 0.13907433 -0.35846728 0
-0.078504801 0.15017462 -0.3582449 0
0.046877384 0.17298722 -0.35828862 0
0.11520743 0.15993595 -0.35783511 0
0.23772526 0.16582823 -0.35824183 0
0.33064485 0.15259457 -0.35852605 0
0.38188958 0.16618824 -0.35794285 0
0.49182248 0.1659112 -0.35773519 0
0.58838201 0.1658535 -0.35723165 0
0.73956585 0.17513371 -0.35748428 0
0.89201069 0.14281893 -0.35724035 0
-0.26270509 0.2609601 -0.35836297 0
-0.15194488 0.21869826 -0.35875562 0
-0.087949514 0.254879 -0.35836577 0
-0.0083508492 0.24882817 -0.35819489 0
0.13022566 0.2612443 -0.35817471 0
0.31210756 0.27004957 -0.35817403 0
0.39153433 0.22985983 -0.35850176 0
0.48737907 0.25677872 -0.35802117 0
0.6397059 0.27181911 -0.35827476 0
0.7416389 0.27494001 -0.35740471 0
0.86056519 0.24798679 -0.3562386 0
-0.27570271 0.35806155 -0.35718501 0
-0.1770184 0.34454536 -0.35734949 0
-0.087363958 0.35483313 -0.35697621 0
0.029550552 0.34912109 -0.3571274 0
0.14208961 0.36021137 -0.35691601 0
0.22699499 0.35699058 -0.35674709 0
0.35490251 0.35617208 -0.35674593 0
0.50747871 0.35657883 -0.35653776 0
0.59992623 0.33883619 -0.35686746 0
0.72508931 0.37327099 -0.35515156 0
0.8371911 0.34693003 -0.35411695 0
-0.33536887 0.47232914 -0.35521504 0
-0.25705862 0.46105742 -0.3557092 0
-0.17670059 0.43554926 -0.35579488 0
-0.068487406 0.46181583 -0.35528222 0
0.058321714 0.45073843 -0.35548466 0
0.14214063 0.44386673 -0.35539114 0
0.22116351 0.46193194 -0.35524964 0
0.33252954 0.48265648 -0.35484397 0
0.41692233 0.46794271 -0.35506153 0
0.53546214 0.44774723 -0.35516152 0
0.59599185 0.43407249 -0.35522783 0
0.68846965 0.46866274 -0.35261387 0
0.8138175 0.44660664 -0.35169342 0
0.98583221 0.4703455 -0.34980989 0
-0.45632768 -0.43313289 -0.36475119 0
-0.35068965 -0.42661119 -0.36485091 0
-0.23524785 -0.41878939 -0.36456424 0
-0.14246583 -0.45311618 -0.36518717 0
-0.039010763 -0.43057966 -0.36433452 0
0.047995806 -0.44115067 -0.36450282 0
0.24749351 -0.43271685 -0.36446005 0
0.42574859 -0.44941974 -0.36449593 0
0.55989528 -0.42169666 -0.36395353 0
0.71379852 -0.4298358 -0.36437505 0
0.87410021 -0.45514965 -0.36459574 0
-0.44830489 -0.33540225 -0.36325997 0
-0.35247111 -0.3341105 -0.36317474 0
-0.23153901 -0.33825183 -0.36350471 0
-0.15658927 -0.3182478 -0.3631261 0
-0.06069088 -0.3436079 -0.36324507 0
0.057432652 -0.30368137 -0.36249554 0
0.1607542 -0.34099364 -0.36307114 0
0.3318069 -0.32983208 -0.36303127 0
0.44676876 -0.35204983 -0.36315632 0
0.57739687 -0.31696367 -0.36245668 0
0.71436262 -0.32250166 -0.3625617 0
0.87407422 -0.34721804 -0.36277276 0
-0.43773103 -0.24749184 -0.36184877 0
-0.34692788 -0.21379185 -0.36145887 0
-0.26483512 -0.23125982 -0.36168975 0
-0.1757071 -0.24631763 -0.36196989 0
-0.083557129 -0.24171829 -0.36147702 0
0.026843548 -0.23190498 -0.36159295 0
0.13478541 -0.23128366 -0.36118528 0
0.20832133 -0.20192432 -0.36085814 0
0.32761455 -0.23860025 -0.3614192 0
0.46666408 -0.25115967 -0.36178988 0
0.56594777 -0.21693897 -0.36061564 0
0.67481303 -0.19344759 -0.35978526 0
0.71962643 -0.24986267 -0.36145079 0
0.86575246 -0.23620939 -0.36082107 0
-0.45769548 -0.14632154 -0.36007375 0
-0.34811211 -0.13191032 -0.36005175 0
-0.26483083 -0.1299274 -0.35971734 0
-0.14928818 -0.13058186 -0.36011311 0
-0.060415983 -0.13468504 -0.35970333 0
0.05748415 -0.13607335 -0.35968727 0
0.16039014 -0.15656662 -0.36011231 0
0.23126388 -0.11077309 -0.35976559 0
0.32892537 -0.14219046 -0.35987037 0
0.47081518 -0.13122082 -0.35997048 0
0.56574535 -0.119596 -0.35905847 0
0.69572544 -0.14066219 -0.35930794 0
0.72569346 -0.085882664 -0.35896921 0
0.88402987 -0.15064955 -0.35976714 0
0.90416431 -0.089687347 -0.35916337 0
-0.42872238 -0.049968243 -0.35986206 0
-0.3652072 -0.0020525455 -0.35985368 0
-0.25208235 -0.034293652 -0.35994786 0
-0.1633606 -0.040966272 -0.35964018 0
-0.047887087 -0.022744656 -0.3600589 0
0.018449545 -0.029510975 -0.35960162 0
0.13184476 -0.03590107 -0.35939035 0
0.20331311 -0.028971672 -0.35939896 0
0.32867408 -0.050369263 -0.35930365 0
0.46834087 -0.011113644 -0.35960561 0
0.58349228 -0.041693687 -0.35911992 0
0.64639258 -0.0092206001 -0.3591904 0
0.71051884 0.017994881 -0.35924798 0
0.85872316 -0.035173893 -0.35860708 0
0.90991545 0.016846657 -0.35960954 0
-0.44593167 0.064915419 -0.36048722 0
-0.37079096 0.063971043 -0.36048949 0
-0.25375485 0.070587873 -0.36047745 0
-0.14358425 0.057210684 -0.36043683 0
-0.067351103 0.073554039 -0.36028254 0
0.044756651 0.073850632 -0.36052516 0
0.15872145 0.084952831 -0.36029172 0
0.21925735 0.068518639 -0.36013174 0
0.33668923 0.062104702 -0.35999781 0
0.45334959 0.088543415 -0.35991079 0
0.54060459 0.055442333 -0.3589828 0
0.60530639 0.11364555 -0.36024737 0
0.71507168 0.073123455 -0.35960191 0
0.83753204 0.074129581 -0.35885042 0
-0.4588573 0.1782763 -0.36099255 0
-0.37163615 0.1487236 -0.36099026 0
-0.26886821 0.15736675 -0.36099946 0
-0.13950253 0.15888023 -0.36075693 0
-0.078501463 0.18623662 -0.3607969 0
0.050246954 0.16461611 -0.36076999 0
0.14321375 0.18447447 -0.36041439 0
0.23296118 0.14887571 -0.3607899 0
0.30463314 0.16959095 -0.36013895 0
0.43001866 0.17839718 -0.3600902 0
0.55971837 0.18225574 -0.35998166 0
0.68234682 0.14749765 -0.35953903 0
0.88205814 0.15665388 -0.35967752 0
-0.44110036 0.27790737 -0.36101347 0
-0.3579824 0.22695899 -0.36132726 0
-0.26446414 0.26390123 -0.36114824 0
-0.16389704 0.26030445 -0.36113125 0
-0.077952623 0.26810145 -0.36098117 0
0.042571306 0.26840949 -0.36090994 0
0.15027666 0.26157188 -0.36062741 0
0.3465004 0.27332973 -0.36104035 0
0.43865037 0.27352333 -0.3604562 0
0.58539319 0.28559971 -0.36054066 0
0.72038293 0.25978374 -0.36054042 0
0.8404355 0.26308823 -0.3584567 0
-0.45611453 0.36611199 -0.35966301 0
-0.35841036 0.35405827 -0.35978743 0
-0.23470831 0.36668015 -0.35992962 0
-0.17044663 0.34508038 -0.35962963 0
-0.060254812 0.36698818 -0.35952073 0
0.006477356 0.37896943 -0.35943145 0
0.14494157 0.35722089 -0.35954988 0
0.25393796 0.37534571 -0.3589769 0
0.41465521 0.36967134 -0.35888261 0
0.55250812 0.38273191 -0.35874638 0
0.68939567 0.36217213 -0.35846508 0
0.86109519 0.37231445 -0.35678878 0
0.96067142 0.41026354 -0.35294706 0
-0.50890493 0.43314362 -0.35830557 0
-0.45253205 0.4711678 -0.35798672 0
-0.3369348 0.47216797 -0.35793102 0
-0.26890588 0.46811175 -0.35772997 0
-0.18206477 0.44959092 -0.3577835 0
-0.035090446 0.47207069 -0.35761234 0
0.056054831 0.45223475 -0.35811302 0
0.14440656 0.47271681 -0.35731307 0
0.25361538 0.4637723 -0.35720041 0
0.3188436 0.42885494 -0.35869437 0
0.41835833 0.46824837 -0.35770774 0
0.5195322 0.48007488 -0.3567138 0
0.68236971 0.46576595 -0.35625696 0
0.83605719 0.48692656 -0.35406509 0
0.98032594 0.48264742 -0.35185045 0
-0.63754964 -0.44295216 -0.3665728 0
-0.54827809 -0.43824005 -0.36623058 0
-0.43944216 -0.43050528 -0.36639842 0
-0.36206388 -0.43531108 -0.36644989 0
-0.26846409 -0.43598318 -0.36654878 0
-0.14987397 -0.43397522 -0.36636418 0
-0.035057545 -0.46419907 -0.3667056 0
0.028235674 -0.42099881 -0.36635518 0
0.13383317 -0.42379284 -0.36610648 0
0.24174643 -0.45398664 -0.36624733 0
0.45363212 -0.428123 -0.36592418 0
0.69696259 -0.43072653 -0.36603117 0
0.85840487 -0.4271059 -0.36554334 0
-0.64985895 -0.34307122 -0.36472818 0
-0.5392921 -0.33629155 -0.36492947 0
-0.45622468 -0.3425684 -0.36496997 0
-0.36748242 -0.34777832 -0.36484951 0
-0.26552463 -0.34156203 -0.36492491 0
-0.15981817 -0.3391428 -0.36451373 0
-0.051308155 -0.33763504 -0.36439908 0
0.024832249 -0.35402369 -0.36514401 0
0.137218 -0.3301239 -0.36457554 0
0.25009108 -0.30243349 -0.36384135 0
0.34838915 -0.33835554 -0.36457166 0
0.53427482 -0.3253026 -0.36444652 0
0.66587138 -0.3450141 -0.36410347 0
0.86742878 -0.34733295 -0.36442015 0
-0.63840222 -0.24577403 -0.36351568 0
-0.54843426 -0.24052167 -0.36322916 0
-0.44275546 -0.23432922 -0.36333245 0
-0.36057615 -0.24816799 -0.36357772 0
-0.26477838 -0.24478483 -0.36329091 0
-0.15579629 -0.23586679 -0.3634122 0
-0.042509556 -0.2475872 -0.3634463 0
0.0207026 -0.19900799 -0.36251631 0
0.14912271 -0.23794079 -0.36326346 0
0.25563359 -0.23036146 -0.36277109 0
0.35121989 -0.19905043 -0.36162663 0
0.45201826 -0.22031546 -0.36252439 0
0.51964426 -0.24755669 -0.36294827 0
0.67782068 -0.20634842 -0.36212796 0
0.708004 -0.26360178 -0.36352599 0
0.88832927 -0.24915504 -0.36323416 0
-0.63786364 -0.15041327 -0.36192143 0
-0.53778815 -0.11629939 -0.36171421 0
-0.44061399 -0.14395976 -0.36198679 0
-0.35665202 -0.13516474 -0.36156711 0
-0.26243806 -0.14192533 -0.3616865 0
-0.17895293 -0.13436818 -0.36138642 0
-0.03805685 -0.14721107 -0.3617726 0
0.055182457 -0.14177942 -0.36117727 0
0.13605189 -0.12274599 -0.36123127 0
0.26894498 -0.13154078 -0.36153838 0
0.38292027 -0.1153636 -0.3609252 0
0.52384567 -0.10958529 -0.36099762 0
0.66993141 -0.12312126 -0.36073664 0
0.85050201 -0.1337018 -0.36084753 0
-0.63930058 -0.05062294 -0.36161691 0
-0.53085804 -0.028266668 -0.36170703 0
-0.44115877 -0.042352438 -0.36157012 0
-0.34258223 -0.0230124 -0.3617169 0
-0.26771975 -0.050283432 -0.36132127 0
-0.1534071 -0.030795813 -0.36171117 0
-0.051684141 -0.035205841 -0.36113787 0
0.0053551197 -0.029829979 -0.36114466 0
0.13161731 -0.03398037 -0.36116701 0
0.24873567 -0.014632702 -0.3610664 0
0.39045596 -0.015589237 -0.36112982 0
0.50661039 -0.03695488 -0.36070246 0
0.6811657 -0.011509895 -0.36086643 0
0.85051155 -0.016357422 -0.36057481 0
-0.615628 0.049457312 -0.3625232 0
-0.56949568 0.060749769 -0.36219594 0
-0.44239116 0.069539785 -0.36235499 0
-0.36640668 0.069736004 -0.36190236 0
-0.24654341 0.04986167 -0.36184129 0
-0.16298509 0.092399359 -0.36227503 0
-0.068352938 0.06890583 -0.36204603 0
0.024550915 0.081051588 -0.36205858 0
0.13762593 0.081167221 -0.36190084 0
0.24804926 0.080805302 -0.36159909 0
0.38259053 0.079863071 -0.36155319 0
0.52675009 0.049134254 -0.36147392 0
0.65525866 0.071120262 -0.36094892 0
0.86440754 0.076725483 -0.36129653 0
-0.62267137 0.14461422 -0.36302826 0
-0.57581401 0.159549 -0.36274123 0
-0.47277808 0.14759731 -0.36279932 0
-0.35356641 0.16973758 -0.36301216 0
-0.24409151 0.17791843 -0.36268982 0
-0.18389964 0.1521225 -0.36235741 0
-0.052852869 0.14852643 -0.36229593 0
0.047655344 0.19441175 -0.36311066 0
0.12375879 0.17431402 -0.36228359 0
0.23294926 0.17661428 -0.36197853 0
0.36404467 0.18161726 -0.36191297 0
0.51220751 0.14792538 -0.36185434 0
0.67141557 0.15225649 -0.36167553 0
0.87167835 0.16300583 -0.36162147 0
-0.64464617 0.2569716 -0.36302131 0
-0.55729675 0.25721717 -0.36296713 0
-0.46950722 0.25216031 -0.36300054 0
-0.37785149 0.261549 -0.36281037 0
-0.26522374 0.26468563 -0.36290926 0
-0.14926863 0.26877689 -0.36275199 0
-0.044810772 0.26542091 -0.36269528 0
0.0047223568 0.23214746 -0.36274225 0
0.12979579 0.26809907 -0.36265317 0
0.24910522 0.27298403 -0.36245942 0
0.38351941 0.31263304 -0.36198148 0
0.40467501 0.26102924 -0.3629967 0
0.51243901 0.25107527 -0.36234981 0
0.66487384 0.26324987 -0.36195105 0
0.86623907 0.28191519 -0.36081362 0
-0.6469264 0.36567044 -0.3613255 0
-0.55012751 0.34326553 -0.36156452 0
-0.44203687 0.36842012 -0.36119446 0
-0.34685755 0.35525084 -0.36123848 0
-0.24955201 0.37518692 -0.36108643 0
-0.13812327 0.34948587 -0.36137462 0
-0.01159358 0.34145737 -0.36144543 0
0.055116177 0.39528942 -0.3608799 0
0.15084195 0.35959125 -0.3608349 0
0.20500255 0.34253597 -0.36087382 0
0.36277938 0.38290215 -0.36076123 0
0.45742035 0.38080454 -0.36011767 0
0.52139187 0.33187914 -0.36178982 0
0.67630219 0.37729311 -0.36051545 0
0.81180811 0.36209774 -0.35838136 0
0.99634171 0.37649298 -0.35610861 0
-0.70144796 0.49262619 -0.35949203 0
-0.65066004 0.45683503 -0.35999009 0
-0.55883694 0.45981598 -0.35976514 0
-0.46109509 0.45286846 -0.35979348 0
-0.3527956 0.46845055 -0.35966724 0
-0.24145937 0.48654389 -0.35914439 0
-0.13974881 0.47532868 -0.35985047 0
-0.03737545 0.45622396 -0.36016074 0
0.084899902 0.46923494 -0.35948831 0
0.21165609 0.46395421 -0.35951689 0
0.31778002 0.47631979 -0.35889292 0
0.47465587 0.45925426 -0.35945722 0
0.63547969 0.48306417 -0.35776505 0
0.82185674 0.45032597 -0.35684109 0
0.97152591 0.46343899 -0.35400075 0
0.23278451 -0.49752951 -0.36935905 0
-0.8403306 -0.44118953 -0.36760151 0
-0.72770095 -0.43383741 -0.36854213 0
-0.62877107 -0.43487072 -0.36873406 0
-0.53022313 -0.43356061 -0.36867028 0
-0.4553206 -0.43800306 -0.36850536 0
-0.3435626 -0.43550539 -0.36858013 0
-0.2351048 -0.43439341 -0.3682116 0
-0.14204669 -0.46178722 -0.36896709 0
-0.053711891 -0.4216907 -0.36783436 0
0.087267399 -0.44739342 -0.36840802 0
0.22446394 -0.44704008 -0.36835444 0
0.23524666 -0.39354634 -0.36764571 0
0.34998584 -0.42729616 -0.36779448 0
0.51403332 -0.43458033 -0.36772102 0
0.71486449 -0.42556953 -0.36775449 0
0.91485095 -0.42738962 -0.36764455 0
-0.80526996 -0.33692956 -0.36709183 0
-0.71076441 -0.31776333 -0.3670969 0
-0.6163888 -0.32654357 -0.36692083 0
-0.50958395 -0.33238268 -0.36651546 0
-0.45387244 -0.37582278 -0.36741936 0
-0.33272076 -0.32099986 -0.3663303 0
-0.23396564 -0.36130142 -0.36698252 0
-0.15941358 -0.30827451 -0.36624873 0
-0.042027235 -0.33007717 -0.36648825 0
0.092428446 -0.3524375 -0.36689845 0
0.21630144 -0.31719494 -0.36607653 0
0.32669544 -0.35476184 -0.36621439 0
0.34654474 -0.29287958 -0.36555678 0
0.52111244 -0.34661818 -0.36642513 0
0.71716332 -0.33195829 -0.36630526 0
0.90289736 -0.35807467 -0.36635029 0
0.93281913 -0.29064465 -0.36580959 0
-0.79579401 -0.24123812 -0.36600125 0
-0.71610975 -0.23124838 -0.36530831 0
-0.60513639 -0.2303443 -0.36524516 0
-0.52103376 -0.224298 -0.3652685 0
-0.42683887 -0.236238 -0.36550394 0
-0.34024668 -0.23171282 -0.36528936 0
-0.21643519 -0.22686291 -0.36477798 0
-0.01440382 -0.23585296 -0.365417 0
0.079390287 -0.25507116 -0.36509678 0
0.22423625 -0.24028873 -0.36498612 0
0.231848 -0.18444967 -0.36423597 0
0.34368658 -0.22086525 -0.3643806 0
0.5183382 -0.20381308 -0.36414319 0
0.55062127 -0.25575066 -0.36548498 0
0.7216928 -0.24214745 -0.36498675 0
0.89592433 -0.23477173 -0.36434588 0
-0.81308031 -0.14554715 -0.36411512 0
-0.71885729 -0.13441634 -0.36428493 0
-0.62478185 -0.13351941 -0.36404902 0
-0.5226438 -0.13222694 -0.36384726 0
-0.42003441 -0.14049911 -0.36409459 0
-0.34914875 -0.13145971 -0.36353466 0
-0.22566605 -0.13171363 -0.36339375 0
-0.15902591 -0.15983748 -0.36386451 0
-0.015618324 -0.14007759 -0.36389616 0
0.073113441 -0.13273764 -0.36318171 0
0.20508623 -0.13813066 -0.36308718 0
0.28145218 -0.089224815 -0.3625868 0
0.33447671 -0.13882399 -0.36296999 0
0.51977324 -0.12066507 -0.36292154 0
0.71617341 -0.12748957 -0.36317524 0
0.89751482 -0.13688421 -0.3629247 0
-0.80898356 -0.045653582 -0.36397606 0
-0.71545625 -0.05034709 -0.36421433 0
-0.62657595 -0.019241095 -0.36412618 0
-0.52697992 -0.045029402 -0.36399785 0
-0.42919016 -0.022936821 -0.36379707 0
-0.33598161 -0.02849102 -0.36371168 0
-0.21920204 -0.030241013 -0.36354378 0
-0.14230537 -0.065282583 -0.36338872 0
-0.048246622 -0.028531551 -0.3631238 0
0.09809494 -0.0039496422 -0.36343747 0
0.20618534 -0.016407013 -0.36290228 0
0.34557581 -0.007827282 -0.36293173 0
0.48460531 -0.012758255 -0.36235994 0
0.68427896 -0.017809391 -0.36244276 0
0.88247395 -0.019664764 -0.36225995 0
-0.78157139 0.051446676 -0.36492622 0
-0.72052526 0.073144913 -0.36470321 0
-0.62058067 0.063767433 -0.36458442 0
-0.52783895 0.054500103 -0.36446083 0
-0.41084623 0.074254751 -0.36462665 0
-0.31251025 0.073560238 -0.36463809 0
-0.22793961 0.0721457 -0.3643648 0
-0.15462565 0.066111565 -0.36395827 0
-0.025540113 0.086816788 -0.36411768 0
0.08595562 0.086918354 -0.3637923 0
0.21857071 0.086912632 -0.36368108 0
0.34653759 0.075194836 -0.36342287 0
0.52247381 0.067575932 -0.36336672 0
0.70376062 0.073217869 -0.3632406 0
0.89846039 0.073091984 -0.36301306 0
-0.80144119 0.15977597 -0.36504507 0
-0.71653938 0.17116117 -0.36524475 0
-0.58007812 0.13712931 -0.3650775 0
-0.52141666 0.17646265 -0.36534333 0
-0.41089296 0.17421103 -0.3652792 0
-0.32130885 0.1773982 -0.36518362 0
-0.22290397 0.17839074 -0.36512014 0
-0.15253305 0.17633581 -0.36468869 0
-0.047136784 0.17573881 -0.36437395 0
0.11408138 0.18523407 -0.36481839 0
0.22281837 0.19092894 -0.3644008 0
0.3705399 0.15498209 -0.36426252 0
0.51672101 0.18947649 -0.36403427 0
0.53160167 0.12919188 -0.36386675 0
0.69009757 0.1652832 -0.36360484 0
0.8823638 0.19622135 -0.36274049 0
0.94790602 0.14573717 -0.36389339 0
-0.82568049 0.27847767 -0.36428025 0
-0.70637488 0.25387168 -0.36531204 0
-0.59703636 0.26180673 -0.36523849 0
-0.53187346 0.26456332 -0.36517358 0
-0.43327045 0.27134681 -0.36519119 0
-0.3463099 0.27839589 -0.36496794 0
-0.25125885 0.28193355 -0.36482781 0
-0.13279271 0.26340938 -0.36525494 0
-0.015413761 0.27378964 -0.36509091 0
0.097203493 0.28006315 -0.36476609 0
0.17279983 0.28319788 -0.36373669 0
0.35338235 0.2608633 -0.36445725 0
0.50923896 0.26983786 -0.36417061 0
0.69311738 0.28036833 -0.36396757 0
0.93134832 0.2639246 -0.36331522 0
-0.82953048 0.35714197 -0.36356378 0
-0.71219516 0.3681314 -0.36386567 0
-0.62921906 0.37172723 -0.3635217 0
-0.52247238 0.35944247 -0.36365247 0
-0.45169616 0.35000968 -0.36390942 0
-0.33466554 0.36827254 -0.36349458 0
-0.21614838 0.36441159 -0.36331743 0
-0.15467215 0.37369585 -0.36367473 0
-0.043148994 0.3635664 -0.36359382 0
0.078382969 0.37664676 -0.36327481 0
0.19454217 0.35978603 -0.36313155 0
0.28530431 0.37959337 -0.3628743 0
0.48993707 0.38009644 -0.3626346 0
0.67829847 0.36772013 -0.36236131 0
0.86277699 0.35788727 -0.36046466 0
-0.8772378 0.46829963 -0.36208358 0
-0.82779622 0.46708083 -0.36229527 0
-0.72643971 0.45036125 -0.36259681 0
-0.63599277 0.47695231 -0.36221248 0
-0.54832077 0.46118426 -0.36217469 0
-0.41012239 0.47945547 -0.36203936 0
-0.32614827 0.45325494 -0.36208653 0
-0.22907257 0.47797513 -0.36176589 0
-0.047165871 0.45477819 -0.36243469 0
0.044180393 0.46612716 -0.3616485 0
0.16338491 0.48731112 -0.36110058 0
0.30481148 0.47010398 -0.36135757 0
0.44282937 0.48597193 -0.36060289 0
0.6570437 0.4564724 -0.36027989 0
0.82907987 0.47455311 -0.35764083 0
0.98391867 0.47901297 -0.3550452 0
-0.96067715 -0.44843483 -0.36483467 0
-0.87051034 -0.44181705 -0.36560607 0
-0.76681614 -0.46691251 -0.36667985 0
-0.68922329 -0.43949962 -0.36693633 0
-0.57459855 -0.43356991 -0.36687374 0
-0.48728132 -0.43530774 -0.36679265 0
-0.3834691 -0.45670485 -0.36701626 0
-0.29250169 -0.43996358 -0.36654028 0
-0.14950299 -0.43921185 -0.36692578 0
-0.016236305 -0.46724844 -0.36705935 0
0.12654352 -0.44237638 -0.36704677 0
0.244169 -0.45261216 -0.36681637 0
0.4108386 -0.42348933 -0.36614692 0
0.60697246 -0.4534812 -0.36668167 0
0.78440976 -0.45354509 -0.36610383 0
-0.95586848 -0.35154843 -0.36432025 0
-0.86657214 -0.35019588 -0.36518651 0
-0.77176571 -0.34426546 -0.36558729 0
-0.66407084 -0.32477069 -0.36542958 0
-0.58316135 -0.33467031 -0.3650493 0
-0.44537759 -0.34652042 -0.36594981 0
-0.38145614 -0.34867191 -0.36533868 0
-0.2820642 -0.32793975 -0.36499393 0
-0.16704941 -0.35238576 -0.36521667 0
-0.037203312 -0.34815717 -0.36508027 0
-0.011056423 -0.34044075 -0.36540407 0
0.091282606 -0.33875942 -0.36473757 0
0.23533058 -0.342628 -0.36486495 0
0.42837691 -0.33715105 -0.36505687 0
0.61596823 -0.32657433 -0.36482048 0
0.8409071 -0.35137081 -0.36545393 0
-0.9530282 -0.25356483 -0.36377418 0
-0.8488915 -0.23119116 -0.36425218 0
-0.78415585 -0.25139618 -0.3640998 0
-0.67737865 -0.23390985 -0.36376855 0
-0.55866218 -0.23445415 -0.36378455 0
-0.47587395 -0.24516511 -0.36373949 0
-0.37208796 -0.23818374 -0.36365774 0
-0.29408836 -0.23924947 -0.36333764 0
-0.15250254 -0.25030041 -0.3637951 0
-0.023614645 -0.19370055 -0.3628394 0
-0.021360397 -0.24420166 -0.36367416 0
0.11792707 -0.23302269 -0.36350435 0
0.24806833 -0.21009731 -0.36299586 0
0.33488631 -0.2678194 -0.36387107 0
0.42042542 -0.21795321 -0.36306897 0
0.59739971 -0.24147272 -0.36319691 0
0.79451251 -0.22997856 -0.36282253 0
-0.93319869 -0.17010617 -0.3630476 0
-0.87646127 -0.12838936 -0.36246967 0
-0.77120471 -0.15201426 -0.36271584 0
-0.67428255 -0.13715911 -0.36235344 0
-0.55644464 -0.13399196 -0.36220092 0
-0.45832324 -0.14412713 -0.36240846 0
-0.36656356 -0.15435624 -0.36241633 0
-0.27390385 -0.1506362 -0.36227757 0
-0.14947033 -0.15588045 -0.36235744 0
-0.027283192 -0.097114563 -0.36137286 0
0.025192022 -0.13404369 -0.36274531 0
0.10836673 -0.12980461 -0.36175641 0
0.25369906 -0.12498856 -0.36180258 0
0.3983891 -0.13782215 -0.36149323 0
0.59812784 -0.14794254 -0.36180925 0
0.80262113 -0.12851429 -0.36146706 0
0.99424505 -0.12412262 -0.36115128 0
-0.95009112 -0.057005167 -0.36219016 0
-0.8575449 -0.028834581 -0.36259189 0
-0.76363826 -0.030849934 -0.36239463 0
-0.65286112 -0.039102316 -0.36242387 0
-0.56486034 -0.036872149 -0.36205742 0
-0.46759653 -0.039707422 -0.3620396 0
-0.36795926 -0.047355652 -0.36194277 0
-0.28511095 -0.038746834 -0.36174446 0
-0.15984178 -0.040770292 -0.36170471 0
-0.00093960762 -0.019029617 -0.36217305 0
0.11939549 -0.028935909 -0.3618117 0
0.24002457 -0.046387196 -0.36140859 0
0.41207981 -0.023551464 -0.36143747 0
0.58569503 -0.026456356 -0.36111999 0
0.806705 -0.034157276 -0.36119962 0
0.9892931 -0.059120655 -0.36063746 0
-0.93705463 0.042769432 -0.36253569 0
-0.89903212 0.050978661 -0.36278069 0
-0.77578664 0.070748329 -0.36297479 0
-0.67870188 0.040154457 -0.36277398 0
-0.57729578 0.072458029 -0.36296064 0
-0.44727731 0.066877365 -0.36294195 0
-0.33752513 0.065815449 -0.36302888 0
-0.27828479 0.075529814 -0.36250114 0
-0.14807105 0.076058626 -0.36254397 0
-0.0015478134 0.077992439 -0.36272222 0
0.10790539 0.073539734 -0.36222917 0
0.25659966 0.035512924 -0.36210716 0
0.40006709 0.061920166 -0.36174834 0
0.59269905 0.062577248 -0.36172402 0
0.80036163 0.061598301 -0.36163965 0
0.98648548 0.046493053 -0.36083797 0
-0.94417071 0.14046121 -0.36198175 0
-0.87055349 0.14447403 -0.36280486 0
-0.76357889 0.16167593 -0.36336946 0
-0.68527174 0.12973571 -0.36305067 0
-0.57688355 0.17191315 -0.3634969 0
-0.47777677 0.14516068 -0.36299229 0
-0.38094282 0.14628792 -0.36290145 0
-0.25440717 0.16647482 -0.36341792 0
-0.1445663 0.19366121 -0.36334229 0
-0.064343452 0.17346597 -0.36339319 0
0.021127701 0.15267706 -0.36351421 0
0.095571756 0.14780712 -0.3625038 0
0.23480034 0.14206934 -0.36243314 0
0.40057993 0.14967012 -0.36228907 0
0.5879004 0.15220213 -0.36220157 0
0.81331158 0.15648222 -0.36240429 0
0.98817682 0.13655853 -0.36057383 0
-0.96095991 0.25627089 -0.36123168 0
-0.866045 0.25269794 -0.36221585 0
-0.76630878 0.24405503 -0.36325344 0
-0.65527987 0.25199342 -0.36363363 0
-0.59413719 0.27978992 -0.36290419 0
-0.45375943 0.26151848 -0.36327446 0
-0.3948245 0.23178554 -0.36318648 0
-0.27732158 0.25478768 -0.36339802 0
-0.15123272 0.26265836 -0.36336392 0
-0.039911747 0.27062798 -0.36298645 0
0.11872196 0.23101759 -0.36338842 0
0.22845364 0.24413109 -0.36282811 0
0.4099288 0.2586751 -0.36286834 0
0.54231906 0.2908988 -0.36180133 0
0.58411145 0.23664856 -0.36268699 0
0.77324796 0.246068 -0.36200225 0
0.99386311 0.24150515 -0.36039105 0
-0.9572432 0.35368967 -0.36080837 0
-0.86570001 0.34877205 -0.36180413 0
-0.77256441 0.36678529 -0.36218113 0
-0.66036606 0.36102414 -0.36195552 0
-0.56784511 0.36150074 -0.36180139 0
-0.49446559 0.34985375 -0.36209381 0
-0.38314915 0.35880876 -0.36214572 0
-0.30384159 0.36239791 -0.36179948 0
-0.15822768 0.35686207 -0.36220807 0
-0.06282568 0.38904142 -0.36120552 0
0.027917624 0.37511969 -0.36172995 0
0.10664821 0.33015728 -0.36244124 0
0.21963882 0.35639167 -0.36168855 0
0.35190153 0.39748383 -0.36048281 0
0.42208314 0.3478508 -0.36225191 0
0.55482244 0.35924387 -0.36116278 0
0.75136995 0.34461498 -0.36000845 0
0.93703651 0.37257671 -0.35736233 0
-0.9694345 0.45734859 -0.36020967 0
-0.88036084 0.45224357 -0.36073017 0
-0.76726127 0.46634746 -0.3606298 0
-0.68855691 0.45230246 -0.36029616 0
-0.56073928 0.45876145 -0.36024725 0
-0.44492674 0.48261237 -0.35967898 0
-0.38029122 0.45624924 -0.36023349 0
-0.305547 0.45612407 -0.36064905 0
-0.21768904 0.44394493 -0.36018229 0
-0.10043621 0.45856571 -0.35976183 0
0.069804192 0.47656727 -0.36006519 0
0.21738958 0.46330476 -0.36035869 0
0.37245512 0.44964242 -0.36020023 0
0.54468942 0.4475069 -0.35978177 0
0.73956847 0.46539783 -0.35749519 0
0.93352008 0.47669744 -0.35533229 0
-0.96622157 -0.43947196 -0.3646664 0
-0.85052514 -0.44655418 -0.36585951 0
-0.75595617 -0.44833636 -0.36678594 0
-0.64906621 -0.45737767 -0.36710578 0
-0.52855992 -0.4363699 -0.3666845 0
-0.3498621 -0.43941069 -0.36677971 0
-0.22787023 -0.46311188 -0.36672804 0
-0.078237057 -0.43885207 -0.36659271 0
0.046716928 -0.4463551 -0.36650842 0
0.20673561 -0.44550943 -0.36622703 0
0.35337567 -0.42409849 -0.3651132 0
0.4315064 -0.47638297 -0.36724669 0
0.5866003 -0.44060993 -0.36572397 0
0.79078221 -0.43023396 -0.36547092 0
-0.93639183 -0.33151031 -0.36456761 0
-0.84679604 -0.33090687 -0.36533284 0
-0.7387588 -0.34961557 -0.36596724 0
-0.63746667 -0.34801888 -0.36599919 0
-0.57263517 -0.3252809 -0.36497521 0
-0.46082902 -0.34739757 -0.36554736 0
-0.36197567 -0.34687281 -0.36506623 0
-0.21550012 -0.33563852 -0.36508378 0
-0.16870832 -0.38699007 -0.36669907 0
-0.068021297 -0.33403325 -0.36516884 0
0.045785666 -0.33973742 -0.36481321 0
0.20113349 -0.38981628 -0.36524603 0
0.23022366 -0.33215809 -0.36481708 0
0.39413023 -0.36039448 -0.36478043 0
0.59266472 -0.34751177 -0.36437798 0
0.78506517 -0.32153702 -0.36371022 0
-0.96167421 -0.25121856 -0.36385906 0
-0.85507035 -0.23849344 -0.36438459 0
-0.76813507 -0.24096894 -0.36418104 0
-0.65239477 -0.24682212 -0.36407405 0
-0.57622337 -0.24233127 -0.36356309 0
-0.45959258 -0.2347753 -0.3637335 0
-0.34865928 -0.25035214 -0.36372769 0
-0.20995951 -0.26463342 -0.36403918 0
-0.18833685 -0.19423771 -0.36329362 0
-0.043061018 -0.2274766 -0.36390233 0
0.0475173 -0.23353314 -0.36318171 0
0.22578979 -0.2510612 -0.36348325 0
0.41087079 -0.26384783 -0.36357129 0
0.58276725 -0.22583818 -0.36238262 0
0.79349589 -0.22404766 -0.36240637 0
-0.9488833 -0.13144684 -0.36244893 0
-0.85871291 -0.15353966 -0.36270824 0
-0.74247336 -0.15250635 -0.36270821 0
-0.63411283 -0.13919282 -0.36266923 0
-0.55242443 -0.15445733 -0.3625713 0
-0.44850969 -0.14694285 -0.36254552 0
-0.33255577 -0.15724564 -0.36254606 0
-0.20445871 -0.14567637 -0.36229241 0
-0.17237139 -0.094961405 -0.36218056 0
-0.085308552 -0.13453698 -0.36179298 0
0.04136157 -0.12842059 -0.36149657 0
0.22572112 -0.1325388 -0.36170855 0
0.39884758 -0.11185932 -0.36112452 0
0.44155788 -0.16918802 -0.36266136 0
0.5838449 -0.12870216 -0.36098218 0
0.81442642 -0.11645508 -0.36119658 0
-0.94057107 -0.038150311 -0.3626366 0
-0.84544802 -0.032251596 -0.36242473 0
-0.72357321 -0.033334732 -0.3627854 0
-0.63399196 -0.038770437 -0.36262271 0
-0.55353165 -0.046580553 -0.36223534 0
-0.43448043 -0.05598712 -0.36243626 0
-0.34803414 -0.044144154 -0.3618997 0
-0.21377754 -0.0053887367 -0.36208278 0
-0.1952467 -0.045872927 -0.36211959 0
-0.083034515 -0.027831078 -0.36178359 0
0.047715425 -0.043985367 -0.36151388 0
0.21767211 -0.024077415 -0.36148387 0
0.39544559 0.0050263405 -0.3613821 0
0.42476916 -0.051495075 -0.36148971 0
0.57297635 -0.0057868958 -0.36080378 0
0.61966157 -0.061245918 -0.36115906 0
0.7880373 -0.059864044 -0.36054039 0
-0.96171665 0.068803787 -0.36234242 0
-0.85625815 0.040432215 -0.36324212 0
-0.74849844 0.074079752 -0.36352944 0
-0.65639806 0.060033083 -0.36289176 0
-0.54268813 0.061630249 -0.36302331 0
-0.44010663 0.053374052 -0.36299318 0
-0.34763384 0.075419664 -0.36261261 0
-0.2108891 0.076586246 -0.36262274 0
-0.10158992 0.099640846 -0.36228412 0
-0.095001698 0.044512033 -0.36203778 0
0.070652246 0.038473129 -0.36231583 0
0.2327404 0.066375732 -0.36222589 0
0.38967013 0.056627274 -0.36160946 0
0.60108137 0.062336445 -0.36160523 0
0.78084087 0.045001984 -0.36103362 0
-0.94047999 0.14796066 -0.36218438 0
-0.84758425 0.1579113 -0.36296526 0
-0.75361514 0.16097164 -0.36354053 0
-0.65887451 0.14359736 -0.36340323 0
-0.55455732 0.14634228 -0.36340773 0
-0.41375232 0.17154932 -0.36412516 0
-0.34637475 0.16616082 -0.36322063 0
-0.24375224 0.16637039 -0.3627364 0
-0.053314447 0.17884493 -0.36348397 0
0.038363934 0.1438489 -0.36251771 0
0.19136047 0.16968679 -0.36229649 0
0.23864675 0.12200832 -0.36265364 0
0.41327882 0.15509415 -0.36255863 0
0.59617805 0.1515317 -0.36208636 0
0.7672348 0.17348576 -0.36163169 0
-0.96226239 0.26474762 -0.361435 0
-0.8667922 0.2453959 -0.36253852 0
-0.76485896 0.25736046 -0.36331686 0
-0.652493 0.25084043 -0.36385882 0
-0.5575099 0.25358009 -0.36368984 0
-0.47184658 0.25436926 -0.36357576 0
-0.35641861 0.25672507 -0.36335215 0
-0.23286176 0.26266861 -0.36314398 0
-0.11080694 0.24869251 -0.36313418 0
-0.040363073 0.2883482 -0.36263227 0
0.023708105 0.22362971 -0.36284155 0
0.19013214 0.28157949 -0.36247128 0
0.21680284 0.23212481 -0.36306378 0
0.37255383 0.26782131 -0.3623594 0
0.59380817 0.25256205 -0.36271408 0
0.77368116 0.27429867 -0.36169511 0
0.98235178 0.24964809 -0.35844737 0
-0.96965837 0.35311961 -0.36099994 0
-0.85501456 0.34162211 -0.36225253 0
-0.76605392 0.35577822 -0.36250049 0
-0.64157128 0.35962391 -0.36233884 0
-0.5324223 0.36800027 -0.36209756 0
-0.48442054 0.33967233 -0.36241198 0
-0.34517884 0.35070848 -0.36248752 0
-0.23721528 0.36344218 -0.3619186 0
-0.10193634 0.3796196 -0.36164683 0
-0.0061247349 0.3802259 -0.36092988 0
0.02809453 0.33065176 -0.3620874 0
0.18399763 0.36686993 -0.36131844 0
0.35895801 0.35210943 -0.36123201 0
0.54742742 0.34122705 -0.36103621 0
0.75348043 0.37048912 -0.35947159 0
0.99748516 0.35708046 -0.35704413 0
-0.96216416 0.46563506 -0.36052355 0
-0.86073589 0.45984054 -0.36092111 0
-0.78233361 0.43361497 -0.36132991 0
-0.64976549 0.45432305 -0.36083472 0
-0.54804087 0.46630406 -0.3599084 0
-0.41494465 0.4616878 -0.3600589 0
-0.37365413 0.4201498 -0.36120176 0
-0.2760644 0.45723057 -0.36018798 0
-0.14689565 0.47337055 -0.35982347 0
-0.018640518 0.4549911 -0.35984379 0
0.14191985 0.4752636 -0.35935169 0
0.34916592 0.44032621 -0.36001819 0
0.55937028 0.46785688 -0.35953173 0
0.71612215 0.45999813 -0.35713857 0
0.94637299 0.45985031 -0.35424861 0
0.91437626 -0.49797297 -0.36715311 0
-0.93141437 -0.43156695 -0.36501476 0
-0.82040358 -0.45135045 -0.36631978 0
-0.74497175 -0.43610978 -0.36669716 0
-0.62748075 -0.4376359 -0.36714563 0
-0.52755785 -0.46722984 -0.36726081 0
-0.42686844 -0.45078516 -0.36704335 0
-0.25864816 -0.44499087 -0.36675274 0
-0.1379261 -0.41990972 -0.36610949 0
-0.077691555 -0.47288346 -0.36759555 0
0.069582701 -0.4212451 -0.36665779 0
0.24263954 -0.44806528 -0.36676013 0
0.47605133 -0.43525505 -0.36694437 0
0.64231062 -0.46568632 -0.36670119 0
0.92183208 -0.43038464 -0.36624548 0
-0.92360473 -0.33058906 -0.36457476 0
-0.85978413 -0.35329819 -0.36509916 0
-0.724612 -0.32792211 -0.36545363 0
-0.65264869 -0.33076191 -0.36505026 0
-0.51808929 -0.34696198 -0.36547169 0
-0.36510587 -0.34054112 -0.36570716 0
-0.2463069 -0.33773589 -0.36531228 0
-0.10996938 -0.33976007 -0.36529115 0
0.062309265 -0.33126187 -0.36510497 0
0.25330544 -0.32882357 -0.36507148 0
0.45569682 -0.34643126 -0.36523035 0
0.65374994 -0.35258818 -0.36516076 0
0.90318727 -0.34684134 -0.36467791 0
-0.9283917 -0.22631979 -0.36387441 0
-0.81432629 -0.24646354 -0.36431959 0
-0.72292304 -0.24110055 -0.36406282 0
-0.62810111 -0.20925212 -0.36351141 0
-0.53082585 -0.25193286 -0.36442384 0
-0.36866713 -0.21612477 -0.36367044 0
-0.21054435 -0.23107958 -0.36424184 0
-0.12249041 -0.23186255 -0.36339599 0
0.075832844 -0.24214029 -0.36395609 0
0.27220702 -0.23501635 -0.36396033 0
0.45374393 -0.24965239 -0.36373287 0
0.64532113 -0.22854185 -0.36317483 0
0.88689137 -0.24039602 -0.36284792 0
-0.90113664 -0.1315012 -0.36268204 0
-0.83370829 -0.14128089 -0.36232209 0
-0.71690893 -0.150419 -0.36273739 0
-0.6169951 -0.14327049 -0.36266819 0
-0.52169633 -0.15823555 -0.3624185 0
-0.37070489 -0.11934304 -0.36228225 0
-0.25055957 -0.12741542 -0.36202446 0
-0.12001872 -0.12557817 -0.36185807 0
0.040765047 -0.13647842 -0.36179012 0
0.26115108 -0.14626789 -0.36246532 0
0.41297746 -0.13061857 -0.36131492 0
0.46682501 -0.1885519 -0.3630566 0
0.62043357 -0.12573481 -0.36127868 0
0.88315248 -0.14334297 -0.36140457 0
-0.94518638 -0.046958208 -0.36265689 0
-0.81276131 -0.036781788 -0.36264884 0
-0.71943545 -0.04197073 -0.36247557 0
-0.62547588 -0.057472944 -0.36230674 0
-0.52304602 -0.035913229 -0.3620697 0
-0.4278121 -0.03835392 -0.36247522 0
-0.3813355 -0.043917894 -0.36213702 0
-0.23240852 -0.02550149 -0.36236385 0
-0.10466623 -0.045228481 -0.36205617 0
0.045836926 -0.044397354 -0.3616637 0
0.2422471 -0.028184414 -0.36179879 0
0.39985609 -0.0016012192 -0.36115366 0
0.44415212 -0.070759296 -0.36142123 0
0.645298 -0.05219841 -0.36139339 0
0.85937023 -0.06538868 -0.36040387 0
-0.90742779 0.047337294 -0.36289924 0
-0.83236933 0.064695597 -0.36296016 0
-0.70533586 0.063519478 -0.36330134 0
-0.6135211 0.058487654 -0.36316016 0
-0.5136323 0.05335021 -0.36273837 0
-0.37336421 0.07856822 -0.36297244 0
-0.2440145 0.076825619 -0.36279571 0
-0.11728907 0.037271976 -0.36234689 0
0.061538935 0.03862524 -0.3623724 0
0.23530841 0.066851616 -0.36225268 0
0.447613 0.065469265 -0.36225459 0
0.66882277 0.050176144 -0.36232954 0
0.90968037 0.045227528 -0.36177877 0
-0.92963409 0.1647656 -0.36211303 0
-0.82316351 0.16760635 -0.36323702 0
-0.74476075 0.14725518 -0.36326921 0
-0.62546587 0.16416526 -0.36366883 0
-0.51121855 0.17236495 -0.36353421 0
-0.39425278 0.14642596 -0.36310428 0
-0.34741211 0.20495534 -0.36418077 0
-0.2511282 0.17956209 -0.36335751 0
-0.12629437 0.13985991 -0.36285362 0
0.041799307 0.14588451 -0.36274844 0
0.17931175 0.17674398 -0.36212641 0
0.23691249 0.12419701 -0.3626247 0
0.471416 0.16526747 -0.36322412 0
0.65410137 0.14968824 -0.36271924 0
0.8882637 0.14945841 -0.36165029 0
-0.93265676 0.26213145 -0.36166969 0
-0.82881546 0.27005911 -0.3627266 0
-0.72972083 0.26038647 -0.36366943 0
-0.64852238 0.25895882 -0.36360484 0
-0.50570631 0.2638979 -0.36381787 0
-0.41456223 0.29394937 -0.36284024 0
-0.32084966 0.25238895 -0.36377454 0
-0.25110388 0.30953169 -0.36306271 0
-0.16090894 0.24713254 -0.36284158 0
0.043435574 0.26276398 -0.36320591 0
0.1682651 0.29823375 -0.36184928 0
0.26138282 0.24311447 -0.36376557 0
0.4332273 0.24898005 -0.3632164 0
0.61197519 0.27691031 -0.36262614 0
0.65265417 0.21556664 -0.36312306 0
0.8905282 0.26004505 -0.36119887 0
-0.95282555 0.36106038 -0.36097783 0
-0.84941697 0.35547495 -0.36208493 0
-0.75558686 0.36303997 -0.3622033 0
-0.65813017 0.36574388 -0.36216754 0
-0.5323596 0.35441041 -0.36232668 0
-0.42843103 0.36667252 -0.36171842 0
-0.27240252 0.38204384 -0.36182842 0
-0.12974334 0.35846901 -0.36218482 0
0.0045413971 0.37345648 -0.36134893 0
0.22167611 0.36495733 -0.36191022 0
0.41997385 0.3449316 -0.36201325 0
0.62537313 0.34872246 -0.36195922 0
0.87303019 0.36025906 -0.3593241 0
-0.94654536 0.46854758 -0.36025357 0
-0.85967946 0.42847419 -0.36083257 0
-0.73075604 0.47261333 -0.36026058 0
-0.54067349 0.44919205 -0.36106336 0
-0.41325593 0.46963978 -0.36075234 0
-0.30119967 0.48105955 -0.36018911 0
-0.14725375 0.46497464 -0.36063021 0
-0.0040678978 0.45781517 -0.36020195 0
0.19386196 0.44668102 -0.36047685 0
0.41610241 0.47452068 -0.36040038 0
0.57603884 0.44157839 -0.35958633 0
0.82745552 0.4366765 -0.35709476 0
-0.94269395 -0.44608998 -0.3602885 0
-0.82478404 -0.46864223 -0.36172548 0
-0.70125985 -0.45315027 -0.36262405 0
-0.5770669 -0.40881681 -0.36177796 0
-0.55225039 -0.47370815 -0.36302501 0
-0.43539524 -0.44953394 -0.36245984 0
-0.29512691 -0.45732856 -0.36249334 0
-0.12240934 -0.43020248 -0.36218584 0
0.10179806 -0.45233226 -0.36312675 0
0.3074491 -0.45262885 -0.36309648 0
0.46890378 -0.43461037 -0.36205295 0
0.71234488 -0.43635225 -0.36162344 0
-0.92132664 -0.33463597 -0.35999238 0
-0.81273079 -0.35802221 -0.36111259 0
-0.70423961 -0.35633302 -0.36099198 0
-0.57244277 -0.30444694 -0.36015514 0
-0.51121902 -0.34237432 -0.36181158 0
-0.41906881 -0.34218574 -0.36103624 0
-0.28032827 -0.37265754 -0.36153969 0
-0.26745176 -0.32040048 -0.36092034 0
-0.14298439 -0.34194112 -0.36042923 0
0.069023609 -0.36017776 -0.36110803 0
0.27658033 -0.35641241 -0.36108029 0
0.45433664 -0.33175182 -0.36023712 0
0.67799425 -0.36172724 -0.35992187 0
-0.91391563 -0.27331543 -0.3597703 0
-0.81182384 -0.23481655 -0.35983962 0
-0.68071795 -0.26264095 -0.35987166 0
-0.58401203 -0.23102999 -0.3587971 0
-0.42814994 -0.24326277 -0.35931647 0
-0.28612852 -0.24129629 -0.35937315 0
-0.14966965 -0.25927305 -0.35904318 0
0.057312965 -0.26886535 -0.35951436 0
0.27752638 -0.25554037 -0.35956621 0
0.46701169 -0.23291636 -0.35900101 0
0.71295881 -0.28836489 -0.35943818 0
0.7374115 -0.21483994 -0.3587997 0
-0.90514731 -0.15740085 -0.35812569 0
-0.81664658 -0.15542412 -0.35796928 0
-0.69130802 -0.16758227 -0.35820433 0
-0.58886099 -0.10333943 -0.3571218 0
-0.54883957 -0.15499091 -0.35822502 0
-0.44395614 -0.1359551 -0.35747463 0
-0.31232572 -0.13076448 -0.35738406 0
-0.13040328 -0.14079714 -0.35759389 0
0.066590309 -0.15203428 -0.35793653 0
0.20841789 -0.13537645 -0.35664487 0
0.26535726 -0.1867981 -0.35835454 0
0.42199731 -0.13284159 -0.3567993 0
0.73226643 -0.14856577 -0.35777736 0
0.98296642 -0.15394449 -0.35707718 0
-0.9050529 -0.051990032 -0.35798815 0
-0.81847334 -0.044629574 -0.35785541 0
-0.69767499 -0.07168746 -0.35764354 0
-0.57825136 -0.057083845 -0.35752764 0
-0.56115532 -0.0058553219 -0.35806322 0
-0.44619894 -0.031715631 -0.35756505 0
-0.30561376 -0.049924374 -0.35748616 0
-0.14919281 -0.060039759 -0.35715842 0
0.050273895 -0.034703255 -0.3574335 0
0.27091932 -0.042243004 -0.35756782 0
0.44672728 -0.069713593 -0.35696155 0
0.71022797 -0.039453506 -0.35700601 0
0.99154091 -0.034899235 -0.35671192 0
-0.91920495 0.054090977 -0.35803473 0
-0.82813168 0.069113255 -0.35837504 0
-0.69892645 0.046478271 -0.35829529 0
-0.57246375 0.037628412 -0.35815084 0
-0.55123138 0.094268322 -0.35881194 0
-0.43118429 0.064594984 -0.35835212 0
-0.29508138 0.032743692 -0.35811502 0
-0.11770391 0.028666019 -0.35812294 0
0.033765316 0.056086063 -0.35770994 0
0.19802856 0.047640324 -0.3570081 0
0.43104935 0.036540985 -0.35733074 0
0.67063713 0.074345112 -0.35708284 0
0.9660306 0.069712639 -0.35634261 0
-0.93880987 0.15717196 -0.35726029 0
-0.81054854 0.15896988 -0.35872433 0
-0.69902539 0.1639297 -0.35903892 0
-0.55831409 0.17075467 -0.35919839 0
-0.4142108 0.17343879 -0.35928798 0
-0.32720065 0.13322449 -0.35825884 0
-0.15354419 0.14044762 -0.35828409 0
0.048728943 0.14516521 -0.35848072 0
0.24724722 0.15395355 -0.35839415 0
0.39842057 0.19674301 -0.35784304 0
0.4591949 0.1410284 -0.35838404 0
0.7120924 0.15258884 -0.35817945 0
0.94958687 0.1494956 -0.35587978 0
-0.9163866 0.27180982 -0.35711119 0
-0.82113051 0.24681568 -0.35817683 0
-0.71382928 0.25476098 -0.35898 0
-0.55325603 0.26605344 -0.35935679 0
-0.4532702 0.24299026 -0.35905099 0
-0.29856849 0.24526906 -0.35913005 0
