# .PCD v0.7 - Point Cloud Data file format
VERSION 0.7
FIELDS x y z intensity
SIZE 4 4 4 4
TYPE F F F F
COUNT 1 1 1 1
WIDTH 1293
HEIGHT 1
VIEWPOINT 0 0 0 1 0 0 0
POINTS 1293
DATA ascii
0.62633324 -0.32781532 -0.30340147 0
0.66576767 -0.24952492 -0.29325771 0
0.76374626 -0.2416172 -0.32763767 0
0.78103352 -0.1630403 -0.31716681 0
0.82450867 -0.14537233 -0.34539223 0
0.92012119 -0.1030854 -0.33620405 0
0.90403652 -0.044408441 -0.37440395 0
0.68892097 -0.44997144 -0.24554634 0
0.73449707 -0.41159949 -0.23429775 0
0.67822361 -0.34953296 -0.23007965 0
0.73404598 -0.34002817 -0.21598816 0
0.77929974 -0.26638567 -0.22986937 0
0.86041164 -0.21705121 -0.23837805 0
0.8448143 -0.18437548 -0.2824502 0
0.95610905 -0.17680004 -0.27426529 0
0.95308113 -0.091124684 -0.30875492 0
0.71511841 -0.45362344 -0.1941967 0
0.76865387 -0.48668295 -0.167377 0
0.78095055 -0.39384189 -0.16676331 0
0.88208866 -0.37638608 -0.18349266 0
0.80038548 -0.31330982 -0.18068457 0
0.90211201 -0.29781985 -0.18377972 0
0.98080444 -0.25521958 -0.21081734 0
0.92101669 -0.44028234 -0.15010214 0
0.86672592 -0.49290222 0.16250467 0
0.93624592 -0.4531222 0.1031189 0
0.96380138 -0.46835211 0.072650909 0
0.89073753 -0.39679202 0.10754919 0
0.94904232 -0.25003701 0.11019087 0
0.80874062 -0.49827906 0.29840612 0
0.92201424 -0.48370466 0.17207766 0
0.85980511 -0.42217693 0.23480892 0
0.90514469 -0.41404277 0.17660141 0
-0.47361279 -0.091622472 -0.34765768 0
-0.36688995 -0.065645307 -0.39254093 0
-0.28938007 -0.065509766 -0.4168148 0
-0.43410969 -0.014993161 -0.36714315 0
-0.38192177 0.036907673 -0.38996267 0
-0.28373814 0.012960762 -0.41214371 0
-0.18220615 0.060296655 -0.43148851 0
-0.13810062 0.011605561 -0.4497323 0
-0.34562969 0.13341972 -0.39232397 0
-0.27220535 0.12796304 -0.4099288 0
-0.18102455 0.11592492 -0.42343855 0
-0.10186291 0.14087167 -0.42502642 0
-0.34559345 0.22281486 -0.36244869 0
-0.25203419 0.22778052 -0.38381243 0
-0.16260052 0.20530704 -0.40170002 0
-0.1177597 0.19457603 -0.40632963 0
-0.36005592 0.31858435 -0.32676792 0
-0.27698326 0.32512155 -0.35205841 0
-0.17911243 0.30559409 -0.37186098 0
-0.09219265 0.29268387 -0.38868189 0
-0.34756851 0.42674744 -0.29499578 0
-0.24621391 0.42078552 -0.33111143 0
-0.15314484 0.3969346 -0.35106897 0
-0.06303978 0.41323179 -0.36328459 0
-0.17753696 0.49729401 -0.32254219 0
-0.75373745 -0.49862897 -0.26850605 0
-0.67102528 -0.48163441 -0.29311609 0
-0.58443451 -0.49241152 -0.31575155 0
-0.48739338 -0.46219116 -0.34519863 0
-0.39467335 -0.46173924 -0.37398195 0
-0.75577259 -0.42840654 -0.26981306 0
-0.66260147 -0.3845726 -0.30710554 0
-0.57390499 -0.37598705 -0.32776737 0
-0.48073578 -0.37693626 -0.3483572 0
-0.35907364 -0.39196327 -0.37971592 0
-0.2936554 -0.36414984 -0.39855242 0
-0.63751411 -0.29327503 -0.30255699 0
-0.56600571 -0.27816156 -0.32006502 0
-0.47113991 -0.2882126 -0.34307623 0
-0.38064384 -0.30546173 -0.37732697 0
-0.29007626 -0.29134917 -0.39381695 0
-0.18680763 -0.27673751 -0.40799332 0
-0.55085182 -0.18912278 -0.31399775 0
-0.48817825 -0.20225099 -0.33643055 0
-0.38132095 -0.18478465 -0.38017416 0
-0.2834816 -0.18171938 -0.39965487 0
-0.17828846 -0.18395652 -0.40354919 0
-0.10658455 -0.16469941 -0.40826654 0
-0.51377201 -0.12884964 -0.32593536 0
-0.27094173 -0.098440498 -0.40466261 0
-0.17388058 -0.086746991 -0.41356802 0
-0.073955536 -0.10325095 -0.4246254 0
0.0091047287 -0.086407036 -0.44330454 0
-0.24025822 -0.016757935 -0.40549135 0
-0.16871834 -0.0060716271 -0.41986513 0
-0.075871468 0.017705053 -0.44332075 0
0.034252167 -0.0061309338 -0.4561367 0
0.12890339 0.0099894106 -0.47515345 0
-0.059526443 0.10779747 -0.43776798 0
0.018931389 0.12196133 -0.44136715 0
0.12060738 0.10259902 -0.45672274 0
0.20121574 0.10337654 -0.46384573 0
-0.058234215 0.21330768 -0.41058302 0
0.034830093 0.21699437 -0.41725349 0
0.1595068 0.19286472 -0.43971777 0
0.19475555 0.20131662 -0.44251204 0
-0.044808388 0.3121596 -0.38394737 0
0.053722382 0.30505577 -0.40556669 0
0.16241455 0.28439021 -0.42861557 0
0.25529671 0.31083834 -0.46169233 0
0.30176067 0.33610925 -0.46321106 0
-0.059462547 0.39004979 -0.36457729 0
0.042853355 0.40040433 -0.39146948 0
0.13470078 0.39392969 -0.41655207 0
0.21711349 0.39227921 -0.43892622 0
0.33827782 0.40477386 -0.45556927 0
0.39930439 0.35529676 -0.47826338 0
0.047383308 0.48633373 -0.38047266 0
0.24194431 0.46870965 -0.43390751 0
0.33687115 0.49895421 -0.45397615 0
0.4604187 0.47398418 -0.4745388 0
-0.09661293 -0.48342434 -0.38886309 0
-0.24834442 -0.40754917 -0.38727903 0
-0.16116047 -0.41254255 -0.39092875 0
-0.063718796 -0.39662865 -0.39391947 0
-0.22551823 -0.33429262 -0.39614964 0
-0.17317677 -0.3052654 -0.39685059 0
-0.082436562 -0.30864114 -0.401021 0
0.048552513 -0.30242622 -0.40844107 0
-0.052582741 -0.22153622 -0.4029336 0
0.049822807 -0.19844569 -0.42483664 0
0.15515232 -0.23477037 -0.44198847 0
0.221035 -0.19771136 -0.45736265 0
0.04561615 -0.12397599 -0.43865871 0
0.14158249 -0.1050922 -0.45210361 0
0.25728416 -0.12261412 -0.46516943 0
0.31441212 -0.076210767 -0.46784115 0
0.24918938 -0.015103251 -0.47074223 0
0.35835361 -0.015019506 -0.47432566 0
0.46055984 0.0031419992 -0.48615408 0
0.24732971 0.073861063 -0.44750929 0
0.35355759 0.078005195 -0.43834019 0
0.52637482 0.076574326 -0.50150681 0
0.18758011 0.20059088 -0.40802574 0
0.24980354 0.1685549 -0.40388918 0
0.36196423 0.1370402 -0.41634178 0
0.55389309 0.18572378 -0.48847437 0
0.20637226 0.23346338 -0.38122845 0
0.22838974 0.25181335 -0.37918997 0
0.44193745 0.32257792 -0.46978092 0
0.55633354 0.27152464 -0.48960209 0
0.64026833 0.26805437 -0.49887562 0
0.46020603 0.37034619 -0.47407293 0
0.53255367 0.34737241 -0.48510838 0
0.64472389 0.38223687 -0.5085125 0
0.73513508 0.36042464 -0.52004194 0
0.55895996 0.45753649 -0.48648119 0
0.67670822 0.49901858 -0.50535536 0
0.76022339 0.46392006 -0.52567053 0
0.88186741 0.44546276 -0.5481286 0
-0.02822113 -0.46872953 -0.39930725 0
0.046226501 -0.42455786 -0.39624929 0
0.13925552 -0.42702526 -0.39218998 0
0.2393856 -0.42462218 -0.41709566 0
0.07708931 -0.3475413 -0.40143299 0
0.15347195 -0.31344756 -0.40845013 0
0.26695251 -0.32562047 -0.41921329 0
0.32847977 -0.29970345 -0.40555668 0
0.19009399 -0.26050425 -0.43552494 0
0.26101208 -0.23100755 -0.43354893 0
0.34491444 -0.22738153 -0.43679857 0
0.44708824 -0.22770612 -0.435287 0
0.37566757 -0.14386259 -0.44905329 0
0.47232056 -0.11094132 -0.45910168 0
0.56954956 -0.12054235 -0.47885561 0
0.46871281 -0.035721153 -0.49036121 0
0.55847168 -0.034673244 -0.49793863 0
0.66232777 -0.024720341 -0.50372839 0
0.72227669 -0.04878971 -0.50092459 0
0.56998539 0.054257214 -0.50141478 0
0.66348267 0.058856308 -0.49392176 0
0.73899364 0.015425235 -0.48678875 0
0.68527222 0.13208598 -0.48597622 0
0.74518776 0.15583059 -0.48174429 0
0.90717793 0.17963171 -0.51817608 0
0.79866695 0.22977272 -0.51772881 0
0.87689781 0.28214779 -0.52992868 0
0.94637585 0.25861797 -0.52070475 0
0.85819054 0.34944549 -0.54481316 0
0.93081093 0.34234262 -0.52994204 0
0.9927597 0.4228406 -0.52491951 0
0.25845337 -0.46224603 -0.39255238 0
0.3860569 -0.45102149 -0.39400339 0
0.30009842 -0.37134719 -0.39649868 0
0.4028244 -0.36298081 -0.40356731 0
0.44500637 -0.37017077 -0.41047716 0
0.41294861 -0.28703126 -0.42436886 0
0.48683262 -0.28424516 -0.40420532 0
0.54188824 -0.2499795 -0.4161458 0
0.5801754 -0.18566088 -0.41676188 0
0.75190735 -0.1240713 -0.47301006 0
0.66175079 -0.10012504 -0.48468781 0
0.80224228 -0.067888349 -0.46751165 0
0.84085083 -0.026363999 -0.45759344 0
0.79090405 0.019029975 -0.45915604 0
0.87065125 0.023341298 -0.43736696 0
0.79009533 0.087528169 -0.4462533 0
0.88614368 0.12743908 -0.45124006 0
0.97668648 0.13714737 -0.44364023 0
0.90353107 0.23947027 -0.4822278 0
0.98746204 0.21867168 -0.46361208 0
0.4178648 -0.49892327 -0.36340952 0
0.4836874 -0.47561648 -0.34022141 0
0.44198895 -0.41908762 -0.3380022 0
0.51311016 -0.38931713 -0.34198523 0
0.57612038 -0.3504906 -0.36676598 0
0.5457859 -0.27816874 -0.35508966 0
0.60758877 -0.28182003 -0.34133053 0
0.63177204 -0.19965087 -0.34325504 0
0.75421619 -0.2108127 -0.35080385 0
0.7953825 -0.15097699 -0.39161015 0
0.82966042 -0.10560206 -0.3925581 0
0.90767956 -0.043028563 -0.43039799 0
0.9226923 -0.001591295 -0.39155626 0
0.53764248 -0.4835245 -0.31577158 0
0.55344486 -0.40416336 -0.28113222 0
0.63616753 -0.41195914 -0.2717433 0
0.63553905 -0.31261879 -0.2727356 0
0.72832966 -0.29643297 -0.24897051 0
0.67449093 -0.25288802 -0.27613306 0
0.77080345 -0.21415354 -0.28962421 0
0.83979034 -0.17740715 -0.30948162 0
0.86571312 -0.12704775 -0.31040573 0
0.9356308 -0.084506989 -0.31910753 0
0.95365524 -0.054738849 -0.33408117 0
0.6950798 -0.43499231 -0.22136974 0
0.73409081 -0.39124027 -0.19869375 0
0.7061224 -0.34971267 -0.20550776 0
0.77908039 -0.32984251 -0.17810583 0
0.76988506 -0.2710489 -0.20638323 0
0.87230492 -0.25776595 -0.21852255 0
0.87104416 -0.16863966 -0.24599218 0
0.97129726 -0.1723596 -0.2528038 0
0.7351284 -0.48437002 -0.17176962 0
0.79106808 -0.47450954 -0.13884211 0
0.78654766 -0.36556193 -0.14791203 0
0.91899872 -0.36815438 -0.1643877 0
0.98803329 -0.44748279 0.046474457 0
0.90006828 -0.47920394 0.19875765 0
0.93151093 -0.44484338 0.13833761 0
0.97548962 -0.47404304 0.098906517 0
0.86271477 -0.40062353 0.22644377 0
0.8651619 -0.47344512 0.24512672 0
0.94505978 -0.48112777 0.27013445 0
0.83827972 -0.39830214 0.25653648 0
0.99345398 -0.2800124 0.43422699 0
0.97194386 -0.34673458 0.44575262 0
-0.71815586 -0.37281442 -0.29488564 0
-0.65469265 -0.33856559 -0.30988264 0
-0.63958073 -0.28064415 -0.30606937 0
-0.61410999 -0.19937809 -0.30172205 0
-0.53696537 -0.18422812 -0.32311535 0
-0.42801189 -0.16820718 -0.36706114 0
-0.32989597 -0.17105164 -0.40381289 0
-0.58196926 -0.12337267 -0.3062501 0
-0.53636837 -0.074715734 -0.32563543 0
-0.42072582 -0.079862535 -0.37514925 0
-0.33722687 -0.066451877 -0.40480709 0
-0.24513817 -0.082776815 -0.41632748 0
-0.50432396 -0.016055226 -0.34176016 0
-0.43114662 0.039764225 -0.37491226 0
-0.32916641 0.01542601 -0.40963507 0
-0.24639034 0.030777574 -0.42746973 0
-0.13587856 0.015268475 -0.44355249 0
-0.40236855 0.13892528 -0.36899757 0
-0.32767487 0.13900971 -0.39628935 0
-0.24339294 0.13918811 -0.41149616 0
-0.1451807 0.12781122 -0.42580175 0
-0.069164276 0.090568274 -0.44172859 0
-0.42303371 0.23468062 -0.33303213 0
-0.34716511 0.25056937 -0.3563509 0
-0.25254917 0.22969422 -0.38651848 0
-0.14417648 0.21082836 -0.40233898 0
-0.05008316 0.2031374 -0.41544724 0
-0.46106434 0.36739329 -0.27939653 0
-0.4149456 0.31770399 -0.30906677 0
-0.32634163 0.31459936 -0.34197092 0
-0.22402763 0.32182023 -0.36458254 0
-0.1258812 0.29752776 -0.38075018 0
-0.044320107 0.30410689 -0.38849354 0
-0.45866966 0.42664069 -0.2580862 0
-0.40560246 0.40923494 -0.28074312 0
-0.32270527 0.42695436 -0.30778217 0
-0.20404816 0.40483633 -0.3451786 0
-0.11594772 0.39378408 -0.35646439 0
-0.015987396 0.40280664 -0.37567139 0
0.037934303 0.36781207 -0.39646864 0
-0.21037579 0.48728278 -0.32202816 0
0.091797829 0.47452581 -0.39682341 0
-0.81469345 -0.49737257 -0.26374006 0
-0.73320389 -0.4846766 -0.28175688 0
-0.63833237 -0.4737494 -0.30815458 0
-0.53756714 -0.49727112 -0.32979584 0
-0.43712902 -0.48765638 -0.35344028 0
-0.62825394 -0.39553061 -0.3197751 0
-0.53970623 -0.37528116 -0.33765984 0
-0.42963409 -0.3997333 -0.36523533 0
-0.3376503 -0.40114057 -0.38362026 0
-0.25595665 -0.37679073 -0.39337921 0
-0.58410549 -0.28087616 -0.31716633 0
-0.5253067 -0.28233257 -0.332304 0
-0.44301891 -0.2984423 -0.35688162 0
-0.33463192 -0.2813831 -0.39134407 0
-0.22493267 -0.30598196 -0.40280247 0
-0.13340569 -0.29472971 -0.40495825 0
-0.31897068 -0.20516728 -0.39144087 0
-0.23336315 -0.19302259 -0.40431976 0
-0.13981819 -0.19672072 -0.40558386 0
-0.048549652 -0.18157387 -0.41683435 0
-0.21000099 -0.10278228 -0.40832996 0
-0.12612534 -0.098186135 -0.41621685 0
-0.023999214 -0.1116727 -0.43018389 0
0.070340157 -0.088106483 -0.44839239 0
0.18370438 -0.069414139 -0.47348595 0
-0.19015408 -0.036000192 -0.4123745 0
-0.10024452 -0.008684665 -0.43029642 0
-0.020382881 0.013465494 -0.45640516 0
0.058080673 0.010683954 -0.46334839 0
0.17406368 0.018075377 -0.48239851 0
0.23937607 -0.0075649917 -0.48254013 0
0.001531601 0.12083381 -0.44175386 0
0.069030762 0.10086787 -0.4531846 0
0.18207455 0.091812164 -0.46023226 0
0.24555969 0.067725718 -0.46528482 0
-0.00025558472 0.22418866 -0.41349936 0
0.084201813 0.20129243 -0.43245316 0
0.19321537 0.18683684 -0.43162489 0
0.02837944 0.25961697 -0.41159725 0
0.06606102 0.30480775 -0.41231823 0
0.17687702 0.29490894 -0.43418312 0
0.30090427 0.29593641 -0.4721489 0
0.38622379 0.30091277 -0.47683239 0
0.10297775 0.40491506 -0.40728569 0
0.18796062 0.40875891 -0.4306488 0
0.26826191 0.39332017 -0.45245504 0
0.37005901 0.39478022 -0.4648962 0
0.47344208 0.36954448 -0.47871256 0
0.37776756 0.49344319 -0.45821285 0
0.47358799 0.49074459 -0.48104286 0
0.57362366 0.46765774 -0.4948678 0
-0.050802231 -0.48340553 -0.38529921 0
-0.21970558 -0.40188956 -0.38674784 0
-0.13031197 -0.41095605 -0.39533615 0
-0.03350544 -0.42007303 -0.39928102 0
0.064463615 -0.40926304 -0.40889692 0
-0.097662926 -0.32485652 -0.39964962 0
-0.021166801 -0.31293252 -0.40097761 0
0.075289726 -0.31967902 -0.40690517 0
0.14329529 -0.29431862 -0.41389751 0
-0.038117409 -0.23756631 -0.40800858 0
0.077044487 -0.21572198 -0.42033672 0
0.19658184 -0.20524795 -0.43104124 0
0.33508396 -0.18987764 -0.45564365 0
0.087614059 -0.15585534 -0.4409256 0
0.19569874 -0.1251283 -0.4611907 0
0.28073883 -0.1192477 -0.46157694 0
0.38558769 -0.11481509 -0.47039318 0
0.27900982 -0.00071808696 -0.46003342 0
0.38840866 -0.0059748292 -0.47752094 0
0.49416065 -0.033998311 -0.49343777 0
0.54103279 -0.032402992 -0.50072432 0
0.30216885 0.063409477 -0.44133329 0
0.40733814 0.057789773 -0.45612478 0
0.51544666 0.10904184 -0.50137997 0
0.59498215 0.07210803 -0.50612879 0
0.22258091 0.15989339 -0.40202141 0
0.2834816 0.17596006 -0.39120436 0
0.5171814 0.17746043 -0.48836613 0
0.59375286 0.16282922 -0.49474573 0
0.74255466 0.19243404 -0.51557684 0
0.21994686 0.24193257 -0.37023926 0
0.50494957 0.26631758 -0.4754076 0
0.59084702 0.25253141 -0.49210405 0
0.68388462 0.25834343 -0.51059294 0
0.78445053 0.27087381 -0.52977943 0
0.53041553 0.3374027 -0.48292398 0
0.60010624 0.3653774 -0.49795532 0
0.69938946 0.36502749 -0.50995445 0
0.8134079 0.35617578 -0.53719664 0
0.89090061 0.36353412 -0.55456066 0
0.68235779 0.43514672 -0.51199245 0
0.79075527 0.48347503 -0.52923822 0
0.89365864 0.47628096 -0.54922676 0
0.9537344 0.44840792 -0.55172777 0
0.031019211 -0.45534459 -0.3966136 0
0.086737633 -0.430444 -0.3960495 0
0.19267941 -0.42868447 -0.39590216 0
0.27430248 -0.41773766 -0.39733362 0
0.20426369 -0.33479056 -0.4125948 0
0.30140305 -0.33471641 -0.41448784 0
0.3733511 -0.33075756 -0.41047144 0
0.29573154 -0.25489709 -0.4307971 0
0.40273285 -0.25349271 -0.43364382 0
0.48112011 -0.22827476 -0.43187523 0
0.40382004 -0.1724873 -0.45957327 0
0.5061264 -0.17048155 -0.44784212 0
0.56282997 -0.12630129 -0.46009254 0
0.68854523 -0.10522139 -0.48846292 0
0.61017132 -0.028383255 -0.50597334 0
0.69830418 -0.035654724 -0.50300169 0
0.70485592 0.044643193 -0.48118782 0
0.71395969 0.11687148 -0.46588993 0
0.81576633 0.16553098 -0.49002886 0
0.88386631 0.24389461 -0.50669384 0
0.93103218 0.30187508 -0.49870205 0
0.98155689 0.33658436 -0.50814676 0
0.33934879 -0.45454356 -0.39370584 0
0.41429329 -0.4704656 -0.37860823 0
0.44486618 -0.37691352 -0.39345455 0
0.52721596 -0.35248864 -0.38077116 0
0.44429207 -0.27122951 -0.40587044 0
0.52772331 -0.25306782 -0.39038849 0
0.60123539 -0.23864113 -0.38752842 0
0.61312008 -0.17771262 -0.39348698 0
0.75955296 -0.1487084 -0.42410278 0
0.78260326 -0.13240004 -0.48927212 0
0.78413105 -0.1193195 -0.3994751 0
0.82087708 -0.058638692 -0.45288658 0
0.86008453 0.020582795 -0.44115305 0
0.90935612 0.045465291 -0.41032362 0
0.82073498 0.1013439 -0.44715929 0
0.95160198 0.1281524 -0.43663025 0
0.94061756 0.20956117 -0.46596718 0
0.98371696 0.2883248 -0.44283295 0
0.46627235 -0.49160728 -0.34434843 0
0.54842949 -0.49976474 -0.32147789 0
0.50350189 -0.42550889 -0.31457376 0
0.55347157 -0.38625157 -0.3283205 0
0.56952953 -0.30571908 -0.32498932 0
0.63416004 -0.28028589 -0.32230091 0
0.63962364 -0.24444321 -0.3073802 0
0.74741077 -0.1946981 -0.3398881 0
0.83178902 -0.16778603 -0.36368799 0
0.81015682 -0.14421955 -0.35204887 0
0.86422634 -0.09410885 -0.36128473 0
0.90836716 -0.025243998 -0.36356878 0
0.93793106 -0.016322494 -0.38260603 0
0.97505188 0.1100533 -0.39057159 0
0.60949421 -0.49542031 -0.27017832 0
0.60516644 -0.40481094 -0.26530075 0
0.67728138 -0.41187543 -0.23952532 0
0.62118149 -0.32528192 -0.25696468 0
0.70377636 -0.30403313 -0.24064636 0
0.70510387 -0.26048934 -0.22203779 0
0.80012703 -0.22902057 -0.26302147 0
0.87428761 -0.18649311 -0.26431608 0
0.82935619 -0.15092176 -0.28727579 0
0.90652084 -0.12430477 -0.28390455 0
0.71863651 -0.41374061 -0.18207264 0
0.81109524 -0.42336327 -0.1540637 0
0.74908161 -0.35737544 -0.17684412 0
0.82252026 -0.32164687 -0.20465183 0
0.89198112 -0.31262207 -0.18406439 0
0.8956852 -0.23975363 -0.21239853 0
0.84458447 -0.4656395 -0.14850664 0
0.96468067 -0.48925787 -0.13263845 0
0.88069153 -0.36801419 -0.16377115 0
0.96235943 -0.39218634 -0.15440702 0
0.95658207 -0.47677377 0.082535267 0
0.88518238 -0.40726197 0.11752558 0
0.951931 -0.43677816 0.063810349 0
0.94906616 -0.2534304 0.11276436 0
0.81862354 -0.42374519 0.27262688 0
0.89605331 -0.44798556 0.19219875 0
0.9559679 -0.43944472 0.12259769 0
0.83270359 -0.38534874 0.2488265 0
0.80087566 -0.43666613 0.30165529 0
0.97173595 -0.32882372 0.44202995 0
-0.75749397 0.07852605 -0.23039103 0
-0.66009426 0.10344249 -0.26324987 0
-0.73527813 0.16583601 -0.21260786 0
-0.66156769 0.163495 -0.24220657 0
-0.56070709 0.17399418 -0.27543211 0
-0.47772694 0.19843024 -0.30062723 0
-0.40095425 0.20773411 -0.32534933 0
-0.7149086 0.27004996 -0.18480015 0
-0.63426971 0.269701 -0.21564913 0
-0.54075241 0.2663376 -0.24904919 0
-0.46791363 0.27761078 -0.27364206 0
-0.35252571 0.27022734 -0.32056618 0
-0.70759106 0.36524642 -0.15622282 0
-0.63833046 0.37412065 -0.17924976 0
-0.56319904 0.37468314 -0.20581913 0
-0.45915127 0.37227759 -0.24322987 0
-0.35880947 0.38144368 -0.27767086 0
-0.27451992 0.36131516 -0.31361055 0
-0.69500828 0.4566099 -0.12956142 0
-0.61685944 0.46726477 -0.15584135 0
-0.51567173 0.47344515 -0.18739748 0
-0.43259048 0.4562628 -0.22551489 0
-0.34725761 0.47238469 -0.24979544 0
-0.27689838 0.47240573 -0.27648735 0
-0.96585464 -0.41245258 -0.23236656 0
-0.95590401 -0.34023359 -0.22061491 0
-0.86035252 -0.32540247 -0.25206232 0
-0.77863121 -0.31396225 -0.26971102 0
-0.93621445 -0.24069297 -0.21123838 0
-0.84157658 -0.22666596 -0.24258375 0
-0.76636124 -0.25047046 -0.26379776 0
-0.66062641 -0.2215753 -0.28616381 0
-0.9255724 -0.16310701 -0.20322037 0
-0.83691692 -0.13424221 -0.23147249 0
-0.75270939 -0.14079688 -0.25080013 0
-0.65738201 -0.13702641 -0.27529049 0
-0.54244709 -0.14835851 -0.31639099 0
-0.47425842 -0.12835295 -0.34446859 0
-0.35990524 -0.11578178 -0.39138842 0
-0.31361866 -0.12202102 -0.39368105 0
-0.83401394 -0.037459701 -0.21738482 0
-0.74864197 -0.049607158 -0.24147558 0
-0.66524315 -0.01629287 -0.26765203 0
-0.5688343 -0.019507051 -0.30906439 0
-0.47417545 -0.018823266 -0.34755611 0
-0.38517094 -0.046920568 -0.38285923 0
-0.28389072 -0.039552838 -0.39763021 0
-0.16515923 0.0055266023 -0.42184448 0
-0.81298828 0.023683816 -0.21514797 0
-0.70908737 0.029578865 -0.25001955 0
-0.64988708 0.063946843 -0.2763772 0
-0.54994583 0.059809655 -0.31440973 0
-0.4897604 0.084289819 -0.33257437 0
-0.3768568 0.071190983 -0.3768363 0
-0.27478981 0.069494694 -0.39848328 0
-0.16583443 0.064566046 -0.4123683 0
-0.071249962 0.066089243 -0.41973782 0
-0.45311928 0.14184555 -0.32921124 0
-0.35368347 0.17638642 -0.35184813 0
-0.25996685 0.18559971 -0.36544085 0
-0.1713419 0.16108733 -0.38229656 0
-0.079163551 0.15682665 -0.39221239 0
-0.0065317154 0.1438081 -0.40491915 0
-0.35070229 0.28006211 -0.31300116 0
-0.27677345 0.26049134 -0.34223843 0
-0.15631962 0.26358327 -0.35525942 0
-0.066865921 0.25732327 -0.36471891 0
0.034648895 0.2363236 -0.38766146 0
-0.23723316 0.34087232 -0.3248086 0
-0.13279152 0.35278875 -0.33228064 0
-0.053681374 0.33897656 -0.3466568 0
0.041867256 0.3538774 -0.36937618 0
0.1404047 0.31355926 -0.4016037 0
0.19947338 0.34938869 -0.41432142 0
-0.21887207 0.41446894 -0.30363512 0
-0.17141151 0.45149225 -0.30096674 0
-0.048179626 0.44575304 -0.33297348 0
0.066146851 0.45792684 -0.35925388 0
0.15506268 0.43551758 -0.38837624 0
0.25163078 0.44721854 -0.41180992 0
0.31442451 0.41994014 -0.4251852 0
-0.93914318 -0.45244831 -0.24264717 0
-0.85244751 -0.45530319 -0.26216269 0
-0.75875282 -0.4497366 -0.2843504 0
-0.66572475 -0.45124659 -0.30428076 0
-0.56398678 -0.44563499 -0.33245802 0
-0.46443844 -0.44229415 -0.35679865 0
-0.38294506 -0.42381433 -0.37049437 0
-0.81555271 -0.36111239 -0.26738834 0
-0.75309277 -0.35613587 -0.27898598 0
-0.64820671 -0.34760252 -0.30493784 0
-0.57469177 -0.34250101 -0.31740904 0
-0.46918201 -0.3671523 -0.3470521 0
-0.35302353 -0.35262758 -0.37868738 0
-0.28994942 -0.34036458 -0.38274193 0
-0.73248291 -0.27708927 -0.27174091 0
-0.6651783 -0.24687389 -0.28411865 0
-0.56122208 -0.24361604 -0.31114721 0
-0.45764256 -0.24728474 -0.34700298 0
-0.35327816 -0.24972394 -0.38340569 0
-0.26050949 -0.247136 -0.38748169 0
-0.16162586 -0.23676504 -0.39238262 0
-0.35620403 -0.13983658 -0.37524414 0
-0.247612 -0.15882367 -0.39080191 0
-0.14228535 -0.14936544 -0.40041161 0
-0.098482132 -0.14190648 -0.39152718 0
-0.22813129 -0.080903441 -0.39257956 0
-0.16479301 -0.04951331 -0.40470457 0
-0.057508469 -0.052723289 -0.41931391 0
0.051774979 -0.059739769 -0.44340372 0
0.14349461 -0.045912564 -0.45632219 0
0.024544716 0.057519644 -0.42983389 0
0.17054272 0.04994005 -0.44387197 0
0.062384605 0.1506747 -0.40944195 0
0.15076637 0.14985976 -0.40648365 0
0.22492313 0.13411936 -0.40336418 0
0.16093445 0.23793936 -0.3921051 0
0.36206532 0.24681646 -0.45383883 0
0.25692558 0.34810197 -0.42557907 0
0.33910561 0.32989931 -0.43506384 0
0.4510231 0.29589909 -0.44279718 0
0.52390575 0.33366784 -0.45367336 0
0.39286613 0.41749802 -0.43809175 0
0.45935726 0.43660343 -0.44424343 0
0.57322311 0.46965569 -0.46331549 0
0.66309547 0.42319912 -0.48138332 0
-0.51815128 -0.49987766 -0.33768511 0
-0.43613243 -0.45635891 -0.35435677 0
-0.32821083 -0.47921908 -0.37271166 0
-0.23901653 -0.45130828 -0.38541126 0
-0.16664696 -0.46792141 -0.37911749 0
-0.074005127 -0.43644658 -0.39703846 0
-0.24499512 -0.35436136 -0.38108778 0
-0.13393211 -0.38263699 -0.38998365 0
-0.02495575 -0.36682484 -0.39666128 0
-0.15001297 -0.29345632 -0.3889308 0
-0.046347618 -0.2914654 -0.39504671 0
0.065862656 -0.26096886 -0.40788412 0
0.15237427 -0.27904955 -0.42781782 0
-0.036234856 -0.20878643 -0.40319014 0
0.028990746 -0.18266809 -0.41581106 0
0.14688587 -0.16322084 -0.4405632 0
0.24969482 -0.15533684 -0.445364 0
0.31515121 -0.14614759 -0.43576717 0
0.24275684 -0.05705294 -0.45355511 0
0.32651043 -0.052603513 -0.45116568 0
0.40767479 -0.077639103 -0.45866299 0
0.5044241 -0.04462567 -0.4905138 0
0.24688816 0.011110306 -0.42664242 0
0.36123466 0.014544427 -0.43234682 0
0.51950836 0.019322872 -0.4676466 0
0.2149992 0.162469 -0.3670187 0
0.23359203 0.097489417 -0.38576603 0
0.32273006 0.10237062 -0.38844109 0
0.54467869 0.093599766 -0.47631741 0
0.61369228 0.12480533 -0.47632027 0
0.21175766 0.21195605 -0.34710312 0
0.22996044 0.1646018 -0.34733868 0
0.55140018 0.20998093 -0.46627331 0
0.74957466 0.20076072 -0.49997187 0
0.87290764 0.24662969 -0.51982164 0
0.64700794 0.30426708 -0.47878647 0
0.75485134 0.30630258 -0.49970865 0
0.84441757 0.33875263 -0.51270723 0
0.91667843 0.31112674 -0.51674509 0
0.85217476 0.42869481 -0.50692797 0
0.98600101 0.3924607 -0.52166986 0
0.96105957 0.49321115 -0.49870253 0
-0.055984497 -0.49885091 -0.37343597 0
0.055854797 -0.48056135 -0.38915205 0
0.14654255 -0.46247858 -0.38726377 0
-0.016337395 -0.4136976 -0.38916206 0
0.058320999 -0.38102207 -0.39325142 0
0.19291019 -0.39188147 -0.40110779 0
0.10061169 -0.34008545 -0.40048313 0
0.14446449 -0.28612053 -0.40738916 0
0.25471115 -0.30001035 -0.41830111 0
0.35330009 -0.28968918 -0.42601967 0
0.29519176 -0.20185894 -0.43054152 0
0.38111305 -0.20133963 -0.42532825 0
0.47502232 -0.17284755 -0.4422555 0
0.50516415 -0.12522101 -0.48066998 0
0.59065151 -0.1276229 -0.47881699 0
0.65906239 -0.094029874 -0.48363161 0
0.5775671 0.02770555 -0.47126198 0
0.68169975 -0.03640607 -0.47150469 0
0.73797035 -0.027338892 -0.45649433 0
0.68427849 0.073156655 -0.45023966 0
0.76408672 0.11239332 -0.48326063 0
0.86269283 0.089994997 -0.46297359 0
0.85039139 0.19648319 -0.48175669 0
0.94357681 0.15814373 -0.47525215 0
0.89665699 0.26271775 -0.49568367 0
0.95880413 0.26346925 -0.45813179 0
0.91764832 0.35354412 -0.47563505 0
0.98112202 0.38077068 -0.45150042 0
0.30048656 -0.43797362 -0.39392757 0
0.39888096 -0.43617702 -0.38986874 0
0.41488647 -0.34090468 -0.40629244 0
0.48946476 -0.33281094 -0.38800335 0
0.52342033 -0.25783658 -0.39790869 0
0.57453823 -0.21158071 -0.40072775 0
0.72139931 -0.1319406 -0.44577932 0
0.78473473 -0.12592745 -0.43096447 0
0.80372143 -0.051167756 -0.42845011 0
0.79226589 0.043125838 -0.40387821 0
0.90692616 0.07559976 -0.42244816 0
0.94690609 0.13513571 -0.4178071 0
0.99345207 0.13246155 -0.41269541 0
0.43365002 -0.46372622 -0.33736229 0
0.4789238 -0.47476 -0.34493828 0
0.52152252 -0.37251475 -0.32677269 0
0.56558037 -0.28185281 -0.31230879 0
0.59610367 -0.2628836 -0.33048201 0
0.71650982 -0.2577635 -0.32561064 0
0.60803986 -0.22173078 -0.30614662 0
0.77769661 -0.19871332 -0.32800007 0
0.81664562 -0.16742092 -0.37448025 0
0.84439564 -0.11832654 -0.36141014 0
0.91428471 -0.068709314 -0.36954117 0
0.95671558 0.01267907 -0.37770605 0
0.54250431 -0.48939928 -0.28775549 0
0.58576965 -0.40889111 -0.26080084 0
0.63847351 -0.37152806 -0.26767254 0
0.68144798 -0.32980788 -0.23581982 0
0.74425125 -0.27982181 -0.27561998 0
0.7905159 -0.20382202 -0.28538799 0
0.83749294 -0.24370286 -0.25739861 0
0.92199802 -0.17368172 -0.3001442 0
0.87719631 -0.15236132 -0.28091335 0
0.98474216 -0.084615946 -0.33279943 0
0.68520451 -0.44816875 -0.19439793 0
0.70512676 -0.36687696 -0.19086027 0
0.78506756 -0.35519451 -0.180902 0
0.86047554 -0.34225631 -0.19883156 0
0.87322521 -0.2382309 -0.22223616 0
0.96586895 -0.27532101 -0.21400547 0
0.96000385 -0.17299512 -0.24808359 0
0.72080421 -0.46771032 -0.13844585 0
0.80868435 -0.48466241 -0.12479019 0
0.88507366 -0.43904728 -0.14632797 0
0.90632248 -0.32680371 -0.1794982 0
0.98635197 -0.39026892 -0.17638445 0
0.99810314 -0.27861845 0.0089173317 0
0.85245705 -0.45649892 0.12983465 0
0.86227798 -0.49115625 0.20386934 0
0.78900719 -0.45924053 0.28096199 0
0.96035862 -0.35120288 0.144526 0
0.90353203 -0.49033841 0.44897079 0
0.95910835 -0.38549966 0.44700003 0
-0.83742332 -0.093379647 -0.23636198 0
-0.91940212 -0.041319311 -0.19781876 0
-0.81419277 -0.027270854 -0.23254871 0
-0.70724297 -0.035435736 -0.26577234 0
-0.59176064 -0.0053190589 -0.31410742 0
-0.50316906 0.032483727 -0.35211945 0
-0.44859791 -0.0041781366 -0.37027645 0
-0.34017372 0.0091127455 -0.40894794 0
-0.28448486 0.017961919 -0.4216032 0
-0.8295517 0.041964829 -0.2211051 0
-0.72959518 0.072104216 -0.25592852 0
-0.61271954 0.079123527 -0.30195475 0
-0.54867649 0.087263405 -0.32527924 0
-0.42406559 0.080202997 -0.37240601 0
-0.32544613 0.10724127 -0.39581871 0
-0.24770832 0.080556244 -0.41173029 0
-0.70278454 0.17372376 -0.24128008 0
-0.59591293 0.17618367 -0.28148079 0
-0.50725651 0.16705564 -0.31582546 0
-0.42621231 0.15569991 -0.34856081 0
-0.31155872 0.17280009 -0.38095808 0
-0.23120022 0.17669746 -0.39006472 0
-0.16867542 0.19192752 -0.39343166 0
-0.68939495 0.26188996 -0.21943235 0
-0.61769199 0.28998435 -0.24033976 0
-0.52142239 0.27588296 -0.27776289 0
-0.43144989 0.27335238 -0.31280279 0
-0.30305767 0.28298172 -0.35377789 0
-0.21980286 0.27860799 -0.36582279 0
-0.14784813 0.30208531 -0.36570311 0
-0.6672821 0.36373147 -0.19572258 0
-0.61407185 0.3956095 -0.20689154 0
-0.50287819 0.36987248 -0.25611258 0
-0.39974785 0.37493926 -0.28995132 0
-0.23265839 0.37793112 -0.33719206 0
-0.1332922 0.37832737 -0.34979153 0
-0.022956848 0.36860469 -0.37804794 0
0.046323776 0.39847195 -0.39310837 0
-0.60317612 0.47099453 -0.18664837 0
-0.52184391 0.49541658 -0.20976591 0
-0.41364765 0.47967452 -0.25246429 0
-0.3337183 0.46182218 -0.28942871 0
-0.22040939 0.48184967 -0.31519175 0
-0.097870827 0.46269032 -0.34617805 0
0.077179909 0.4816342 -0.38896656 0
0.18778229 0.47858962 -0.42057037 0
-0.90307426 -0.43379855 -0.25001049 0
-0.82471371 -0.41157308 -0.26853704 0
-0.91583824 -0.32912418 -0.23496342 0
-0.81861973 -0.34310848 -0.26632786 0
-0.71666527 -0.33364624 -0.28869438 0
-0.88955402 -0.22247341 -0.23038578 0
-0.82020855 -0.24209112 -0.25602484 0
-0.71132374 -0.25383079 -0.28084755 0
-0.61771584 -0.23754457 -0.30031109 0
-0.52561665 -0.22680484 -0.32718229 0
-0.44300652 -0.22971107 -0.35960531 0
-0.33449745 -0.1955024 -0.40142298 0
-0.26780319 -0.20094353 -0.4043355 0
-0.9711237 -0.16227405 -0.18823719 0
-0.93968296 -0.13074292 -0.1993289 0
-0.80648804 -0.14473519 -0.24731684 0
-0.70756149 -0.1428047 -0.27098036 0
-0.61071491 -0.1395852 -0.29697609 0
-0.56986713 -0.11520973 -0.3149972 0
-0.45998001 -0.13580261 -0.35921669 0
-0.31895447 -0.10947686 -0.40438414 0
-0.2106781 -0.12597314 -0.40410709 0
-0.12669182 -0.093286514 -0.42125559 0
-0.73724461 -0.061690331 -0.25318193 0
-0.6182518 -0.059201181 -0.2981925 0
-0.4348011 -0.06470421 -0.37341404 0
-0.2920723 -0.040353566 -0.40472698 0
-0.23817253 -0.034185052 -0.4058814 0
-0.12116528 -0.02279228 -0.43755627 0
-0.033284187 -0.037623346 -0.45029211 0
0.068983078 0.0046003461 -0.46575832 0
-0.14692974 0.076225311 -0.42358255 0
-0.0065078735 0.025897533 -0.45392466 0
0.088721275 0.065407038 -0.45030403 0
-0.10686874 0.16726291 -0.40485859 0
-0.026226997 0.16364396 -0.41361666 0
0.039134979 0.15439668 -0.42271662 0
0.15484524 0.16124016 -0.4328413 0
-0.03762722 0.26867175 -0.39031506 0
0.074407578 0.25409931 -0.41572952 0
0.15631104 0.26337719 -0.41350174 0
0.28532219 0.25816223 -0.4740324 0
0.35226727 0.2832008 -0.46365118 0
0.10540104 0.33279306 -0.4150548 0
0.16569901 0.38140431 -0.42367172 0
0.26628971 0.37050575 -0.44241858 0
0.35818863 0.33644772 -0.46068096 0
0.4414444 0.3418965 -0.47004747 0
0.54286861 0.35697961 -0.4892354 0
0.29353428 0.43787441 -0.44605637 0
0.41229916 0.45305988 -0.46602821 0
0.50520229 0.45009232 -0.48370123 0
0.59237099 0.49480468 -0.49907017 0
0.64387512 0.40674001 -0.51707077 0
-0.99069881 -0.48728356 -0.22233343 0
-0.87819576 -0.47918802 -0.25217915 0
-0.8214283 -0.47022915 -0.26111841 0
-0.73138237 -0.4381322 -0.28790331 0
-0.62561607 -0.45874935 -0.31158876 0
-0.52774525 -0.45415196 -0.33704424 0
-0.42469883 -0.47721085 -0.36244822 0
-0.31647396 -0.43736508 -0.3834753 0
-0.70430183 -0.37795663 -0.29053307 0
-0.60389996 -0.33753538 -0.31242943 0
-0.53292084 -0.36226586 -0.33057451 0
-0.42081928 -0.37174556 -0.36496067 0
-0.33257198 -0.34748894 -0.38312531 0
-0.24874592 -0.37012807 -0.3882947 0
-0.52143669 -0.28860444 -0.32343435 0
-0.31067753 -0.27068326 -0.39320374 0
-0.21575928 -0.26972613 -0.39514494 0
-0.12542629 -0.2503452 -0.40050554 0
-0.021689415 -0.23987538 -0.41541862 0
-0.2414875 -0.17137934 -0.39322519 0
-0.11077499 -0.16418944 -0.4111681 0
-0.021629333 -0.13424629 -0.42513323 0
0.05859375 -0.13886312 -0.43029451 0
0.17843723 -0.12640557 -0.45630932 0
0.089513779 -0.071676135 -0.45077896 0
0.21488762 -0.046331644 -0.48507023 0
0.26144505 -0.054665506 -0.45982695 0
0.20373058 0.047147483 -0.43729639 0
0.32972717 0.032551438 -0.43606997 0
0.48913002 0.049209744 -0.48601246 0
0.19576168 0.13408095 -0.39799786 0
0.28814888 0.099418253 -0.40304899 0
0.5337944 0.14305031 -0.49175835 0
0.56877899 0.11308032 -0.49188232 0
0.19731617 0.19465616 -0.37201977 0
0.49352169 0.22238061 -0.4783802 0
0.57265282 0.22718686 -0.4866581 0
0.69212055 0.22503647 -0.51119518 0
0.78292274 0.25681442 -0.52080679 0
0.46469307 0.29660508 -0.47128248 0
0.54970264 0.2996738 -0.48364782 0
0.64844894 0.33791566 -0.50329304 0
0.76752663 0.32157737 -0.52974415 0
0.85739326 0.32960257 -0.53664303 0
0.73041153 0.43774679 -0.5244689 0
0.87755966 0.44488773 -0.54133844 0
0.97829914 0.39946112 -0.54646683 0
-0.31577206 -0.49247247 -0.36515856 0
-0.19828987 -0.47077402 -0.37332916 0
-0.097746849 -0.48677161 -0.38220119 0
-0.033474922 -0.46991828 -0.39783812 0
-0.23739815 -0.38441694 -0.37554646 0
-0.12737656 -0.36736739 -0.38571358 0
-0.013180733 -0.4027909 -0.38944626 0
0.077012062 -0.37019551 -0.40174961 0
-0.059877396 -0.29612556 -0.38636494 0
-0.014205933 -0.29741418 -0.38368654 0
0.093095779 -0.28003436 -0.41953421 0
0.20983791 -0.27671298 -0.42754984 0
0.19277763 -0.19600105 -0.44291878 0
0.29511356 -0.17682076 -0.44978714 0
0.40075302 -0.15993202 -0.44891596 0
0.3553009 -0.065945953 -0.46879053 0
0.47184944 -0.10255468 -0.47989607 0
0.58176517 -0.072771847 -0.49004984 0
0.41674423 -0.025936693 -0.47307968 0
0.53048801 -0.018392384 -0.49875307 0
0.60422325 0.0085282028 -0.48762608 0
0.6835947 -0.0071806908 -0.48565578 0
0.63642025 0.085715264 -0.48626232 0
0.69632053 0.10299581 -0.48763418 0
0.77616024 0.13584429 -0.49370909 0
0.84131622 0.23642418 -0.51519108 0
0.8909111 0.22006238 -0.48606253 0
0.93259335 0.27894065 -0.49531317 0
0.99400902 0.31987244 -0.49642086 0
0.97140503 0.34822366 -0.44808388 0
0.99869156 0.4043875 -0.48410892 0
0.17983055 -0.49868864 -0.38751984 0
0.115798 -0.41967589 -0.40052032 0
0.21014309 -0.41220108 -0.39099264 0
0.20889854 -0.31114364 -0.39376545 0
0.31345749 -0.32097441 -0.41003752 0
0.41929054 -0.32523289 -0.43174744 0
0.35398293 -0.20503709 -0.41970396 0
0.43552494 -0.20991655 -0.43488264 0
0.52582741 -0.21673524 -0.42261505 0
0.61741352 -0.11261356 -0.47319269 0
0.72657871 -0.11577991 -0.48323059 0
0.73222351 -0.013552487 -0.45928478 0
0.7887373 -0.037974268 -0.44549751 0
0.73251629 0.049629152 -0.45048761 0
0.81708717 0.075489461 -0.444067 0
0.93607712 0.10691929 -0.46396923 0
0.95718002 0.18430793 -0.44577265 0
0.96136761 0.2775996 -0.43599653 0
0.21264935 -0.44333705 -0.35338497 0
0.37108612 -0.4687717 -0.37503958 0
0.4214592 -0.43558323 -0.38425732 0
0.46942329 -0.36993551 -0.35806322 0
0.49224567 -0.34144002 -0.3923111 0
0.56739616 -0.25367737 -0.35723543 0
0.76802254 -0.17578182 -0.40921545 0
0.82476521 -0.11119053 -0.44526768 0
0.79140377 -0.086910456 -0.39345026 0
0.8563261 -0.055758506 -0.40391684 0
0.91814423 -0.054118723 -0.38818455 0
0.85956001 0.047961682 -0.40376854 0
0.9773941 0.031030953 -0.40132427 0
0.95167255 0.1071445 -0.41614008 0
0.49274254 -0.47295892 -0.30150938 0
0.52121544 -0.4301284 -0.33405495 0
0.5113039 -0.4236179 -0.29840517 0
0.55859661 -0.37709063 -0.29617977 0
0.61124706 -0.3043699 -0.28773069 0
0.65534019 -0.26919246 -0.28801346 0
0.77708626 -0.20539454 -0.31394339 0
0.85844707 -0.1480355 -0.32130575 0
0.96111774 -0.08153969 -0.33755255 0
0.66990089 -0.49410057 -0.2430315 0
0.61717701 -0.41911626 -0.22849607 0
0.65109062 -0.34496853 -0.21515131 0
0.72854233 -0.29916325 -0.20612717 0
0.70961189 -0.2563929 -0.24248028 0
0.81768513 -0.23800325 -0.23252869 0
0.99108696 -0.19513988 -0.25895262 0
0.91691399 -0.15340418 -0.27656317 0
0.72227287 -0.43317154 -0.16751909 0
0.83407593 -0.42842337 -0.16319942 0
0.74607182 -0.3582384 -0.16244793 0
0.86844826 -0.34175614 -0.18033743 0
0.98259163 -0.38314706 -0.19352531 0
0.94850922 -0.26376837 -0.19809628 0
0.83289146 -0.48247463 -0.11883068 0
0.94883823 -0.46354166 -0.14604425 0
0.90765095 -0.41632691 0.068789482 0
0.99718857 -0.28562528 0.025543213 0
0.93718624 -0.4788965 0.073816776 0
0.90852261 -0.42683226 0.13495827 0
0.72180462 -0.47399357 0.30323935 0
0.81010151 -0.43144754 0.26796007 0
0.85635281 -0.45103019 0.20966244 0
0.94528103 -0.46242955 0.44344521 0
0.98818874 -0.37299579 0.4335804 0
-0.92484283 -0.34879911 -0.023228168 0
-0.83952522 -0.33064103 -0.047676086 0
-0.91801739 -0.23077857 -0.0066351891 0
-0.82032299 -0.23931071 -0.039194584 0
-0.92281437 -0.1473286 0.0057339668 0
-0.80694866 -0.16420938 -0.034599781 0
-0.72944736 -0.14738815 -0.045009136 0
-0.58363533 -0.11914809 -0.073313236 0
-0.48295689 -0.12121455 -0.10495377 0
-0.3430748 -0.13566369 -0.15270519 0
-0.99489689 -0.050702512 0.044237137 0
-0.89539623 -0.058537781 0.0078792572 0
-0.81532001 -0.053161472 -0.019102097 0
-0.70539761 -0.052699417 -0.043187618 0
-0.64747143 -0.057839006 -0.053812027 0
-0.52125835 -0.085081011 -0.096821308 0
-0.4316473 -0.071014822 -0.12330294 0
-0.32401562 -0.054862708 -0.15236187 0
-0.25868511 -0.047185928 -0.17201376 0
-0.13686466 -0.013579845 -0.17703867 0
-0.91034698 0.037066489 0.025807381 0
-0.83110428 0.052294999 -0.0015983582 0
-0.73874378 0.041669846 -0.030246735 0
-0.63101006 0.035490572 -0.061038971 0
-0.52449608 0.035872251 -0.094146729 0
-0.42129898 0.05253768 -0.12561655 0
-0.30996609 0.049656689 -0.15870237 0
-0.21634007 0.038318157 -0.16980219 0
-0.1122179 0.023865342 -0.17860794 0
-0.89941311 0.15668303 0.050210476 0
-0.81447411 0.10071355 0.0059609413 0
-0.70778275 0.12849966 -0.021847248 0
-0.64657497 0.15614498 -0.029219151 0
-0.54826832 0.14419532 -0.062252998 0
-0.43280125 0.11987731 -0.10182095 0
-0.3430109 0.15354067 -0.11919212 0
-0.21218681 0.13299841 -0.1468811 0
-0.12055206 0.11358938 -0.15461826 0
-0.98052311 0.21563256 0.10112953 0
-0.88170528 0.24939707 0.074087143 0
-0.76018524 0.23022488 0.025138378 0
-0.66867161 0.241054 0.0020771027 0
-0.56650925 0.2300607 -0.031030178 0
-0.48003197 0.2345441 -0.05801487 0
-0.31326389 0.24959108 -0.096056461 0
-0.22378254 0.19732237 -0.13028193 0
-0.1410532 0.22366273 -0.12705994 0
-0.99206829 0.30920225 0.13710546 0
-0.90632057 0.33391798 0.11562967 0
-0.81610203 0.35187861 0.082371235 0
-0.70105076 0.34999427 0.043359756 0
-0.58829689 0.32737303 0.0053253174 0
-0.50641918 0.34147832 -0.017555237 0
-0.38438511 0.32589334 -0.052507877 0
-0.28536224 0.32929888 -0.078134537 0
-0.19906616 0.32508454 -0.098454952 0
-0.12941647 0.32366553 -0.1011529 0
-0.97107124 0.44251728 0.16869974 0
-0.86152077 0.45125589 0.13359547 0
-0.75836563 0.42648467 0.090417862 0
-0.64087677 0.43639341 0.048857689 0
-0.52785206 0.42036954 0.013923645 0
-0.4188633 0.42097396 -0.013999939 0
-0.32401848 0.4253113 -0.038884163 0
-0.20316029 0.45088547 -0.062587738 0
-0.12133789 0.38830799 -0.086992741 0
-0.87594795 0.4796645 0.14901066 0
-0.91533947 -0.47160694 -0.04001236 0
-0.82270527 -0.45047039 -0.056065559 0
-0.716856 -0.45626619 -0.073309898 0
-0.62422562 -0.45897397 -0.084715366 0
-0.5323019 -0.46209851 -0.10229349 0
-0.42442894 -0.46851894 -0.12143946 0
-0.31155109 -0.48383784 -0.14457846 0
-0.24929142 -0.43023556 -0.13698244 0
-0.90349197 -0.38904771 -0.036102295 0
-0.81646156 -0.35832566 -0.051982403 0
-0.72355938 -0.35490382 -0.066848278 0
-0.61512089 -0.34929222 -0.081932545 0
-0.50496101 -0.37769824 -0.10419035 0
-0.42576313 -0.35872421 -0.11581087 0
-0.31662178 -0.36091995 -0.13832378 0
-0.21396542 -0.36810026 -0.14831448 0
-0.77239799 -0.29460186 -0.052239418 0
-0.7083168 -0.26196635 -0.058590412 0
-0.62874889 -0.28046849 -0.072706699 0
-0.53683662 -0.25943229 -0.086218834 0
-0.43285751 -0.26427197 -0.11354637 0
-0.31925201 -0.2522347 -0.1524539 0
-0.22768974 -0.25247109 -0.15266514 0
-0.12835693 -0.26741844 -0.14871264 0
-0.63257599 -0.17777617 -0.064519405 0
-0.5144186 -0.18844514 -0.091368198 0
-0.42486858 -0.16015837 -0.1215868 0
-0.30512142 -0.15237853 -0.15789175 0
-0.22720337 -0.15493061 -0.15574074 0
-0.12786293 -0.15240183 -0.16132879 0
-0.040585518 -0.16441356 -0.15228081 0
-0.12214375 -0.08176282 -0.16771889 0
-0.015183449 -0.062844425 -0.17522669 0
0.09523201 -0.062958777 -0.18927431 0
0.16951561 -0.066508502 -0.19216204 0
-0.011971474 0.025404215 -0.18119717 0
0.089179993 0.028746188 -0.18212318 0
0.20152378 -0.0042283833 -0.19273853 0
0.25034809 0.011832893 -0.1911025 0
-0.032624245 0.12579501 -0.15231895 0
0.091259003 0.11161599 -0.16183138 0
0.18970966 0.11406469 -0.15989637 0
-0.075134277 0.23592392 -0.12215996 0
0.009431839 0.22482121 -0.13058567 0
0.096581459 0.2294296 -0.13841677 0
0.2270155 0.21349323 -0.15679789 0
-0.080877304 0.35960236 -0.090765953 0
-0.0037031174 0.31662253 -0.11279488 0
0.10911274 0.3310838 -0.12623501 0
0.18405914 0.3278248 -0.14766502 0
0.3001318 0.28484717 -0.16829538 0
0.3990736 0.31298217 -0.16953373 0
-0.0094547272 0.42255625 -0.095898628 0
0.20599651 0.39386019 -0.14374352 0
0.27684879 0.42351082 -0.147645 0
0.36143208 0.40116632 -0.15750742 0
0.45761108 0.41923934 -0.16467762 0
0.51358032 0.49136269 -0.17309237 0
-0.27633858 -0.49296948 -0.13776207 0
-0.20101357 -0.4863531 -0.13140202 0
-0.033839226 -0.47539687 -0.12354374 0
-0.17476559 -0.38641116 -0.13173771 0
-0.098430634 -0.3870745 -0.13998318 0
0.0036582947 -0.40690854 -0.12807322 0
0.096669197 -0.3692371 -0.13287544 0
0.15731907 -0.34559056 -0.13750029 0
-0.096949577 -0.26760817 -0.13696289 0
-0.015049934 -0.29590794 -0.13718748 0
0.084288597 -0.25404266 -0.13895082 0
0.20739746 -0.27610549 -0.14594078 0
0.035521507 -0.18742009 -0.14758873 0
0.12403107 -0.16948824 -0.17541647 0
0.17644882 -0.18711114 -0.16635323 0
0.30265427 -0.1965611 -0.16525936 0
0.38392353 -0.1780082 -0.15946817 0
0.29048252 -0.069455475 -0.18223572 0
0.4028759 -0.079452395 -0.16994238 0
0.51969814 -0.074879557 -0.18694735 0
0.27003956 0.030363947 -0.15088463 0
0.36635113 0.0078834295 -0.14304113 0
0.58880329 -0.016821712 -0.20150566 0
0.6697607 -0.0027992725 -0.19787312 0
0.29194832 0.095224857 -0.12251854 0
0.59698963 0.10737419 -0.18090582 0
0.68763256 0.069750577 -0.18897486 0
0.2451725 0.2034069 -0.098352909 0
0.30929565 0.16638142 -0.076996326 0
0.68999386 0.18553084 -0.18441772 0
0.78449917 0.22231054 -0.19689941 0
0.5172205 0.30920106 -0.17391539 0
0.60125065 0.26699936 -0.181252 0
0.71332264 0.28144959 -0.1897707 0
0.78724003 0.34225759 -0.20423937 0
0.85638237 0.29640296 -0.20854282 0
0.62302494 0.37653267 -0.18594122 0
0.68999577 0.44193062 -0.18627119 0
0.90332127 0.37133625 -0.21153355 0
0.98671913 0.40029624 -0.21531391 0
0.80248642 0.47014618 -0.2041626 0
0.90475273 0.49183637 -0.21833611 0
0.013442993 -0.48199591 -0.11537504 0
0.12072754 -0.49625537 -0.11756945 0
0.20240498 -0.49854007 -0.11404085 0
0.26724339 -0.48353311 -0.10216141 0
0.14457703 -0.37052691 -0.1129365 0
0.24172211 -0.37922481 -0.13390446 0
0.32565594 -0.4240903 -0.11074162 0
0.4183445 -0.38283896 -0.11816597 0
0.31556988 -0.32444417 -0.13441372 0
0.42864132 -0.30776808 -0.12362671 0
0.52257156 -0.27052048 -0.12957811 0
0.42299175 -0.24193689 -0.14071512 0
0.49657726 -0.18529849 -0.15552616 0
0.59222221 -0.19553514 -0.14198446 0
0.52998352 -0.099464417 -0.17267561 0
0.63119507 -0.085005045 -0.18766642 0
0.72208786 -0.090986282 -0.17842722 0
0.7970953 -0.11606836 -0.16163254 0
0.72397232 -9.3698502e-05 -0.16376543 0
0.78782463 0.00048923492 -0.13175249 0
0.73545074 0.070367247 -0.15345144 0
0.85127068 0.058394641 -0.13920069 0
0.89223194 0.12753731 -0.17817163 0
0.85203171 0.15029275 -0.20099545 0
0.90981102 0.17924875 -0.17733574 0
0.98615837 0.20256463 -0.17773294 0
0.94685841 0.28593588 -0.20559883 0
0.45231056 -0.42128405 -0.10495472 0
0.52052784 -0.43788749 -0.081771851 0
0.55120373 -0.33495224 -0.1035881 0
0.60335445 -0.32039025 -0.082926273 0
0.60299683 -0.24863337 -0.096928596 0
0.78029346 -0.22341536 -0.12487125 0
0.86094379 -0.15021324 -0.1256547 0
0.91689873 -0.10446632 -0.10552931 0
0.82845402 0.0038328767 -0.11159039 0
0.91676426 -0.026159227 -0.088271618 0
0.92077541 0.049887568 -0.13083315 0
0.56777096 -0.448612 -0.0045900345 0
0.64787769 -0.34021214 -0.011638165 0
0.78717232 -0.23388644 -0.053182125 0
0.81589794 -0.24385335 -0.010488033 0
0.86973667 -0.16113053 -0.0095829964 0
0.95237637 -0.11566019 -0.0426507 0
0.98336124 -0.033617705 -0.054330349 0
0.59822559 -0.49697453 0.037292004 0
0.6539793 -0.4611693 0.064894199 0
0.70041752 -0.37858331 0.062551022 0
0.75242424 -0.33599228 0.084077835 0
0.82261372 -0.25721151 0.079247952 0
0.8354578 -0.26153052 0.019004345 0
0.95559978 -0.20556277 0.052702427 0
0.7212553 -0.48673326 0.10915041 0
0.7598629 -0.47536311 0.15696955 0
0.7254324 -0.39266017 0.1299572 0
0.8154335 -0.38429657 0.14456892 0
0.95585823 -0.37851155 0.14637947 0
0.94395447 -0.27428311 0.095220089 0
0.9880724 -0.29235029 0.11724377 0
0.92584133 -0.43071234 0.17947388 0
0.91078472 -0.4856993 0.42905331 0
0.97881985 -0.45716637 0.42198133 0
0.89269161 -0.498227 0.5187006 0
0.98916435 -0.40557587 0.76556253 0
0.52660942 0.01681295 -0.49680185 0
0.54686546 0.083996296 -0.49125195 0
0.52839947 0.1866892 -0.48094368 0
0.73810387 0.21397549 -0.51276922 0
0.509408 0.30185241 -0.47015905 0
0.62372971 0.26893204 -0.48986387 0
0.82789326 0.30338001 -0.51808214 0
0.55185223 0.39061502 -0.47615051 0
0.69839382 0.36616558 -0.50695705 0
0.8388195 0.36869067 -0.5299387 0
0.92655087 0.35253319 -0.52949858 0
0.64480019 0.48790538 -0.50171518 0
0.76691437 0.45473048 -0.52312565 0
0.8704834 0.43703869 -0.53166628 0
0.96833706 0.44743857 -0.53171253 0
0.98988533 0.45896325 -0.49589396 0
0.048906326 -0.40051219 -0.39478016 0
0.10992146 -0.32021159 -0.40580893 0
0.22531509 -0.30191296 -0.4200573 0
0.23264694 -0.23215333 -0.42643929 0
0.3295002 -0.26567972 -0.42200422 0
0.24705887 -0.16315739 -0.43980694 0
0.31825829 -0.12725714 -0.42890024 0
0.43187332 -0.12958965 -0.44009113 0
0.51284885 -0.13040632 -0.44091558 0
0.35660172 -0.03417179 -0.46675444 0
0.40810776 -0.0059172809 -0.46410322 0
0.51702309 -0.061427832 -0.46825314 0
0.63040257 -0.081957847 -0.48384762 0
0.72137928 -0.050675213 -0.47885084 0
0.36274052 0.063069254 -0.44108295 0
0.58948421 0.056047916 -0.47851467 0
0.73046494 0.046359479 -0.45295572 0
0.30933571 0.1514968 -0.3978653 0
0.65571213 0.13295791 -0.4689393 0
0.74777889 0.14556682 -0.44865656 0
0.82225704 0.14459604 -0.43837547 0
0.74224091 0.21642593 -0.47412109 0
0.93403244 0.25032407 -0.45723152 0
0.9327383 0.36714086 -0.47420692 0
-0.027065277 -0.4182975 -0.37048864 0
0.059837341 -0.46145654 -0.38071775 0
0.10956287 -0.44079831 -0.38093472 0
0.21052361 -0.43045217 -0.380229 0
0.34637928 -0.45054486 -0.38177776 0
0.13697052 -0.33754 -0.389359 0
0.22949505 -0.3439101 -0.39367533 0
0.36347961 -0.36976254 -0.40552378 0
0.42140198 -0.34190017 -0.38320208 0
0.42177296 -0.23942652 -0.41019535 0
0.50854492 -0.27851433 -0.37085199 0
0.54665852 -0.17299032 -0.39325523 0
0.59678841 -0.15211645 -0.35974264 0
0.71524715 -0.1701194 -0.37429857 0
0.77116394 -0.078716874 -0.42174006 0
0.81716251 -0.05990085 -0.41457415 0
0.84869862 0.03229472 -0.39023304 0
0.95577145 0.052623481 -0.3885355 0
0.92921638 0.12466982 -0.42320442 0
0.96865082 0.20685333 -0.40104103 0
0.38079262 -0.45687258 -0.34132957 0
0.45271111 -0.46096992 -0.32058954 0
0.53699017 -0.46379927 -0.3024683 0
0.46313953 -0.37613142 -0.34167433 0
0.54517651 -0.36387426 -0.28868437 0
0.57289314 -0.30274799 -0.30432272 0
0.62007523 -0.24746619 -0.30892563 0
0.61061096 -0.22359109 -0.30447388 0
0.76455593 -0.17884992 -0.31443119 0
0.82246494 -0.097067684 -0.32133532 0
0.9479332 -0.042482495 -0.33644962 0
0.59080887 -0.48845893 -0.26592445 0
0.64690971 -0.48944429 -0.23529816 0
0.55070019 -0.36609486 -0.23326874 0
0.66771889 -0.39367113 -0.22981119 0
0.6029253 -0.30818096 -0.23820829 0
0.66966438 -0.28057325 -0.21812153 0
0.76558781 -0.21373802 -0.21495152 0
0.91761971 -0.23036675 -0.21860504 0
0.89045525 -0.12648079 -0.26851177 0
0.96002293 -0.113482 -0.25533628 0
0.7056284 -0.40773243 -0.16284895 0
0.77919292 -0.45360672 -0.13800335 0
0.87149429 -0.3915953 -0.15571356 0
0.72023487 -0.34289083 -0.17212534 0
0.76897144 -0.3308067 -0.16590357 0
0.85665417 -0.28319877 -0.16787291 0
0.9689846 -0.33582926 -0.16019249 0
0.97890663 -0.23668849 -0.20079374 0
0.86157894 -0.44490665 -0.12916231 0
0.96496201 -0.44575915 -0.12242413 0
0.93523693 -0.40776178 0.060736179 0
0.9868145 -0.19377688 0.0152812 0
0.85940552 -0.3875322 0.12879419 0
0.92669487 -0.43774492 0.13830233 0
0.96916962 -0.28838623 0.11995888 0
0.80892181 -0.49492592 0.2729044 0
