# .PCD v0.7 - Point Cloud Data file format
VERSION 0.7
FIELDS x y z intensity
SIZE 4 4 4 4
TYPE F F F F
COUNT 1 1 1 1
WIDTH 1298
HEIGHT 1
VIEWPOINT 0 0 0 1 0 0 0
POINTS 1298
DATA ascii
0.97135448 -0.13241595 -0.40967295 0
0.57129383 -0.018717408 -0.40867323 0
0.63855648 -0.0096849203 -0.41598278 0
0.75099277 -0.025616407 -0.41532323 0
0.87452412 -0.022744834 -0.4204796 0
0.97717571 -0.023756385 -0.42105734 0
0.59451866 0.078558505 -0.42477375 0
0.67957878 0.043329895 -0.42378339 0
0.78170681 0.079357028 -0.43338388 0
0.88305092 0.0900442 -0.43800354 0
0.5914669 0.13123101 -0.43479386 0
0.69168282 0.16640639 -0.44342825 0
0.8038168 0.15173489 -0.44314638 0
0.87338829 0.16466284 -0.44484362 0
0.98080826 0.17147881 -0.44764656 0
0.60476494 0.31131291 -0.46160746 0
0.68247223 0.2996974 -0.46072239 0
0.76355934 0.2626071 -0.45717913 0
0.88900661 0.27372575 -0.45808178 0
0.99278069 0.24465156 -0.45602062 0
0.52121258 0.36139154 -0.47234884 0
0.58242702 0.38196033 -0.47839707 0
0.69307423 0.37688315 -0.47872636 0
0.76417923 0.37269211 -0.47854826 0
0.88186646 0.37480915 -0.48090249 0
0.52333927 0.46665084 -0.49777934 0
0.6017437 0.45357043 -0.49637163 0
0.69043064 0.47102654 -0.50279748 0
0.78390694 0.4493227 -0.49869996 0
0.89007664 0.4739396 -0.50655848 0
0.30103302 0.20455217 -0.37658492 0
0.37735367 0.20085472 -0.36036652 0
0.28403378 0.27025294 -0.3779785 0
0.84632397 -0.41768259 -0.35808915 0
0.87126827 -0.44574809 -0.35126069 0
0.87946224 -0.34095871 -0.3687917 0
0.99394894 -0.21295154 -0.39791667 0
0.48993015 -0.43259817 -0.34617698 0
0.60416508 -0.43473983 -0.34736115 0
0.66782475 -0.42684782 -0.34704155 0
0.7540884 -0.4486773 -0.34647477 0
0.4841671 -0.31051213 -0.36191714 0
0.56204319 -0.32861507 -0.36097747 0
0.67845249 -0.34265983 -0.36198461 0
0.77839661 -0.33938652 -0.36321098 0
0.49832344 -0.22225863 -0.37214673 0
0.56328869 -0.22316575 -0.37477341 0
0.65993786 -0.24117595 -0.37575418 0
0.77635098 -0.23349756 -0.38104671 0
0.87982845 -0.25078285 -0.38377333 0
0.48857403 -0.12928569 -0.38687167 0
0.57198906 -0.12317258 -0.38922542 0
0.66441154 -0.131679 -0.39311725 0
0.78034115 -0.13737875 -0.39606735 0
0.87848568 -0.14846617 -0.40021065 0
0.48396778 -0.023013294 -0.40471944 0
0.55779934 -0.026923358 -0.40540162 0
0.68466854 -0.043291271 -0.40467733 0
0.77400303 -0.04050833 -0.41132605 0
0.88150406 -0.035081744 -0.41659072 0
0.98155212 -0.035692096 -0.41829297 0
0.49171257 0.073784649 -0.4219507 0
0.58806419 0.068338633 -0.42162588 0
0.69092369 0.093984962 -0.43136719 0
0.80784798 0.062036574 -0.42798743 0
0.86180878 0.046676397 -0.42778176 0
0.957201 0.064852417 -0.43014169 0
0.3024292 0.16640478 -0.37792972 0
0.54168034 0.13746846 -0.43232843 0
0.60882473 0.15817791 -0.4410505 0
0.74994946 0.11567616 -0.43578637 0
0.80271435 0.15112472 -0.44060627 0
0.92460155 0.17194939 -0.44300979 0
0.2565136 0.27611476 -0.39653671 0
0.2662735 0.24510795 -0.39244786 0
0.70349789 0.29566216 -0.45704377 0
0.79611111 0.24853605 -0.45264581 0
0.88902473 0.27551264 -0.45574427 0
0.44259071 0.3715319 -0.47172236 0
0.5304718 0.35732937 -0.46892881 0
0.61202526 0.36680645 -0.47280908 0
0.70963192 0.37345207 -0.47592241 0
0.78577805 0.36555302 -0.4750905 0
0.91340065 0.340702 -0.47026804 0
0.9978857 0.37366736 -0.48029459 0
0.44973469 0.4632827 -0.49331555 0
0.52225113 0.45475799 -0.49283302 0
0.644104 0.44072455 -0.49197602 0
0.6986618 0.48617607 -0.50502753 0
0.79680061 0.46675611 -0.50132072 0
0.90788937 0.46274567 -0.50185096 0
0.32138824 0.20521671 -0.36997318 0
0.37646389 0.1891762 -0.35786211 0
0.29581642 0.26033664 -0.3749117 0
0.3810482 0.24282157 -0.36443231 0
0.99949837 -0.33480901 -0.37580663 0
0.24815273 -0.48875946 -0.33795655 0
0.24880791 -0.37424433 -0.35434455 0
0.3135252 -0.4222641 -0.3449927 0
0.39688587 -0.40181327 -0.3476671 0
0.50182343 -0.4105072 -0.34592891 0
0.61975479 -0.41278249 -0.34711573 0
0.71216679 -0.42359322 -0.34943762 0
0.84609318 -0.43639868 -0.35236472 0
0.31828117 -0.32556868 -0.35789567 0
0.42971325 -0.31037974 -0.35785979 0
0.50885582 -0.32349735 -0.35736576 0
0.62262917 -0.31742811 -0.35894454 0
0.71170998 -0.31430322 -0.36638618 0
0.85108471 -0.37156671 -0.36292621 0
0.88914871 -0.33939898 -0.36500502 0
0.31830406 -0.22216707 -0.37161848 0
0.45308399 -0.24268067 -0.36704478 0
0.51020908 -0.2152797 -0.37097266 0
0.61504936 -0.21627855 -0.37378335 0
0.7325325 -0.22584134 -0.37888691 0
0.87451077 -0.23311794 -0.38321099 0
0.26473999 -0.13472736 -0.38465637 0
0.32768631 -0.10200197 -0.3883217 0
0.44557762 -0.14552873 -0.38091946 0
0.51128387 -0.12584096 -0.38335156 0
0.60301304 -0.11505014 -0.39053768 0
0.73288155 -0.1432243 -0.39169788 0
0.85667229 -0.15274328 -0.39722267 0
0.87176609 -0.12926036 -0.39923227 0
0.27052402 -0.011113405 -0.40384933 0
0.34889984 -0.017177999 -0.40304711 0
0.43713284 -0.018799305 -0.40216517 0
0.5290041 -0.035792053 -0.39876485 0
0.6046772 -0.00021076202 -0.40723044 0
0.71195412 -0.050565898 -0.40744281 0
0.84573936 -0.024891913 -0.41688108 0
0.96038818 -0.011140585 -0.42052144 0
0.25879288 0.092588723 -0.41476268 0
0.32225037 0.086135089 -0.39480358 0
0.40206146 0.081620634 -0.42116693 0
0.494977 0.084291995 -0.42071617 0
0.57987595 0.090334415 -0.42226514 0
0.7051239 0.067628026 -0.42456001 0
0.82382107 0.084611416 -0.4320043 0
0.94176006 0.073191345 -0.42950767 0
0.23231602 0.1857605 -0.41440326 0
0.29445553 0.15983534 -0.38473156 0
0.6935215 0.14407802 -0.43576494 0
0.82141876 0.14750969 -0.43633029 0
0.91105938 0.14923137 -0.43967247 0
0.22203445 0.26925468 -0.41444173 0
0.55275536 0.32218474 -0.45830432 0
0.74747658 0.31066883 -0.45841169 0
0.86743069 0.26679921 -0.45444685 0
0.93798637 0.26293212 -0.45343041 0
0.98100853 0.22052425 -0.44976014 0
0.14376068 0.337475 -0.43657857 0
0.23257065 0.39049375 -0.47005278 0
0.3502512 0.37381357 -0.46811435 0
0.44850349 0.37542284 -0.46977171 0
0.52968884 0.3861174 -0.47279054 0
0.65908813 0.34714383 -0.46551844 0
0.76012516 0.36540502 -0.47176096 0
0.87467861 0.3556782 -0.47088757 0
0.95686436 0.35638779 -0.47254315 0
0.22465897 0.46394014 -0.48782635 0
0.31637955 0.46357274 -0.48911533 0
0.43924522 0.47281843 -0.49275801 0
0.54972935 0.46771723 -0.49398911 0
0.65627384 0.44199336 -0.49004579 0
0.71891022 0.46536392 -0.49689877 0
0.82956314 0.45833385 -0.49669132 0
0.94964027 0.47922236 -0.5037868 0
0.32677746 0.19726413 -0.36743397 0
0.39420605 0.20833117 -0.35305873 0
0.30822659 0.25270975 -0.37105727 0
0.3899498 0.25692528 -0.36637199 0
-0.037838936 -0.49826807 -0.3265931 0
0.0250597 -0.48296189 -0.32974052 0
0.2286005 -0.49903375 -0.32691815 0
0.33551884 -0.4820416 -0.32899082 0
-0.052219391 -0.39506489 -0.34259164 0
0.02973175 -0.39633054 -0.34129819 0
0.12702656 -0.40223384 -0.340536 0
0.25221348 -0.40362221 -0.3390303 0
0.3282156 -0.39576864 -0.34112725 0
0.42765331 -0.4331497 -0.33493456 0
0.50802326 -0.42209178 -0.33811617 0
0.60962963 -0.4150359 -0.33949268 0
0.73619747 -0.40652317 -0.34202042 0
0.87505245 -0.42406285 -0.3476212 0
-0.037895203 -0.32654363 -0.35017359 0
0.035595894 -0.31814557 -0.35114551 0
0.14491844 -0.31797141 -0.3512162 0
0.24010181 -0.29939151 -0.35387576 0
0.32687473 -0.32312101 -0.35051173 0
0.39824581 -0.30751562 -0.35423508 0
0.53422928 -0.32638615 -0.35062885 0
0.59888458 -0.29233521 -0.35468584 0
0.7245121 -0.31159157 -0.35724491 0
0.86230946 -0.32331318 -0.3640039 0
-0.053967476 -0.20288724 -0.36786067 0
0.036457062 -0.22297341 -0.36334473 0
0.11960125 -0.20661211 -0.3669036 0
0.23539066 -0.19567782 -0.36715025 0
0.31899071 -0.21185017 -0.36499673 0
0.39901924 -0.20247978 -0.36666572 0
0.53580379 -0.21965837 -0.36355525 0
0.68745327 -0.21135676 -0.37568885 0
0.73428059 -0.21512032 -0.37024873 0
0.86179066 -0.21314996 -0.37979788 0
-0.042378426 -0.1094867 -0.3787531 0
0.049259186 -0.10176104 -0.38134122 0
0.17170811 -0.11108339 -0.37791455 0
0.23546124 -0.11754805 -0.37726447 0
0.3407259 -0.093565524 -0.38315219 0
0.45937729 -0.097790062 -0.38406497 0
0.57556629 -0.12093437 -0.37919652 0
0.70306683 -0.12450171 -0.3861376 0
0.83293533 -0.085831285 -0.40014681 0
0.98991489 -0.089182436 -0.40216613 0
-0.035434723 -0.00015240908 -0.40192473 0
0.035863876 -0.017034709 -0.39511481 0
0.13791561 -0.017413557 -0.39554995 0
0.2393198 -0.018032789 -0.39516371 0
0.34892178 -0.0067548156 -0.39590672 0
0.44045448 -0.028275669 -0.39381176 0
0.55388355 -0.027794123 -0.3944267 0
0.68976974 -0.023665786 -0.40085259 0
0.69768715 -0.06178844 -0.3950533 0
0.83999538 -0.034248292 -0.40582439 0
0.96645832 -0.017899156 -0.41050059 0
-0.028485298 0.096400678 -0.41655445 0
0.060072899 0.067379773 -0.40801489 0
0.13593292 0.096970558 -0.41329962 0
0.22594547 0.086373687 -0.41054839 0
0.37889576 0.058903277 -0.4071399 0
0.46158504 0.045094132 -0.40585899 0
0.54718018 0.050023079 -0.40680838 0
0.66606522 0.07092613 -0.41521633 0
0.78091717 0.12344182 -0.43052924 0
0.80916882 0.048231602 -0.41957182 0
0.93183041 0.077644587 -0.4217881 0
-0.046218872 0.17542672 -0.42115116 0
0.055226326 0.21283454 -0.43319058 0
0.1453228 0.18638808 -0.42829823 0
0.21867466 0.16908646 -0.41911179 0
0.51318741 0.13477051 -0.4227322 0
0.76823139 0.16623276 -0.43488795 0
0.88257599 0.19770151 -0.43628159 0
0.95258999 0.16191715 -0.43255222 0
0.99817562 0.17688024 -0.43549553 0
-0.047000885 0.27930039 -0.45000291 0
0.046601295 0.28685898 -0.44640663 0
0.14100456 0.26021284 -0.43656698 0
0.40685558 0.32971841 -0.45219716 0
0.86315918 0.24036187 -0.44158292 0
-0.043413162 0.37713814 -0.46866587 0
0.058408737 0.38310868 -0.46242946 0
0.12534904 0.429286 -0.47150016 0
0.31155491 0.39698464 -0.46559131 0
0.42368984 0.39372128 -0.46630639 0
0.58972549 0.34883904 -0.45814052 0
0.60637856 0.40256476 -0.47139877 0
0.73688698 0.37892145 -0.46728221 0
0.85615826 0.3701387 -0.46674851 0
0.9760704 0.37583089 -0.46996707 0
-0.11673546 0.49659353 -0.49564984 0
-0.059640884 0.47196114 -0.48734194 0
0.039992332 0.48602706 -0.48526347 0
0.1445446 0.47802758 -0.4829548 0
0.22978592 0.45608014 -0.47868842 0
0.31825829 0.48075986 -0.48566967 0
0.45210552 0.45483112 -0.48110646 0
0.50989819 0.4966808 -0.49220067 0
0.60665226 0.4693898 -0.48867333 0
0.74297523 0.47360033 -0.49180609 0
0.83926582 0.46778733 -0.49197501 0
0.99893188 0.44066942 -0.48687294 0
-0.0052118301 0.13536519 -0.39896566 0
0.27162552 0.11401069 -0.39459395 0
0.3051815 0.12474936 -0.37305635 0
-0.009935379 0.15626204 -0.39761543 0
0.25121403 0.19608825 -0.3963567 0
0.34623528 0.19482267 -0.35524082 0
0.15524006 0.30224603 -0.43046105 0
0.23628902 0.27312386 -0.39998147 0
0.34274197 0.26907176 -0.3595283 0
0.53266144 0.31029278 -0.44620073 0
0.72524261 0.31392604 -0.45039436 0
0.86025715 0.29001015 -0.447317 0
0.97986698 0.27149487 -0.44467956 0
0.089020729 0.36877096 -0.44513932 0
0.12871075 0.36187631 -0.43038023 0
0.13664436 -0.45930851 -0.34726453 0
0.2361021 -0.47236592 -0.3448503 0
0.30015182 -0.47278267 -0.344008 0
0.85909748 -0.497823 -0.3505348 0
0.15202141 -0.36768502 -0.35853976 0
0.23280239 -0.36187339 -0.35848194 0
0.3613348 -0.39778817 -0.35313708 0
0.44817924 -0.40481412 -0.35393274 0
0.54431343 -0.41208768 -0.35350376 0
0.66092777 -0.43389744 -0.35036951 0
0.7633028 -0.43631548 -0.35272461 0
0.86747646 -0.43272895 -0.36049238 0
0.14839458 -0.26154482 -0.37331212 0
0.26272011 -0.2865603 -0.37010789 0
0.37145996 -0.27095944 -0.37147528 0
0.4480772 -0.29415822 -0.36827844 0
0.53232098 -0.30534065 -0.36809799 0
0.63968468 -0.31629813 -0.36720836 0
0.7730875 -0.35377675 -0.36465555 0
0.88447666 -0.35500044 -0.3713482 0
0.16721725 -0.1699127 -0.38458377 0
0.26302814 -0.18567139 -0.38296837 0
0.37649345 -0.19061053 -0.38083225 0
0.44863415 -0.2064026 -0.37908679 0
0.53494358 -0.20076829 -0.38003111 0
0.65534687 -0.2297346 -0.37741071 0
0.75781536 -0.25794816 -0.38093197 0
0.8790369 -0.24187261 -0.3890475 0
0.18265629 -0.066557705 -0.39980173 0
0.28113842 -0.093236566 -0.39656115 0
0.38821602 -0.087946415 -0.39674672 0
0.43948555 -0.13060725 -0.38993201 0
0.58296299 -0.11196184 -0.39488009 0
0.72774506 -0.16855705 -0.3972744 0
0.75446796 -0.13524735 -0.39932057 0
0.8811512 -0.14036465 -0.40345398 0
0.13326168 0.041635871 -0.41819155 0
0.21367836 0.011457741 -0.41265213 0
0.3039875 -0.0010163188 -0.41077617 0
0.39939022 0.00052148104 -0.41154155 0
0.50148773 -0.0076375008 -0.41202134 0
0.61598969 -0.015702844 -0.41214505 0
0.73612595 0.015775979 -0.42180461 0
0.79124355 -0.047688484 -0.41351101 0
0.87961292 -0.043572187 -0.41655496 0
0.1332922 0.12629592 -0.43117315 0
0.22161388 0.12965715 -0.42647344 0
0.2970953 0.10002387 -0.41600356 0
0.3989439 0.095340729 -0.42902926 0
0.50129509 0.076319337 -0.42493755 0
0.59552193 0.093016326 -0.42857045 0
0.72908592 0.071245611 -0.4295547 0
0.82825661 0.10338718 -0.43860573 0
0.90315342 0.056920052 -0.4329285 0
0.96918678 0.016721249 -0.42922372 0
0.13485813 0.24243438 -0.44821781 0
0.20955849 0.23287266 -0.43589354 0
0.70243835 0.14480036 -0.44165 0
0.80715847 0.16378444 -0.44565144 0
0.91855145 0.15338409 -0.44585389 0
0.078868866 0.36268431 -0.4695209 0
0.12685013 0.33510852 -0.45472553 0
0.37507629 0.3492555 -0.46791559 0
0.5569849 0.3245393 -0.46441922 0
0.88152504 0.27039707 -0.45772725 0
0.90333176 0.22679865 -0.45182818 0
0.07284832 0.44926769 -0.48825043 0
0.15504646 0.44391572 -0.48690587 0
0.23798752 0.41465718 -0.4811846 0
0.33081341 0.41659313 -0.48251346 0
0.46083736 0.39660484 -0.47940636 0
0.54978371 0.3891207 -0.47879156 0
0.64963913 0.37704563 -0.47789025 0
0.74197197 0.3631022 -0.47596538 0
0.8421011 0.3666783 -0.47771576 0
0.97815895 0.29621595 -0.46342146 0
0.55706215 0.48323059 -0.50253278 0
0.68005371 0.4601298 -0.49938834 0
0.74729824 0.49927986 -0.51078922 0
0.86179924 0.4501127 -0.4998146 0
0.31440735 0.14731061 -0.38568223 0
0.37922382 0.17117345 -0.36543936 0
0.25637341 0.22572321 -0.40748721 0
0.32474518 0.23494601 -0.3780632 0
0.15778923 0.34214658 -0.44076303 0
0.23433685 0.29978174 -0.41844586 0
0.2950201 0.29596484 -0.37910298 0
0.38118649 0.27669126 -0.37624061 0
0.0043363571 -0.4492268 -0.34808934 0
0.091688156 -0.47001064 -0.3458474 0
0.18525028 -0.46711206 -0.34627646 0
0.28635025 -0.4887023 -0.34206632 0
0.47967625 -0.48669988 -0.34470508 0
0.00098991394 -0.34242523 -0.36284912 0
0.099529266 -0.3544274 -0.36025131 0
0.19114971 -0.38823092 -0.35588899 0
0.29056549 -0.37785679 -0.35873392 0
0.38292885 -0.42028052 -0.35317042 0
0.4794445 -0.38842756 -0.35660869 0
0.57563877 -0.40802741 -0.35651875 0
0.70235443 -0.44106495 -0.35094506 0
0.85007954 -0.45381331 -0.35386357 0
-0.0047826767 -0.27257854 -0.37257791 0
0.092398643 -0.2555927 -0.37488741 0
0.19704533 -0.270127 -0.37213933 0
0.29334259 -0.28852206 -0.36927503 0
0.37959862 -0.30653274 -0.36735231 0
0.46460724 -0.30081928 -0.3687796 0
0.57415199 -0.31154931 -0.36697572 0
0.67865467 -0.3231529 -0.36763451 0
0.81682873 -0.35617054 -0.37131625 0
0.98322201 -0.37054169 -0.37695688 0
0.0078382492 -0.15190512 -0.3893137 0
0.12494183 -0.15395683 -0.38819462 0
0.23046398 -0.18506628 -0.3832337 0
0.29763031 -0.1591236 -0.38735601 0
0.37138557 -0.21141046 -0.37935287 0
0.49012852 -0.21154207 -0.37958437 0
0.58360863 -0.24686629 -0.37205589 0
0.68409443 -0.24496388 -0.37768286 0
0.81354618 -0.2485497 -0.38637361 0
0.97938061 -0.27640706 -0.38998044 0
-0.033356667 -0.046439469 -0.40696108 0
0.018145561 -0.051621199 -0.40492293 0
0.13774204 -0.076313853 -0.3999719 0
0.21902561 -0.076260746 -0.39980215 0
0.34025002 -0.079442382 -0.40034911 0
0.43112755 -0.11059356 -0.39571354 0
0.54517937 -0.12296551 -0.39219731 0
0.65187263 -0.13752335 -0.39540291 0
0.78360653 -0.12412906 -0.40577996 0
0.94530964 -0.16495794 -0.40796867 0
0.97814941 -0.12083954 -0.40825331 0
-0.031053543 0.046342552 -0.42441952 0
0.013186455 0.050102472 -0.42099994 0
0.12985706 0.039795637 -0.4184542 0
0.2346735 0.011445403 -0.41403535 0
0.32914925 0.012820959 -0.4153671 0
0.43205166 -0.0096673369 -0.41080657 0
0.52527714 -0.017534137 -0.40992618 0
0.61386013 -0.014670372 -0.41506195 0
0.75865555 -0.030251503 -0.41999182 0
0.93191338 -0.045165181 -0.42068201 0
-0.047056198 0.16638952 -0.43171471 0
0.095744133 0.15386683 -0.43616545 0
0.14673233 0.1339463 -0.43357587 0
0.24302578 0.12209487 -0.42322749 0
0.45262814 0.078840792 -0.42650822 0
0.58017254 0.11111677 -0.43331376 0
0.60426712 0.041328073 -0.42264825 0
0.74356651 0.054878891 -0.43121675 0
0.87141323 0.058144748 -0.43682882 0
-0.022967339 0.2437613 -0.45798385 0
0.070661545 0.23114711 -0.44951022 0
0.17218781 0.23212153 -0.44393826 0
0.23067951 0.1888895 -0.42349589 0
0.72597122 0.11833394 -0.44004127 0
0.84331894 0.14148927 -0.44513726 0
0.97713852 0.12898731 -0.44244617 0
-0.025212288 0.34115779 -0.47521102 0
0.067951202 0.3448121 -0.46711913 0
0.14016151 0.30789167 -0.44741884 0
0.34726334 0.3423872 -0.46870679 0
0.51772404 0.33474225 -0.46922904 0
0.92988873 0.22674644 -0.45417765 0
-0.072634697 0.45641977 -0.49936265 0
-0.0049495697 0.45519912 -0.49451688 0
0.072350502 0.42911845 -0.48479035 0
0.17448997 0.40238154 -0.47898385 0
0.28242779 0.42089343 -0.48542535 0
0.3883791 0.40995055 -0.48412639 0
0.48734665 0.3798129 -0.47850382 0
0.6345787 0.36440128 -0.476944 0
0.76626301 0.34247726 -0.47389206 0
0.88129711 0.33163816 -0.47211829 0
0.26255512 0.46785629 -0.49617103 0
0.43823147 0.45792294 -0.49621826 0
0.57436466 0.446055 -0.49589777 0
0.64964867 0.48632383 -0.50843531 0
0.77031898 0.4635368 -0.50434947 0
0.91250801 0.44215047 -0.5007624 0
0.27625561 0.14335603 -0.3954547 0
0.38619041 0.14541227 -0.36155942 0
0.26878071 0.23545653 -0.39439261 0
0.36455059 0.23258728 -0.36826295 0
0.11418438 0.34933197 -0.44940984 0
0.1785326 0.30707622 -0.43485653 0
0.22893429 0.29691625 -0.41700298 0
-0.17113876 -0.43997765 -0.33412498 0
-0.076938629 -0.44900638 -0.3351621 0
0.030016899 -0.45232511 -0.33457345 0
0.12773228 -0.47305334 -0.33213115 0
0.20846748 -0.4534874 -0.33576941 0
0.31016445 -0.48946786 -0.33014596 0
0.39973545 -0.46855807 -0.33380109 0
-0.16614342 -0.34181982 -0.34653929 0
-0.072395325 -0.34706163 -0.34788409 0
0.048439026 -0.36238956 -0.34519222 0
0.12544727 -0.37783307 -0.34458458 0
0.24284458 -0.38125002 -0.34430808 0
0.29983139 -0.38354069 -0.344441 0
0.40960789 -0.40169621 -0.34056896 0
0.5077734 -0.42972523 -0.33679837 0
0.62787914 -0.43452418 -0.33896917 0
0.76089668 -0.45814097 -0.33937287 0
0.93937969 -0.45840359 -0.34646237 0
-0.15071583 -0.22960502 -0.36194068 0
-0.036971092 -0.25041252 -0.3621437 0
0.05862999 -0.22950262 -0.3650429 0
0.14111519 -0.26496786 -0.36000904 0
0.22586918 -0.28211302 -0.35828191 0
0.3623209 -0.28308827 -0.35621768 0
0.44013786 -0.3301729 -0.350826 0
0.53858566 -0.29635489 -0.35629916 0
0.60685062 -0.31697464 -0.35366917 0
0.74536133 -0.35828561 -0.35475224 0
0.90721035 -0.33620483 -0.36655664 0
-0.19626617 -0.12921762 -0.37617034 0
-0.13921642 -0.13675261 -0.37549716 0
-0.043328285 -0.1514827 -0.37414631 0
0.050963402 -0.1528846 -0.37416184 0
0.16439629 -0.16762 -0.3727771 0
0.27722263 -0.19836444 -0.3687599 0
0.37050438 -0.18020207 -0.3705247 0
0.4541769 -0.21118367 -0.36799556 0
0.57631111 -0.2129212 -0.36845484 0
0.74196339 -0.26352113 -0.36783692 0
0.89311886 -0.25807089 -0.3782604 0
-0.19137478 -0.040673673 -0.39159805 0
-0.13759899 -0.050711632 -0.39060354 0
-0.028888702 -0.026883781 -0.39711684 0
0.059445381 -0.067857862 -0.38761127 0
0.17669392 -0.055412889 -0.38924742 0
0.25079727 -0.087463319 -0.38585281 0
0.36206722 -0.097009242 -0.38282365 0
0.44370079 -0.1266712 -0.37929803 0
0.56150341 -0.12258708 -0.38167241 0
0.70126343 -0.13167411 -0.38923955 0
0.88086987 -0.16294819 -0.39119262 0
-0.18207455 0.057137549 -0.41715103 0
-0.11305904 0.036060154 -0.41250217 0
-0.010540009 0.05162406 -0.40873551 0
0.067829132 0.040652037 -0.40597263 0
0.1608181 0.039893568 -0.40513885 0
0.2749548 0.018404126 -0.40248939 0
0.39139462 -0.013734162 -0.39780575 0
0.54650593 0.00088870525 -0.39957178 0
0.70440292 -0.039847076 -0.39933538 0
0.85575008 -0.042672455 -0.40784678 0
0.98430157 -0.051478505 -0.41013941 0
-0.15958977 0.15399837 -0.43829975 0
-0.090358734 0.15521115 -0.43056685 0
-0.025984764 0.13314247 -0.41012102 0
0.094909668 0.12570268 -0.42004982 0
0.20578194 0.11560744 -0.41701815 0
0.26908207 0.096033454 -0.40267473 0
0.41637611 0.061693609 -0.409942 0
0.51624966 0.097726345 -0.41656914 0
0.66639805 0.064037561 -0.41541058 0
0.81802559 0.062071443 -0.42277354 0
0.96151829 0.015871346 -0.41689244 0
-0.17599678 0.24812007 -0.45587894 0
-0.10071278 0.24062806 -0.44750524 0
0.0033740997 0.25329906 -0.44454965 0
0.12363911 0.20936441 -0.43327922 0
0.17157173 0.23717749 -0.43275666 0
0.64096451 0.13236612 -0.42562526 0
0.79036999 0.12933969 -0.43037882 0
0.90205288 0.14442867 -0.43229809 0
-0.16969681 0.36696845 -0.47619987 0
-0.078351974 0.35041124 -0.4670842 0
0.020728111 0.33896595 -0.45739308 0
0.098697662 0.30875033 -0.44605711 0
0.34365082 0.34444124 -0.4563427 0
0.4843998 0.31839335 -0.44952601 0
0.57276917 0.31701869 -0.45293611 0
0.72281837 0.29492801 -0.44702518 0
0.83005142 0.28688031 -0.44943315 0
0.89784527 0.19997966 -0.43349096 0
-0.22835541 0.49070585 -0.50285709 0
-0.18606377 0.44297737 -0.49103373 0
-0.087421417 0.46261358 -0.48811454 0
0.028230667 0.43995905 -0.47633532 0
0.14286137 0.43912023 -0.47519043 0
0.25481796 0.41637248 -0.47103789 0
0.35480499 0.40796947 -0.4699626 0
0.45280075 0.41009229 -0.47206983 0
0.5625267 0.4118616 -0.47470176 0
0.57782936 0.34832013 -0.45854577 0
0.70511818 0.38490599 -0.47013664 0
0.8184576 0.34301424 -0.46104959 0
0.95842075 0.30714202 -0.45394927 0
0.97963142 0.35557449 -0.46659386 0
0.5692482 0.47541189 -0.49109834 0
0.72859955 0.46422827 -0.49072617 0
0.83188343 0.41291445 -0.47920179 0
-0.021807671 0.15731329 -0.40132001 0
0.24548244 0.14487493 -0.39774957 0
0.26871395 0.14557159 -0.38894641 0
0.23771763 0.23986137 -0.39959329 0
0.28806019 0.22703791 -0.37024853 0
0.37810326 0.17136264 -0.3487581 0
0.12719727 0.33544028 -0.43285441 0
0.20057869 0.29833114 -0.41335905 0
-0.30272007 -0.48696023 -0.33620328 0
-0.29419994 -0.3876406 -0.34816018 0
-0.2427597 -0.42615384 -0.34242475 0
-0.14746284 -0.41232085 -0.34533834 0
-0.041179657 -0.44349355 -0.34361577 0
0.031181335 -0.463709 -0.34229749 0
0.13185883 -0.46221477 -0.34189832 0
0.22992897 -0.47109759 -0.34094864 0
0.33689404 -0.47711205 -0.33995548 0
0.43642998 -0.48817033 -0.33891702 0
-0.31401348 -0.3026492 -0.36114386 0
-0.23485374 -0.31919032 -0.35462636 0
-0.12888145 -0.34361702 -0.35485125 0
-0.013341904 -0.34445876 -0.3568612 0
0.046858788 -0.31404996 -0.35801935 0
0.1296978 -0.36280185 -0.35374653 0
0.25400734 -0.3824991 -0.35117817 0
0.37536049 -0.39228064 -0.35074997 0
0.43968868 -0.42930877 -0.34481871 0
0.53751564 -0.38484645 -0.35473722 0
0.6927042 -0.40569794 -0.35315597 0
0.88088131 -0.44811022 -0.35401255 0
-0.30028534 -0.20619136 -0.37060156 0
-0.22101879 -0.24286675 -0.36710626 0
-0.13290787 -0.21930951 -0.37214217 0
-0.017752647 -0.23280758 -0.3718363 0
0.090622902 -0.23824543 -0.37277663 0
0.19799519 -0.26840764 -0.36770019 0
0.29959297 -0.27227944 -0.36699623 0
0.39079857 -0.28428781 -0.36656725 0
0.52349567 -0.28062707 -0.36555535 0
0.53015614 -0.34152246 -0.35954309 0
0.66108894 -0.29583061 -0.36794811 0
0.85042477 -0.33370769 -0.37111279 0
-0.31407833 -0.080723882 -0.38891661 0
-0.20674038 -0.13064164 -0.38280228 0
-0.11306858 -0.12322128 -0.38511503 0
0.0024394989 -0.15834159 -0.38041729 0
0.086502075 -0.16706967 -0.38075837 0
0.18682671 -0.17281139 -0.37892956 0
0.25757027 -0.14514327 -0.38553226 0
0.37421703 -0.18296516 -0.37862799 0
0.49332905 -0.17878401 -0.37907723 0
0.67355824 -0.24640393 -0.37181431 0
0.84702778 -0.24989539 -0.38037163 0
-0.2879324 -0.0076913834 -0.40447679 0
-0.1953907 -0.0057877302 -0.40762925 0
-0.07743454 -0.034818351 -0.4032681 0
-0.014347076 -0.031768203 -0.40405056 0
0.10497379 -0.066512525 -0.3962431 0
0.2997942 -0.06893295 -0.39601839 0
0.50999546 -0.14168525 -0.38169029 0
0.62119865 -0.14592385 -0.38959542 0
0.78961754 -0.11847001 -0.40127596 0
-0.30514336 0.088929892 -0.42851779 0
-0.1881752 0.071726978 -0.4274556 0
-0.055691719 0.073797584 -0.42546326 0
0.0092802048 0.043505847 -0.41621184 0
0.13515377 0.041412771 -0.41348404 0
0.23627377 0.030559003 -0.41169372 0
0.30814266 0.043952823 -0.41249216 0
0.44624996 -0.0059183836 -0.40746939 0
0.57837582 -0.016414344 -0.40801528 0
0.76938629 -0.033039629 -0.41142115 0
0.91711521 -0.031137943 -0.42133814 0
-0.32832146 0.1925025 -0.45517138 0
-0.28036404 0.17177254 -0.44997287 0
-0.18144894 0.16758686 -0.44990236 0
-0.070169449 0.17766213 -0.43612134 0
-0.0012331009 0.12731898 -0.41249731 0
0.12674618 0.11284906 -0.42426252 0
0.22678375 0.1386559 -0.42254582 0
0.43448067 0.073257327 -0.41949314 0
0.53948021 0.084277093 -0.42358679 0
0.70494556 0.091285765 -0.43097532 0
0.86185646 0.076147199 -0.43418315 0
-0.26831245 0.29208767 -0.47764441 0
-0.16316414 0.25969434 -0.46520522 0
-0.084072113 0.27947444 -0.46129 0
0.040176392 0.24613541 -0.44988203 0
0.093858719 0.25536638 -0.44687277 0
0.21028614 0.20946395 -0.43231881 0
0.83243179 0.12860817 -0.4407101 0
0.97517586 0.17167026 -0.44389492 0
-0.33099079 0.41108692 -0.50310081 0
-0.25195312 0.37703788 -0.49166644 0
-0.15309525 0.36047179 -0.48210901 0
-0.044942856 0.35410029 -0.47363779 0
0.063376427 0.35113156 -0.46239883 0
0.14407444 0.29514515 -0.44488502 0
0.4794178 0.33192158 -0.46108299 0
0.75690174 0.29176456 -0.4549112 0
0.88744259 0.29623282 -0.46217543 0
0.96189976 0.20464432 -0.44594106 0
-0.32371044 0.48936373 -0.51696527 0
-0.24056625 0.47580183 -0.50886476 0
-0.14287281 0.46585363 -0.5005402 0
-0.048430443 0.44931388 -0.49113974 0
0.045822144 0.43327945 -0.48186511 0
0.15348053 0.44965994 -0.48522478 0
0.21022415 0.41957581 -0.47886512 0
0.33718586 0.3985076 -0.47518221 0
0.46970654 0.40346783 -0.47787535 0
0.6066494 0.35889828 -0.46910125 0
0.75940704 0.34183091 -0.46692669 0
0.89779758 0.38249677 -0.47977799 0
0.90947437 0.31457126 -0.46226898 0
0.60289192 0.4624325 -0.49559274 0
0.74024868 0.46550936 -0.49876344 0
0.89783955 0.4668268 -0.50153422 0
0.24433041 0.1826008 -0.4061074 0
0.30161953 0.14207673 -0.3812288 0
0.38722038 0.17472345 -0.35727251 0
0.25139046 0.24023056 -0.40137678 0
0.33227825 0.21109557 -0.367017 0
0.15162945 0.34264278 -0.43590096 0
0.26485443 0.29693782 -0.38963905 0
-0.13717937 -0.46564782 -0.3399635 0
0.053121567 -0.46646839 -0.34108394 0
0.16922379 -0.46824771 -0.33937675 0
0.52179718 -0.49129993 -0.33912086 0
0.85024834 -0.42237639 -0.3543697 0
-0.36638927 -0.477759 -0.33072418 0
-0.27491379 -0.48245043 -0.33063561 0
-0.19317436 -0.47033626 -0.33385843 0
-0.38062859 -0.41173959 -0.3406713 0
-0.30401325 -0.39545774 -0.34473303 0
-0.20638371 -0.40127265 -0.34351596 0
-0.13019753 -0.41727465 -0.34447244 0
-0.017374992 -0.44992822 -0.33881122 0
0.060343742 -0.41872776 -0.34544671 0
0.29933453 -0.45542639 -0.3379474 0
0.37219334 -0.44818264 -0.34353465 0
-0.39193535 -0.3016054 -0.35511065 0
-0.3005352 -0.29488546 -0.35872319 0
-0.18397141 -0.32436693 -0.35534722 0
-0.088575363 -0.34014261 -0.3535575 0
0.048204422 -0.31324196 -0.35838529 0
0.12604713 -0.36819941 -0.35240388 0
0.26187325 -0.35919523 -0.35295707 0
0.3432703 -0.34302747 -0.3578825 0
0.38315296 -0.42249286 -0.34440994 0
0.51479626 -0.4246428 -0.34536004 0
0.64777279 -0.37589216 -0.35431749 0
0.67391205 -0.43817466 -0.3457796 0
-0.37691879 -0.19677478 -0.36856288 0
-0.26178646 -0.21990347 -0.36738247 0
-0.17928886 -0.19872081 -0.37389517 0
-0.063138962 -0.24999911 -0.36537474 0
0.014287949 -0.2314778 -0.37149748 0
0.12206745 -0.2558639 -0.36781383 0
0.22898102 -0.2780776 -0.36553514 0
0.33229351 -0.2820859 -0.36503124 0
0.46218586 -0.24489689 -0.36807308 0
0.48566723 -0.32213515 -0.35806999 0
0.63275623 -0.30598593 -0.36089677 0
0.80869389 -0.32087749 -0.37000236 0
-0.3783884 -0.11904275 -0.37855986 0
-0.26305962 -0.11171907 -0.38097852 0
-0.19352436 -0.11105502 -0.38389015 0
-0.085378647 -0.1351347 -0.37949544 0
-0.0052480698 -0.14564061 -0.38238227 0
0.094093323 -0.16331434 -0.380606 0
0.20744419 -0.17098147 -0.37829271 0
0.31146526 -0.17468125 -0.3773647 0
0.43800068 -0.18875742 -0.37632945 0
0.59836006 -0.22439194 -0.37224352 0
0.77620125 -0.19560158 -0.38526267 0
0.79882431 -0.24999374 -0.37745613 0
0.98174095 -0.25159681 -0.38907343 0
-0.43593311 -0.0011560321 -0.3995598 0
-0.35820293 -0.014659286 -0.39838326 0
-0.25673294 -0.016314507 -0.40110633 0
-0.15336895 0.0062466264 -0.4095268 0
-0.046521187 -0.046774507 -0.39801747 0
0.052689552 -0.059648335 -0.39524063 0
0.16827774 -0.027780533 -0.40029511 0
0.24764729 -0.067644358 -0.39356411 0
0.40965557 -0.090109825 -0.39082789 0
0.54521561 -0.10390526 -0.39077523 0
0.73739529 -0.10831958 -0.39774314 0
0.95875835 -0.17583197 -0.39769962 0
-0.4236536 0.092240214 -0.42377061 0
-0.33362865 0.072490573 -0.42104614 0
-0.23937511 0.087018907 -0.42807242 0
-0.12568378 0.095364571 -0.43146062 0
-0.046347618 0.07157588 -0.42033809 0
0.052715302 0.038554072 -0.41050205 0
0.15188503 0.049373686 -0.41242594 0
0.23130131 0.055796564 -0.41568685 0
0.36721992 0.053972542 -0.41451797 0
0.44315052 0.0066743493 -0.40762192 0
0.68016911 0.022277713 -0.41503611 0
0.71088982 -0.036638021 -0.40650344 0
0.88081074 -0.018632352 -0.4195435 0
0.90964603 -0.079720676 -0.41170108 0
-0.40544605 0.19399691 -0.44998807 0
-0.33519173 0.182477 -0.44935071 0
-0.23338413 0.18886721 -0.45262283 0
-0.12139225 0.17167532 -0.444574 0
-0.051379204 0.1731838 -0.42840737 0
0.11223984 0.17569453 -0.43319803 0
0.18344879 0.13335478 -0.4268944 0
0.24797058 0.14846402 -0.40473333 0
0.49628067 0.067167342 -0.41692564 0
0.64377022 0.085452855 -0.42455867 0
0.83905315 0.056478143 -0.42793566 0
-0.41272449 0.29794681 -0.47654217 0
-0.30780411 0.27699721 -0.47321308 0
-0.22922802 0.28810227 -0.47217822 0
-0.12699127 0.28301013 -0.46318129 0
0.0069007874 0.24378866 -0.44841981 0
0.094451904 0.26864111 -0.44760695 0
0.2023735 0.22092503 -0.42906576 0
0.24707985 0.21198338 -0.40552035 0
0.78988934 0.13878584 -0.4375568 0
0.95748138 0.14011341 -0.43847087 0
-0.41134167 0.38712841 -0.49900007 0
-0.31913185 0.38192081 -0.49462375 0
-0.1882019 0.38459516 -0.48621124 0
-0.097628593 0.36227691 -0.47620371 0
-0.0097780228 0.3650741 -0.47071785 0
0.10190773 0.34860188 -0.45011783 0
0.16155243 0.32009417 -0.43308008 0
0.39269924 0.35742921 -0.4634726 0
0.52410698 0.33558518 -0.4615249 0
0.875741 0.26803911 -0.45215842 0
-0.4014225 0.49497461 -0.5202595 0
-0.28924274 0.48912692 -0.51215458 0
-0.20870876 0.46673769 -0.50259972 0
-0.099093437 0.46237564 -0.49450433 0
0.019159317 0.45026243 -0.4846254 0
0.12099934 0.44127095 -0.48051634 0
0.23980331 0.41194987 -0.47514939 0
0.26098919 0.43750691 -0.48092955 0
0.37822437 0.41472399 -0.47737432 0
0.52482986 0.39381075 -0.47402695 0
0.67210388 0.36685038 -0.47002634 0
0.85154438 0.35627103 -0.46988925 0
0.65851879 0.45550162 -0.49280703 0
0.83051968 0.42719156 -0.48809338 0
0.86394596 0.4444257 -0.49262977 0
0.28549385 0.17279428 -0.37715876 0
0.2697134 0.24014324 -0.38640326 0
0.36392593 0.20594203 -0.35904038 0
0.19772911 0.33229184 -0.42095014 0
0.25980854 0.29502869 -0.38720518 0
-0.59167671 -0.46744412 -0.34097499 0
-0.41448975 -0.49147743 -0.33606684 0
-0.59910011 -0.353109 -0.35845655 0
-0.50895405 -0.39976859 -0.34897473 0
-0.39574432 -0.37575048 -0.35293725 0
-0.30854702 -0.39122909 -0.35186693 0
-0.20649338 -0.43556136 -0.34845728 0
-0.10600853 -0.40223134 -0.35381043 0
0.0079174042 -0.43816876 -0.35056889 0
0.12050915 -0.45571816 -0.34704882 0
0.256464 -0.47579753 -0.34396255 0
0.40186024 -0.48886603 -0.34121811 0
0.53221798 -0.48700035 -0.34431767 0
0.68062305 -0.49743199 -0.34700269 0
-0.57931614 -0.28513455 -0.36694819 0
-0.48722267 -0.29301345 -0.36208972 0
-0.4079113 -0.29674715 -0.3629882 0
-0.30573368 -0.32282001 -0.35843292 0
-0.21833706 -0.33477741 -0.36023325 0
-0.092944145 -0.31247115 -0.36600891 0
0.0035457611 -0.37865067 -0.35720947 0
0.078415871 -0.34098434 -0.36430487 0
0.22983265 -0.37150538 -0.35740632 0
0.34791946 -0.36200315 -0.3604334 0
0.48987961 -0.3884362 -0.3579697 0
0.63638973 -0.37985164 -0.36085343 0
0.68400478 -0.45988578 -0.3480691 0
0.87754536 -0.43604827 -0.36051047 0
-0.65443516 -0.21459115 -0.38352531 0
-0.58086777 -0.17785859 -0.38244274 0
-0.46778202 -0.18834651 -0.37627208 0
-0.36791039 -0.20987356 -0.37518662 0
-0.25389671 -0.21905708 -0.3761656 0
-0.15064907 -0.22542477 -0.37631127 0
-0.047254562 -0.24006307 -0.37695062 0
0.049596786 -0.20858878 -0.38041139 0
0.091030121 -0.29437047 -0.36655045 0
0.19872189 -0.26877081 -0.37097955 0
0.31988335 -0.26483732 -0.37251699 0
0.45319939 -0.27638561 -0.37199259 0
0.60864258 -0.30264074 -0.3691467 0
0.81798172 -0.3177228 -0.37883994 0
-0.63683701 -0.096906662 -0.39822289 0
-0.56415844 -0.068911135 -0.39676017 0
-0.46684742 -0.085783482 -0.38964054 0
-0.3893137 -0.088153303 -0.39246213 0
-0.28036308 -0.11691999 -0.38877612 0
-0.18940735 -0.11094016 -0.39138433 0
-0.086221695 -0.1259135 -0.39163837 0
0.026111603 -0.1374647 -0.38993558 0
0.14955139 -0.17324847 -0.38647848 0
0.27330208 -0.15323174 -0.38826576 0
0.4224596 -0.18166119 -0.38337943 0
0.55691051 -0.20361 -0.3826803 0
0.77611256 -0.19160432 -0.39336693 0
0.80487442 -0.2522943 -0.38498783 0
-0.63866806 0.033433676 -0.41883144 0
-0.56468678 0.021304846 -0.41191828 0
-0.45163155 0.017662048 -0.41094917 0
-0.37292671 -0.019909799 -0.40354967 0
-0.28332996 -0.024498224 -0.40516248 0
-0.19093895 -0.0092500448 -0.41202343 0
-0.039318085 -0.025112212 -0.41109082 0
0.1076479 -0.050434828 -0.40476269 0
0.25050926 -0.057889044 -0.40220052 0
0.37417603 -0.063483894 -0.4028683 0
0.52203274 -0.11498106 -0.39497679 0
0.72211552 -0.10443002 -0.4075067 0
-0.65605545 0.13094139 -0.43710852 0
-0.54549885 0.10661715 -0.43106604 0
-0.45358467 0.1310845 -0.44021106 0
-0.36008453 0.099523246 -0.43508339 0
-0.25522327 0.094929755 -0.43613857 0
-0.15285015 0.083841085 -0.43501627 0
-0.039538383 0.070792556 -0.42952371 0
0.089642525 0.053950787 -0.42040139 0
0.20145226 0.071021855 -0.42431378 0
0.22359943 0.020021379 -0.41530305 0
0.34264946 0.020692527 -0.41715765 0
0.48847961 0.0066807866 -0.41396046 0
0.49985886 -0.036304533 -0.40738937 0
0.67868996 -0.0029099584 -0.41910759 0
0.70906258 -0.062066793 -0.41139117 0
0.94989872 -0.06448406 -0.4201223 0
-0.68436146 0.2542094 -0.46506712 0
-0.61341858 0.21927142 -0.45790043 0
-0.53388977 0.21164447 -0.45859224 0
-0.45341873 0.22589505 -0.46455458 0
-0.36667633 0.21011108 -0.46285683 0
-0.22788334 0.18488187 -0.45949304 0
-0.13226795 0.1542666 -0.45030534 0
-0.037892342 0.16878259 -0.43204546 0
0.17287159 0.14715415 -0.43701118 0
0.2382412 0.14743429 -0.42565474 0
0.32270145 0.074329913 -0.42610696 0
0.46756363 0.058693886 -0.42270645 0
0.64558125 0.067025125 -0.426954 0
0.89868736 0.02117449 -0.42939582 0
-0.68218136 0.29796809 -0.47623765 0
-0.6164856 0.32848632 -0.48531467 0
-0.51552963 0.29728061 -0.4804962 0
-0.42089272 0.29429978 -0.48263344 0
-0.32279301 0.30551267 -0.48774695 0
-0.22167397 0.27674776 -0.47773445 0
-0.1245594 0.25804687 -0.46608627 0
-0.060463905 0.2941401 -0.46979707 0
0.039359093 0.24804336 -0.45497268 0
0.17742538 0.23103255 -0.44348884 0
0.82436371 0.11438417 -0.44482023 0
-0.67671108 0.42286462 -0.50787771 0
-0.60529613 0.43222892 -0.51246345 0
-0.51041222 0.41419303 -0.51047492 0
-0.40682602 0.39497501 -0.50796914 0
-0.31006145 0.38373858 -0.5023452 0
-0.21372509 0.37557417 -0.49448037 0
-0.10312462 0.35734326 -0.48370999 0
0.010953903 0.35453135 -0.47551441 0
0.083712578 0.35242081 -0.46884558 0
0.13910103 0.32341141 -0.45070031 0
0.37804699 0.32911652 -0.46334881 0
0.91244411 0.26394296 -0.45961103 0
-0.47519398 0.49494809 -0.5289408 0
-0.29467583 0.49780393 -0.52223164 0
-0.18880653 0.44124383 -0.50453639 0
-0.11892128 0.4835704 -0.50779682 0
-0.0088205338 0.452573 -0.49471545 0
0.084031105 0.46326923 -0.49310574 0
0.19731998 0.44378877 -0.48969921 0
0.33547592 0.43175566 -0.48831671 0
0.48520947 0.40786636 -0.48485795 0
0.65125942 0.40903437 -0.48847777 0
0.67571068 0.33440071 -0.4695105 0
0.89212608 0.3431012 -0.47448674 0
0.67739105 0.46302074 -0.5024451 0
0.90789795 0.44925207 -0.50185299 0
0.26705837 0.16765153 -0.40191299 0
0.34862614 0.17902386 -0.37246555 0
0.27169132 0.24673939 -0.39677671 0
0.41098881 0.20717925 -0.35696322 0
0.11826801 0.36870974 -0.45300668 0
0.19341946 0.31152958 -0.43323821 0
0.24036121 0.31612694 -0.41267359 0
-0.76490784 -0.46893084 -0.33693063 0
-0.68320847 -0.46072066 -0.34110421 0
-0.57253933 -0.4591524 -0.33905891 0
-0.49928093 -0.49631101 -0.33371228 0
-0.36866283 -0.49020165 -0.33597916 0
-0.78346825 -0.34882927 -0.36453015 0
-0.65159893 -0.36452729 -0.35937917 0
-0.56440544 -0.36077046 -0.35357767 0
-0.48510551 -0.39127433 -0.34687474 0
-0.40079689 -0.38431269 -0.35114357 0
-0.27528763 -0.41787839 -0.3459298 0
-0.2030077 -0.39027065 -0.35569078 0
-0.061707497 -0.43310815 -0.3478815 0
0.066616058 -0.44354218 -0.34779829 0
0.081692696 -0.49648243 -0.34079185 0
0.20527744 -0.47411454 -0.34440941 0
0.35594845 -0.4948923 -0.3411445 0
0.45930481 -0.45421255 -0.35033989 0
-0.76338291 -0.25440878 -0.38277638 0
-0.65499592 -0.26369584 -0.37364048 0
-0.58816528 -0.26680678 -0.36934119 0
-0.4641943 -0.27285337 -0.36314425 0
-0.34604836 -0.30150056 -0.36138043 0
-0.21058464 -0.31034738 -0.363269 0
-0.11073303 -0.30163133 -0.36575061 0
-0.087255478 -0.35965312 -0.35766345 0
0.019558907 -0.34332418 -0.36369243 0
0.17193604 -0.36393952 -0.35846552 0
0.31513405 -0.37896156 -0.35621959 0
0.44861412 -0.36721832 -0.35739669 0
0.49226284 -0.44357771 -0.34499645 0
0.65809917 -0.43511081 -0.35118139 0
0.89122486 -0.44734013 -0.35756981 0
-0.74746704 -0.14135838 -0.39834705 0
-0.67194271 -0.14874727 -0.39191204 0
-0.55775833 -0.18011332 -0.379235 0
-0.45993328 -0.16399503 -0.3795256 0
-0.33626175 -0.19153792 -0.37409699 0
-0.2406683 -0.2164824 -0.37510252 0
-0.14728355 -0.21275222 -0.37788969 0
-0.011585236 -0.20832604 -0.37827665 0
0.0048742294 -0.27450305 -0.37150502 0
0.12902069 -0.25559193 -0.37335914 0
0.26759529 -0.26362252 -0.3718456 0
0.38451004 -0.23938119 -0.37602025 0
0.42275524 -0.30974442 -0.36529154 0
0.56513691 -0.26347256 -0.37338814 0
0.61398697 -0.34313124 -0.36195785 0
0.86064148 -0.38534075 -0.36581591 0
-0.796875 -0.035548568 -0.41754344 0
-0.73376369 -0.052234471 -0.40992785 0
-0.64113045 -0.068405688 -0.40096337 0
-0.54380989 -0.076141655 -0.39327466 0
-0.41180038 -0.088682234 -0.38822865 0
-0.29081917 -0.078561783 -0.39245915 0
-0.26494312 -0.14976197 -0.38369378 0
-0.16253376 -0.13956612 -0.38470015 0
-0.050603867 -0.1111356 -0.39055026 0
0.080539703 -0.12912929 -0.38979775 0
0.19856739 -0.11781508 -0.39241758 0
0.22854233 -0.17535233 -0.38389999 0
0.3609333 -0.1829735 -0.38308349 0
0.53385925 -0.20452368 -0.38042462 0
0.77546787 -0.23523146 -0.38690063 0
-0.78198051 0.03693229 -0.42784205 0
-0.71256828 0.042272627 -0.42414472 0
-0.63713264 0.023145318 -0.41586891 0
-0.52367687 0.018928826 -0.40897232 0
-0.39779854 0.015677333 -0.41070321 0
-0.28774071 -0.023170054 -0.40376216 0
-0.2177372 -0.01243639 -0.4085364 0
-0.17239952 -0.041423142 -0.40209284 0
-0.049472809 -0.026132762 -0.4098652 0
0.064415932 -0.046713471 -0.40124705 0
0.19061756 -0.053094327 -0.40091324 0
0.30011272 -0.055358768 -0.40359458 0
0.33543682 -0.12457281 -0.39090458 0
0.48745155 -0.091301739 -0.39677772 0
0.70057011 -0.091600299 -0.40379545 0
0.98809528 -0.12522113 -0.41067964 0
-0.80985832 0.14483309 -0.44864285 0
-0.72780609 0.14455819 -0.44299039 0
-0.61496258 0.11379939 -0.43102679 0
-0.47297001 0.11011487 -0.43223661 0
-0.38733101 0.090626955 -0.43007118 0
-0.28664112 0.059099495 -0.42500722 0
-0.20223808 0.079869926 -0.43239993 0
-0.077361107 0.099524915 -0.43594834 0
-0.011142731 0.063127577 -0.42395207 0
0.12861252 0.087236464 -0.42519414 0
0.16658115 0.015072942 -0.41200402 0
0.28713512 0.02737242 -0.41464829 0
0.43521595 0.027876854 -0.41688561 0
0.63893127 0.0046584606 -0.41694033 0
0.8962326 -0.0059629083 -0.42806008 0
-0.85448456 0.2532379 -0.47079176 0
-0.8000946 0.25938308 -0.46791002 0
-0.71206188 0.21943808 -0.45539612 0
-0.60676479 0.20550346 -0.45279974 0
-0.50252342 0.22784758 -0.46132153 0
-0.38716793 0.19027424 -0.45565063 0
-0.28521347 0.18860781 -0.45828566 0
-0.19412422 0.18158126 -0.45826036 0
-0.072198868 0.14603627 -0.44356173 0
-0.041618347 0.16553473 -0.43431103 0
0.12019062 0.12235498 -0.43019062 0
0.2431221 0.15890992 -0.4335959 0
0.27502823 0.10436863 -0.4163264 0
0.60224342 0.066315711 -0.42393568 0
0.86888599 0.042612493 -0.43105161 0
-0.85655975 0.37468004 -0.49184543 0
-0.79370785 0.32908046 -0.4803955 0
-0.69406033 0.3274762 -0.48139578 0
-0.59093571 0.3045572 -0.47845092 0
-0.47091579 0.31362808 -0.48428485 0
-0.37166023 0.29492295 -0.48239127 0
-0.27323627 0.27558047 -0.47959727 0
-0.20911407 0.27700806 -0.47584799 0
-0.12089157 0.27616394 -0.46969461 0
-0.034427643 0.26668012 -0.45802897 0
0.094348907 0.26303101 -0.45229429 0
0.16734982 0.25168091 -0.45134684 0
0.79509544 0.12832451 -0.44569156 0
0.99340534 0.11576438 -0.44094434 0
-0.87486839 0.4500457 -0.50719213 0
-0.80773067 0.44617844 -0.50830048 0
-0.68738365 0.41495162 -0.503748 0
-0.57719517 0.40692556 -0.50516129 0
-0.47105885 0.4017269 -0.506603 0
-0.39917374 0.39547157 -0.507936 0
-0.27471542 0.39064372 -0.50012541 0
-0.14244461 0.37402028 -0.48814899 0
-0.079411507 0.38619393 -0.48621979 0
0.052289009 0.33346838 -0.46783984 0
0.86244678 0.28467637 -0.45861715 0
-0.38220215 0.47264415 -0.52220172 0
-0.17389774 0.47983348 -0.50973213 0
-0.077827454 0.44612664 -0.49693662 0
0.0090379715 0.45492995 -0.49280977 0
0.095622063 0.44382983 -0.48723149 0
0.25069904 0.41226822 -0.48175603 0
0.43845463 0.36014658 -0.47273999 0
0.65428352 0.39098167 -0.48185953 0
0.64792919 0.47873032 -0.50437385 0
0.84401131 0.47295862 -0.50567436 0
-0.044588089 0.21395695 -0.42429569 0
0.27077866 0.15522105 -0.40537265 0
0.24318409 0.25989306 -0.41661066 0
0.29335308 0.21743548 -0.3873139 0
0.37216187 0.22468024 -0.36465138 0
0.12011433 0.35266012 -0.45534587 0
0.22014999 0.30935049 -0.41870984 0
0.28153038 0.42939371 -0.48534504 0
0.45018291 0.39166141 -0.47860858 0
0.64632607 0.34726638 -0.47060072 0
0.84358883 0.383587 -0.48270833 0
-0.99365711 -0.39605033 -0.34357119 0
-0.94007301 -0.42594594 -0.3373338 0
-0.84170055 -0.46133554 -0.33141711 0
-0.7298317 -0.45760977 -0.33514184 0
-0.64458561 -0.46299762 -0.33522588 0
-0.53370476 -0.47802693 -0.33261293 0
-0.38545418 -0.44278067 -0.33788431 0
-0.37194157 -0.49318033 -0.33125252 0
-0.27268887 -0.48847955 -0.33364537 0
-0.97823143 -0.33064449 -0.35860556 0
-0.92531109 -0.32077855 -0.36166584 0
-0.8305769 -0.34461993 -0.35845262 0
-0.71336174 -0.36513317 -0.35583723 0
-0.6279707 -0.36604375 -0.3525238 0
-0.49609089 -0.37298566 -0.34361619 0
-0.40699577 -0.37024665 -0.3474952 0
-0.31459618 -0.35382354 -0.35129917 0
-0.2795229 -0.42299789 -0.34011555 0
-0.15396214 -0.42884547 -0.34181544 0
-0.023673058 -0.419083 -0.34512627 0
0.078495979 -0.39359051 -0.35228372 0
0.11822605 -0.46858871 -0.34005961 0
0.23522949 -0.43220198 -0.34513053 0
0.41128063 -0.45014638 -0.34181035 0
-0.9209671 -0.24249625 -0.37935761 0
-0.77920532 -0.23281777 -0.38172743 0
-0.70791531 -0.25778174 -0.37392265 0
-0.60282898 -0.29495114 -0.36020374 0
-0.52642059 -0.25737041 -0.36066407 0
-0.43795395 -0.27070898 -0.36046648 0
-0.3305378 -0.28724104 -0.35877442 0
-0.18887329 -0.32655621 -0.35473514 0
-0.043097496 -0.34769881 -0.35275167 0
0.071256638 -0.33298802 -0.35762948 0
0.20996284 -0.37004662 -0.35351315 0
0.38172531 -0.36945355 -0.35145289 0
0.56161976 -0.40856999 -0.35126221 0
0.77543449 -0.39750588 -0.3567569 0
-0.95217037 -0.12704653 -0.40513054 0
-0.9069109 -0.13785541 -0.40248561 0
-0.81571198 -0.14240634 -0.39797896 0
-0.69726181 -0.16164595 -0.38669127 0
-0.60667896 -0.15901476 -0.38098955 0
-0.49890423 -0.15517676 -0.37491569 0
-0.40065384 -0.19085675 -0.37141883 0
-0.23576832 -0.21893686 -0.36956823 0
-0.10604382 -0.23752838 -0.37021118 0
0.031645775 -0.24344313 -0.37035704 0
0.14579391 -0.20535076 -0.37430319 0
0.1601162 -0.26918238 -0.36840436 0
0.3368206 -0.28952783 -0.36380607 0
0.34488869 -0.26501101 -0.36306578 0
0.48401451 -0.25342816 -0.36967778 0
0.5354166 -0.33604664 -0.3569786 0
0.74940205 -0.32067341 -0.36295795 0
0.97616959 -0.30678189 -0.38298225 0
-0.88584805 -0.041077971 -0.41712701 0
-0.7930336 -0.055262804 -0.40911937 0
-0.69318485 -0.034707606 -0.40504307 0
-0.61529732 -0.067210197 -0.39472154 0
-0.5159483 -0.099966109 -0.38245574 0
-0.38467979 -0.097160161 -0.38076434 0
-0.28653145 -0.093796551 -0.38591817 0
-0.15557861 -0.11172324 -0.38544181 0
-0.016934395 -0.13403368 -0.38458827 0
0.11120605 -0.12391025 -0.38495696 0
0.25611687 -0.11423761 -0.38693514 0
0.2915926 -0.1800319 -0.37691596 0
0.44822979 -0.15514457 -0.3795675 0
0.45459461 -0.19335413 -0.37732336 0
0.67403126 -0.20420182 -0.37997344 0
0.9654398 -0.26758653 -0.38393036 0
-0.94757748 0.068508029 -0.4396559 0
-0.87511444 0.072460473 -0.43545884 0
-0.7674799 0.042023063 -0.42283124 0
-0.68305874 0.046477079 -0.41786626 0
-0.59330177 0.024688303 -0.40798703 0
-0.52627945 0.022401989 -0.40458673 0
-0.41266251 0.028129399 -0.40817699 0
-0.28829575 0.011336505 -0.40745014 0
-0.18024063 -0.016004384 -0.40415198 0
-0.001578331 -0.015313327 -0.4065097 0
0.077087402 -0.0055823922 -0.4023416 0
0.232481 -0.05610007 -0.39667109 0
0.41791248 -0.091333508 -0.3906526 0
0.57909679 -0.070952773 -0.4008441 0
0.8829689 -0.14466685 -0.39995033 0
-0.97196865 0.18540245 -0.46176815 0
-0.87489319 0.15085471 -0.44910693 0
-0.77097893 0.14710212 -0.44136453 0
-0.67589378 0.124542 -0.43100983 0
-0.60162449 0.13446915 -0.43013698 0
-0.45773983 0.10941005 -0.42772299 0
-0.27472782 0.089433551 -0.42761332 0
-0.16665649 0.075834274 -0.42787474 0
-0.052098274 0.063983262 -0.42292094 0
0.056544304 0.0456146 -0.41219234 0
0.17814732 0.092900932 -0.42012352 0
0.19727516 0.027722239 -0.41061243 0
0.36056709 0.020534337 -0.41035739 0
0.55871868 -0.010639608 -0.40518859 0
0.7664814 0.021532238 -0.42100334 0
0.80447769 -0.035803735 -0.41489258 0
-0.94095802 0.25613552 -0.4715775 0
-0.85889435 0.25713474 -0.46651977 0
-0.77778721 0.2514351 -0.46005905 0
-0.69646645 0.22279131 -0.45057738 0
-0.5892458 0.22049677 -0.45196342 0
-0.48912144 0.19609147 -0.44859463 0
-0.38509846 0.19209141 -0.45038497 0
-0.28031063 0.20592308 -0.45748907 0
-0.1818676 0.19549793 -0.4547565 0
-0.077947617 0.17967385 -0.44194886 0
0.14424992 0.15381175 -0.43112534 0
0.50392246 0.088130474 -0.42231339 0
0.74220657 0.065851569 -0.4232896 0
0.9877491 0.065102458 -0.42898908 0
-0.94222069 0.37894011 -0.4929159 0
-0.85161781 0.35797918 -0.4836005 0
-0.78039646 0.35488784 -0.48090056 0
-0.66800594 0.32999545 -0.47784612 0
-0.56825352 0.30955249 -0.47563994 0
-0.49454594 0.31476319 -0.47888142 0
-0.39186764 0.30382019 -0.47890478 0
-0.26314735 0.30858105 -0.47994941 0
-0.14317322 0.27684617 -0.46631441 0
-0.027017593 0.28922135 -0.46054894 0
-0.91979218 0.45226687 -0.50450462 0
-0.84501839 0.45233542 -0.50400019 0
-0.74286366 0.42696011 -0.5004369 0
-0.63024235 0.42673224 -0.50348359 0
-0.5032959 0.41364938 -0.50398618 0
-0.40119934 0.36672169 -0.49488682 0
-0.35636997 0.41331726 -0.50426078 0
-0.24525452 0.39952272 -0.49472573 0
-0.1312952 0.37877434 -0.4832201 0
-0.26987362 0.48759174 -0.51239145 0
-0.16151237 0.47172177 -0.50228107 0
0.29721546 0.086130857 -0.40964624 0
-0.045628548 0.17073458 -0.42627656 0
0.25987434 0.15395093 -0.40741462 0
0.30435562 0.16534722 -0.37714556 0
-0.063346863 0.229101 -0.43788058 0
0.12769222 0.25811559 -0.44325212 0
0.23893547 0.24228978 -0.41261923 0
0.32009125 0.25334883 -0.37013999 0
0.92912865 0.13567764 -0.43826702 0
-0.047283173 0.37514007 -0.47685397 0
0.07348156 0.37453973 -0.46323091 0
0.21107101 0.31122077 -0.42394122 0
0.35894775 0.37658501 -0.46900055 0
0.54900742 0.33241022 -0.46199948 0
-0.12431431 0.4996413 -0.5051102 0
-0.012138367 0.47545701 -0.49310613 0
0.1788063 0.43992627 -0.48193765 0
0.33199787 0.44696641 -0.48616508 0
0.55232811 0.36923814 -0.46912274 0
0.76412582 0.36565691 -0.47205946 0
0.51305103 0.48452085 -0.4975903 0
