# .PCD v0.7 - Point Cloud Data file format
VERSION 0.7
FIELDS x y z intensity
SIZE 4 4 4 4
TYPE F F F F
COUNT 1 1 1 1
WIDTH 1291
HEIGHT 1
VIEWPOINT 0 0 0 1 0 0 0
POINTS 1291
DATA ascii
0.63084149 -0.28743505 -0.12254718 0
0.75174141 0.19569492 -0.09766829 0
0.80931759 0.31723404 -0.10868573 0
0.79364848 0.37716675 -0.13643721 0
0.87391472 0.44909048 -0.12143925 0
0.57209182 -0.31655788 -0.1708657 0
0.54881644 -0.21955252 -0.14660403 0
0.57027531 -0.15952826 -0.11347607 0
0.63289547 0.065685749 -0.1200099 0
0.66455889 0.13943291 -0.13727334 0
0.70256519 0.24919701 -0.14629176 0
0.72471857 0.33994198 -0.16979632 0
0.7812767 0.43532991 -0.16710922 0
0.49827862 -0.11088085 -0.14361697 0
0.48434806 -0.012129307 -0.17520121 0
0.55317068 0.089105606 -0.18956791 0
0.61095619 0.19410944 -0.17474309 0
0.63633323 0.22668934 -0.18624631 0
0.97694254 -0.48703003 -0.035154045 0
0.90927768 -0.46381903 -0.061091185 0
0.91317558 -0.36546707 -0.024159133 0
0.83851385 -0.40258503 -0.087083101 0
0.83830047 -0.32812452 -0.047288716 0
0.9781034 0.20030451 0.010427058 0
0.75647736 -0.29719782 -0.066852063 0
0.75993776 -0.22228146 -0.015431672 0
0.80920291 0.025769711 -0.010631621 0
0.8972733 0.17712355 -0.016260773 0
0.91194105 0.30201197 -0.052953631 0
0.65991116 -0.24554873 -0.069587916 0
0.68602633 -0.17766428 -0.024058521 0
0.68384814 -0.047703743 -0.046152234 0
0.72746515 0.027276993 -0.053282917 0
0.78063869 0.13335228 -0.062518448 0
0.84401155 0.21132851 -0.057825148 0
0.82542562 0.26237583 -0.0848625 0
0.59869385 -0.22219229 -0.064229995 0
0.59920382 -0.14745474 -0.060657144 0
0.64029956 -0.076786041 -0.062657773 0
0.67470503 0.043076038 -0.080694914 0
0.53545117 -0.10940075 -0.082064539 0
0.94599295 -0.33035135 0.021620482 0
0.96441269 -0.26480675 0.078736812 0
0.94766998 -0.18745232 0.071057886 0
0.87220478 -0.22260523 0.037124693 0
0.92116213 -0.1379509 0.095327765 0
0.88809109 -0.060721874 0.059120953 0
0.95351148 0.02347374 0.054639667 0
0.77876329 -0.18886089 0.020776868 0
0.81066871 -0.11649704 0.039251238 0
0.81850743 -0.0074734688 0.014562696 0
0.90718341 0.08809948 0.017156184 0
0.71959376 -0.1710372 0.012789279 0
0.94694877 -0.20660877 0.11645982 0
0.64481616 -0.48680305 -0.30950549 0
0.60961175 -0.41759729 -0.32046178 0
0.60687661 -0.33254862 -0.32515082 0
0.60819769 -0.27729273 -0.32761759 0
0.50078273 -0.41777325 -0.33915776 0
0.51951981 -0.31346989 -0.32613552 0
0.55390549 -0.21952868 -0.32493418 0
0.53792787 -0.14745569 -0.31494668 0
0.37382865 -0.47481918 -0.35023567 0
0.39995408 -0.36207151 -0.34935862 0
0.40657949 -0.29277468 -0.34951562 0
0.46069217 -0.20945787 -0.34540009 0
0.500494 -0.080715179 -0.32821161 0
0.49179387 0.011217117 -0.32724258 0
0.26719928 -0.45001841 -0.36013693 0
0.30968809 -0.35437393 -0.35751519 0
0.32281661 -0.25107193 -0.35742623 0
0.37486768 -0.1481514 -0.35397276 0
0.37119603 -0.099205971 -0.35457036 0
0.41998744 0.033968925 -0.34650931 0
0.45760012 0.12319136 -0.32781798 0
0.4377048 0.19895506 -0.31868702 0
0.49611831 0.33619833 -0.3165023 0
0.53984404 0.41740131 -0.32095155 0
0.18639445 -0.41907024 -0.36735073 0
0.19329166 -0.32951593 -0.36738047 0
0.23974752 -0.24259424 -0.36475152 0
0.26962376 -0.12243795 -0.36336851 0
0.28924322 -0.04210043 -0.36298528 0
0.32774758 0.058663368 -0.36000264 0
0.34814095 0.18264055 -0.35999802 0
0.38019466 0.24584675 -0.35738149 0
0.43781018 0.34698772 -0.35143283 0
0.41119695 0.44149208 -0.35728055 0
0.046879768 -0.43434477 -0.36978614 0
0.10459876 -0.3980031 -0.36963391 0
0.088903189 -0.32843304 -0.36877209 0
0.14216256 -0.2167244 -0.36719483 0
0.17228794 -0.099383354 -0.36559254 0
0.20096803 0.0098490715 -0.36403644 0
0.25029898 0.061319828 -0.3620171 0
0.22502255 0.1470685 -0.36203948 0
0.28496599 0.24569511 -0.3605873 0
0.30013824 0.34088421 -0.35888469 0
0.35119605 0.46931887 -0.35696617 0
-0.00588274 -0.34565163 -0.3694638 0
0.029484987 -0.25004816 -0.368388 0
0.046176195 -0.17191648 -0.3671124 0
0.084957838 -0.073485374 -0.36538509 0
0.05529952 0.0065584183 -0.36440733 0
0.12481117 0.091257095 -0.36318967 0
0.15775657 0.18399382 -0.36167192 0
0.19070411 0.28443575 -0.36006612 0
0.23139548 0.39439917 -0.35860509 0
-0.088097334 -0.25797081 -0.36897191 0
-0.042925835 -0.14117622 -0.3674382 0
-0.018068314 -0.059843063 -0.36584792 0
-0.0026562214 0.041987419 -0.36464703 0
0.042716265 0.12898111 -0.36276111 0
0.077457905 0.25777578 -0.36138734 0
0.10623693 0.36322117 -0.35980728 0
0.15252018 0.43336391 -0.35828334 0
-0.16365504 -0.17598677 -0.36800388 0
-0.14049363 -0.11580992 -0.36646795 0
-0.10533166 -0.021235466 -0.36546868 0
-0.078760624 0.090760231 -0.36399779 0
-0.065006495 0.17821026 -0.36249563 0
-0.014010191 0.25936747 -0.36146212 0
-0.045473814 0.3475256 -0.35974982 0
0.036724567 0.42264128 -0.35935724 0
-0.25380802 -0.1517849 -0.36558291 0
-0.23373747 -0.072782516 -0.36481565 0
-0.21208549 0.011817932 -0.3632834 0
-0.18044925 0.097014427 -0.3623428 0
-0.16103721 0.18211842 -0.36110398 0
-0.14118052 0.27933598 -0.35953391 0
-0.10164022 0.38124418 -0.35836887 0
-0.060292482 0.48422909 -0.35712087 0
-0.32598066 -0.06887722 -0.36304158 0
-0.3087275 0.050440788 -0.36139235 0
-0.25939107 0.15820408 -0.36037284 0
-0.25132298 0.21261549 -0.35890371 0
-0.22701931 0.33100224 -0.35746467 0
-0.19637823 0.41100788 -0.35613135 0
-0.4252882 -0.035636902 -0.3612394 0
-0.39368486 0.064930439 -0.3600111 0
-0.3701551 0.12468815 -0.35884559 0
-0.35155654 0.24989843 -0.35720769 0
-0.30560732 0.34748936 -0.35566261 0
-0.29184365 0.45804596 -0.35395902 0
-0.51379442 0.0035099983 -0.35976642 0
-0.50939441 0.071912289 -0.357851 0
-0.4665761 0.19097137 -0.3563841 0
-0.44410396 0.30098009 -0.35451204 0
-0.40094829 0.3887434 -0.35354951 0
-0.34810114 0.48734474 -0.35272008 0
-0.60263538 0.05881691 -0.35866752 0
-0.60006762 0.11500788 -0.35719272 0
-0.5628674 0.21391916 -0.35454902 0
-0.53532648 0.33370495 -0.35257187 0
-0.51608109 0.41439438 -0.35112235 0
-0.7110045 0.094630241 -0.35747409 0
-0.68631625 0.15435314 -0.35628316 0
-0.67204285 0.24364042 -0.35342166 0
-0.61862183 0.33686066 -0.35196915 0
-0.61473155 0.42552567 -0.35005543 0
-0.80768609 0.11057711 -0.3565498 0
-0.79765868 0.18118429 -0.35471383 0
-0.77054501 0.2534318 -0.35302603 0
-0.73238111 0.35727787 -0.35058272 0
-0.68506575 0.47785616 -0.34809291 0
-0.90145802 0.15341139 -0.35584986 0
-0.86534047 0.23567724 -0.35357422 0
-0.87242413 0.31959629 -0.35091871 0
-0.80873227 0.39833355 -0.34927478 0
-0.78440666 0.49520111 -0.34657741 0
-0.99599409 0.14906788 -0.35518128 0
-0.97723103 0.21393204 -0.35392633 0
-0.94276452 0.32045937 -0.35100144 0
-0.91855216 0.4352212 -0.34805304 0
0.66576219 -0.48795843 -0.23492122 0
0.63330412 -0.43847609 -0.24768761 0
0.60809541 -0.3586812 -0.24707794 0
0.60147381 -0.28800297 -0.2456907 0
0.56257772 -0.29531717 -0.22495967 0
0.55002546 -0.21557379 -0.24502712 0
0.68471932 0.35214424 -0.19876701 0
0.50092626 -0.10113955 -0.24234796 0
0.48021984 0.0035099983 -0.25943285 0
0.5351181 0.11831713 -0.2130639 0
0.55774236 0.18055201 -0.22081715 0
0.59806609 0.3065505 -0.23272544 0
0.63382626 0.38384199 -0.24878311 0
0.46375227 0.042076588 -0.23100424 0
0.4530859 0.11213541 -0.24791417 0
0.47937369 0.21922302 -0.27617669 0
0.79133534 -0.48542929 -0.14733115 0
0.78970575 -0.41548443 -0.12221622 0
0.71610904 -0.45783138 -0.17307588 0
0.71299458 -0.37795687 -0.12944505 0
0.62643456 -0.34740639 -0.15711376 0
0.6413815 -0.25939083 -0.10661626 0
0.79156327 0.25125599 -0.093203425 0
0.81674767 0.3340497 -0.11229515 0
0.8397162 0.43343687 -0.13162699 0
0.57688951 -0.28798342 -0.14769301 0
0.54835582 -0.22481394 -0.14239356 0
0.53560352 -0.14377069 -0.094849646 0
0.63449049 0.064796448 -0.11809325 0
0.67159748 0.14096975 -0.12822774 0
0.69542432 0.24153852 -0.15053689 0
0.75428581 0.3451395 -0.14766234 0
0.74374557 0.41633463 -0.18004903 0
0.8227632 0.49965811 -0.16243264 0
0.5040071 -0.17630339 -0.13772225 0
0.48901796 -0.10990143 -0.14826313 0
0.47642779 -0.017082691 -0.16607399 0
0.59579182 0.11947489 -0.17163154 0
0.64190817 0.24352074 -0.18485513 0
0.46098518 0.013767242 -0.16787526 0
0.98182821 -0.48337126 -0.01866129 0
0.90614486 -0.43750334 -0.041063428 0
0.91954589 -0.35794353 -0.00017604232 0
0.83386827 -0.46813345 -0.086010814 0
0.83019686 -0.4121151 -0.072862566 0
0.83571267 -0.30467129 -0.034631908 0
0.92882061 0.13291454 0.0080422759 0
0.74316883 -0.28081131 -0.04884854 0
0.78284883 -0.2145381 0.0045262575 0
0.77548075 -0.016423702 -0.0010630786 0
0.82883191 0.11130905 -0.021894902 0
0.8848877 0.2396512 -0.044669777 0
0.91987753 0.25522995 -0.017056495 0
0.65038753 -0.24812603 -0.060488671 0
0.67090821 -0.17004776 -0.01903519 0
0.7046206 -0.069238663 -0.020174712 0
0.7510612 0.04569006 -0.040927768 0
0.73325777 0.15848207 -0.081919968 0
0.80301762 0.19242477 -0.063206464 0
0.88293219 0.35358143 -0.075306803 0
0.60492849 -0.22192478 -0.075654358 0
0.56886053 -0.16510153 -0.068313152 0
0.6334312 -0.050571918 -0.076533586 0
0.68118548 0.028448582 -0.073043793 0
0.95486736 -0.33193398 0.039451182 0
0.95887232 -0.24488783 0.078775555 0
0.85554957 -0.28591633 0.022565603 0
0.88041997 -0.22208643 0.056023896 0
0.90885115 -0.14064264 0.07758683 0
0.91147971 -0.0066289902 0.053612381 0
0.98611546 0.14810181 0.03400442 0
0.78455877 -0.18846703 0.03108871 0
0.81305599 -0.080312252 0.033582121 0
0.86434555 0.033922672 0.014464349 0
0.97632217 -0.20685625 0.11583692 0
0.67921305 -0.48905134 -0.29860109 0
0.60608387 -0.44865561 -0.3167519 0
0.60842347 -0.33993101 -0.31447437 0
0.47630358 -0.49720383 -0.34171787 0
0.49712467 -0.405931 -0.34067839 0
0.53425145 -0.31325102 -0.33835325 0
0.57896566 -0.24005604 -0.31685677 0
0.55014729 -0.14466906 -0.3260999 0
0.36755729 -0.48346663 -0.3519617 0
0.38712764 -0.40187645 -0.35105681 0
0.43784904 -0.28810692 -0.34770921 0
0.45227408 -0.15875959 -0.34808993 0
0.5159874 -0.1100297 -0.32999039 0
0.49469757 -0.018568993 -0.3226403 0
0.27259493 -0.46145487 -0.3606171 0
0.31745481 -0.35425901 -0.3578684 0
0.31918192 -0.28165102 -0.35849547 0
0.3765285 -0.18443346 -0.35463989 0
0.38316703 -0.091593742 -0.35497454 0
0.45574832 0.045140743 -0.35011086 0
0.4611423 0.11359501 -0.32699898 0
0.43944812 0.18790007 -0.31858879 0
0.48465705 0.32984209 -0.32496351 0
0.55110073 0.3577199 -0.29543245 0
0.5725081 0.46918821 -0.32560372 0
0.17836523 -0.43483019 -0.3690106 0
0.21986699 -0.34823942 -0.36641264 0
0.24529672 -0.2483964 -0.36553979 0
0.24836946 -0.11888504 -0.36594182 0
0.29716277 -0.070890427 -0.36269906 0
0.32794261 0.052418709 -0.36121044 0
0.37493086 0.16143036 -0.35852727 0
0.43321967 0.23426342 -0.32048693 0
0.41385245 0.31185865 -0.35586774 0
0.47447205 0.4778862 -0.35453954 0
0.048704147 -0.49431515 -0.37205511 0
0.096585989 -0.39198685 -0.37021852 0
0.11596107 -0.30289841 -0.36891636 0
0.17507529 -0.20623875 -0.36763057 0
0.16799188 -0.11809778 -0.36677188 0
0.20267844 -0.039794445 -0.36513764 0
0.23481536 0.067913532 -0.36355206 0
0.22890282 0.1632309 -0.36275765 0
0.2944901 0.25909376 -0.36083522 0
0.35087681 0.41853189 -0.35887945 0
-0.031499624 -0.47916079 -0.37218395 0
-0.024102688 -0.39257383 -0.37126407 0
0.028637886 -0.287076 -0.36950955 0
0.022213697 -0.17493391 -0.36854583 0
0.083613396 -0.096632481 -0.36674479 0
0.084913015 -0.013130188 -0.36550221 0
0.1346488 0.080028057 -0.36398375 0
0.17482924 0.20064783 -0.36254707 0
0.22156405 0.31494904 -0.36058789 0
0.24613309 0.46850348 -0.35849109 0
-0.13105631 -0.44412661 -0.37266609 0
-0.10954404 -0.36008501 -0.37136838 0
-0.082235575 -0.24935293 -0.36988673 0
-0.053398132 -0.13222933 -0.36819795 0
-0.0084671974 -0.038512707 -0.36684439 0
0.021281242 0.063364029 -0.36536929 0
0.052892208 0.15467358 -0.36376151 0
0.10357118 0.24843168 -0.3623234 0
0.04997921 0.32706785 -0.36232829 0
0.12248778 0.40316725 -0.36039293 0
-0.22053313 -0.39158726 -0.37195513 0
-0.19625068 -0.30419493 -0.37084278 0
-0.16397214 -0.2309165 -0.36952728 0
-0.16727042 -0.13085938 -0.36754397 0
-0.11298037 -0.033658981 -0.36635187 0
-0.064967155 0.072896004 -0.36503679 0
-0.0060472488 0.18029976 -0.36356553 0
-0.05770731 0.22857618 -0.36255273 0
-0.014203787 0.32862234 -0.36141083 0
0.018425703 0.46167517 -0.35940486 0
-0.29327703 -0.28906679 -0.3691442 0
-0.2708652 -0.17902851 -0.36721173 0
-0.23481202 -0.090191841 -0.36638677 0
-0.21497464 -0.015213966 -0.36516878 0
-0.16511154 0.096080303 -0.36362258 0
-0.17458153 0.17570257 -0.36199191 0
-0.13462257 0.27721882 -0.36071667 0
-0.096131325 0.35256195 -0.35948062 0
-0.043017149 0.48977852 -0.35797665 0
-0.38327503 -0.2734108 -0.36727828 0
-0.3806057 -0.17420292 -0.36533514 0
-0.32892585 -0.073336124 -0.36451459 0
-0.30111289 0.030468941 -0.36309144 0
-0.27149844 0.096689701 -0.36180276 0
-0.22837901 0.22775936 -0.36072519 0
-0.21330333 0.33000565 -0.35890219 0
-0.18590808 0.37562609 -0.35743731 0
-0.47032666 -0.2270813 -0.36518565 0
-0.48873186 -0.1674614 -0.36375183 0
-0.423738 -0.062320709 -0.36296627 0
-0.40859652 0.035270214 -0.36127168 0
-0.3791275 0.15217924 -0.35935685 0
-0.33478403 0.23897314 -0.35834199 0
-0.30093384 0.33269739 -0.35696024 0
-0.28272939 0.43688488 -0.35532078 0
-0.55528617 -0.20837831 -0.36462539 0
-0.55400395 -0.111341 -0.36363214 0
-0.52872491 0.0002655983 -0.36109748 0
-0.50022244 0.1072855 -0.35869291 0
-0.47107697 0.20860291 -0.35736451 0
-0.4284606 0.2818799 -0.35631895 0
-0.40242791 0.37196589 -0.35480136 0
-0.38910484 0.47897339 -0.35308766 0
-0.67422342 -0.15518999 -0.3644101 0
-0.66055298 -0.086414814 -0.3636519 0
-0.63317156 0.014655113 -0.36030883 0
-0.58907533 0.11611748 -0.35818818 0
-0.52835417 0.22230434 -0.35616872 0
-0.54129267 0.29165888 -0.3544732 0
-0.50582695 0.40904093 -0.35269269 0
-0.48651838 0.48451519 -0.35111788 0
-0.7611599 -0.070466995 -0.36261135 0
-0.7228837 0.035720348 -0.36025625 0
-0.69071746 0.15239096 -0.35732347 0
-0.65068841 0.2328186 -0.35437384 0
-0.62884402 0.3469677 -0.35228619 0
-0.59179378 0.42327309 -0.35100299 0
-0.81118894 -0.087669373 -0.36333749 0
-0.85471272 -0.027546883 -0.36181715 0
-0.81537461 0.083595753 -0.35840315 0
-0.76979947 0.19954967 -0.35581455 0
-0.75572705 0.2877264 -0.3535293 0
-0.72460866 0.37733889 -0.35130993 0
-0.69222641 0.46809673 -0.34935242 0
-0.97552681 -0.061360359 -0.36201176 0
-0.9239471 -0.0034179688 -0.36151528 0
-0.91173458 0.10419559 -0.3580372 0
-0.88306594 0.18459177 -0.35573414 0
-0.85092616 0.31875801 -0.3528522 0
-0.82947755 0.39113665 -0.35051081 0
-0.80364227 0.46524382 -0.34805062 0
-0.99602842 0.10951805 -0.35820094 0
-0.98277807 0.22545004 -0.3551704 0
-0.95307469 0.31766129 -0.35216698 0
-0.92812586 0.4158783 -0.34992647 0
0.67792678 -0.48896933 -0.23499164 0
0.63349175 -0.44752741 -0.24448544 0
0.61132073 -0.35336208 -0.23445895 0
0.60928321 -0.29320431 -0.27886012 0
0.56480694 -0.22898006 -0.24297139 0
0.54819179 -0.15532064 -0.28678873 0
0.69624615 0.36512852 -0.19648215 0
0.52126431 -0.10411263 -0.24391189 0
0.49122763 -0.020236969 -0.23740891 0
0.58348179 0.16244936 -0.20055163 0
0.57204819 0.27599478 -0.24474424 0
0.63568044 0.35150099 -0.23179975 0
0.65885663 0.45683432 -0.25850359 0
0.46804476 0.04461813 -0.28037173 0
0.45951009 0.085356712 -0.24143651 0
0.50434208 0.23269701 -0.27628806 0
0.79906774 -0.4383316 -0.12402615 0
0.70382786 -0.46553898 -0.17596313 0
0.7243433 -0.38866377 -0.12884203 0
0.73957658 -0.3183856 -0.099060237 0
0.62501383 -0.35700035 -0.16411056 0
0.64026976 -0.27804089 -0.11734423 0
0.80555272 0.32981873 -0.11809197 0
0.56432891 -0.3213644 -0.18134794 0
0.55670214 -0.23430204 -0.1383031 0
0.53248119 -0.17552042 -0.16333048 0
0.64394498 0.057335377 -0.11610702 0
0.65707469 0.16485357 -0.15108404 0
0.69831419 0.22685909 -0.1390065 0
0.74570894 0.33557034 -0.15464619 0
0.76393723 0.41804934 -0.17863303 0
0.50070333 -0.12077236 -0.1453653 0
0.47046924 -0.047249317 -0.17144173 0
0.59302115 0.10184288 -0.16759512 0
0.98257852 -0.41472769 -0.012591392 0
0.91393757 -0.44519949 -0.049103856 0
0.91275191 -0.36440134 -0.019648373 0
0.834517 -0.40422201 -0.081865817 0
0.83794284 -0.3415122 -0.046133846 0
0.82799411 -0.24676657 -0.0094252527 0
0.96381021 0.22168636 -0.0083821714 0
0.73735237 -0.28911877 -0.054265201 0
0.78063369 -0.23257732 -0.015854865 0
0.78697252 -0.080652714 0.0087944269 0
0.85176635 0.064899445 -0.011532098 0
0.9273541 0.27585602 -0.033706576 0
0.92307019 0.360075 -0.06681338 0
0.66156006 -0.23518658 -0.06318742 0
0.6757257 -0.18396807 -0.020192832 0
0.69558406 -0.074232101 -0.020726979 0
0.730299 -0.0073113441 -0.040599197 0
0.73677826 0.095592022 -0.072918922 0
0.81404901 0.18708658 -0.068861276 0
0.56505609 -0.19293022 -0.072866738 0
0.57609463 -0.1606102 -0.067857534 0
0.96268725 -0.3565464 0.0095012486 0
0.95596147 -0.28022575 0.050082654 0
0.94856119 -0.19619846 0.060895622 0
0.88020039 -0.31965399 0.011131883 0
0.85046816 -0.22851658 0.037551135 0
0.90166235 -0.14690018 0.074742794 0
0.94895172 -0.017315388 0.071235359 0
0.90846252 0.056106567 0.029016048 0
0.77893066 -0.19728279 0.022668421 0
0.82861829 -0.093464851 0.035051197 0
0.72512746 -0.15331745 0.015385568 0
0.98665547 -0.17448711 0.12412199 0
0.68310285 -0.48875237 -0.30190375 0
0.63406515 -0.42826557 -0.3118737 0
0.62119889 -0.34152699 -0.30502388 0
0.520751 -0.39099836 -0.33788997 0
0.59432864 -0.33585978 -0.32161498 0
0.57078886 -0.22596121 -0.32422706 0
0.39424872 -0.45841503 -0.34858027 0
0.42408729 -0.38994503 -0.34676892 0
0.48626018 -0.29328775 -0.34228602 0
0.51185441 -0.19567823 -0.33403802 0
0.5103519 -0.084963322 -0.32250604 0
0.30782413 -0.44698381 -0.35641176 0
0.33296108 -0.33953428 -0.35546413 0
0.34765506 -0.23563099 -0.35547429 0
0.40650535 -0.15937281 -0.35087118 0
0.44959545 -0.044764042 -0.34811908 0
0.485847 0.025577068 -0.3078317 0
0.47267032 0.12311888 -0.33436316 0
0.48905897 0.28527021 -0.31041494 0
0.55877662 0.42927361 -0.31730518 0
0.21730065 -0.4149785 -0.36499485 0
0.24864554 -0.3200593 -0.36334157 0
0.26579547 -0.20277739 -0.36358899 0
0.29854774 -0.16140652 -0.36067072 0
0.33720064 -0.032824993 -0.35861316 0
0.38803983 0.088774204 -0.35539263 0
0.4397614 0.25982618 -0.33911234 0
0.47876358 0.36895466 -0.34897575 0
0.45941162 0.43644047 -0.35319066 0
0.085940361 -0.47053432 -0.37018588 0
0.12712145 -0.36623049 -0.36878926 0
0.16353536 -0.27979326 -0.36726102 0
0.20110011 -0.19931269 -0.36560166 0
0.22052407 -0.10857964 -0.36460429 0
0.23746395 0.0051836967 -0.36304736 0
0.25145793 0.13384628 -0.36219689 0
0.33118057 0.19232321 -0.3601515 0
0.29412055 0.24274588 -0.36005971 0
0.36366701 0.35461426 -0.35795918 0
0.39519191 0.47712135 -0.35566232 0
-0.010229111 -0.44553614 -0.37027723 0
0.0023066998 -0.32874393 -0.36889824 0
0.070108891 -0.27715921 -0.36788765 0
0.05143857 -0.194067 -0.36667222 0
0.10472822 -0.098706722 -0.36520323 0
0.14440393 0.0095148087 -0.36375031 0
0.1805861 0.083555222 -0.36164615 0
0.23378587 0.26915836 -0.35980147 0
0.2747283 0.38796949 -0.35758126 0
-0.10799408 -0.44082022 -0.37089354 0
-0.088576078 -0.32640839 -0.3697615 0
-0.042329073 -0.23270559 -0.36791492 0
-0.007049799 -0.11065531 -0.36654383 0
0.020112038 -0.035462856 -0.36488262 0
0.070413589 0.056424141 -0.36346179 0
0.073054075 0.14625883 -0.36250395 0
0.076393366 0.23637295 -0.36155438 0
0.15160036 0.33300829 -0.35958481 0
0.1883111 0.45747137 -0.35738784 0
-0.21733594 -0.47976542 -0.3719357 0
-0.1985929 -0.3840394 -0.3703343 0
-0.14878392 -0.26878595 -0.36870414 0
-0.12703919 -0.19118977 -0.36783674 0
-0.097342014 -0.072470665 -0.36582592 0
-0.039690971 0.077273846 -0.36420536 0
-0.059002876 0.1542387 -0.36255667 0
-0.0039634705 0.27807093 -0.36099818 0
0.073023558 0.40089321 -0.3594645 0
0.12525105 0.49760294 -0.3572579 0
-0.31687927 -0.43537378 -0.36985925 0
-0.300524 -0.36367607 -0.36861482 0
-0.25685215 -0.26295042 -0.36757421 0
-0.22690439 -0.18933868 -0.36701107 0
-0.22527528 -0.10920906 -0.36502168 0
-0.18332219 0.00097417831 -0.3639228 0
-0.14339304 0.084534168 -0.36267617 0
-0.12226248 0.18193436 -0.36104125 0
-0.091030359 0.32418203 -0.35905513 0
-0.019638777 0.42190218 -0.35785848 0
-0.39506602 -0.49788713 -0.36950243 0
-0.41232419 -0.41561127 -0.36821431 0
-0.40839005 -0.33130312 -0.36644122 0
-0.35814166 -0.24990082 -0.36587709 0
-0.33102059 -0.15236568 -0.36444959 0
-0.31643701 -0.062771797 -0.36281449 0
-0.28203535 0.027228355 -0.3615821 0
-0.24240208 0.13481236 -0.36033258 0
-0.20555305 0.21499252 -0.35909861 0
-0.18356705 0.34874678 -0.35694864 0
-0.13837457 0.45828819 -0.35516465 0
-0.08876276 0.46834469 -0.3562631 0
-0.48560476 -0.46721697 -0.36723953 0
-0.50443125 -0.38569498 -0.36621794 0
-0.49375629 -0.29086113 -0.36464429 0
-0.43478632 -0.21858454 -0.36364859 0
-0.4335146 -0.12252426 -0.36244854 0
-0.38603902 -0.019832611 -0.36119074 0
-0.38166475 0.065984249 -0.35930124 0
-0.32739902 0.14831495 -0.35841122 0
-0.28929114 0.25410366 -0.3572126 0
-0.27815461 0.365345 -0.35487172 0
-0.59807277 -0.36804819 -0.36553743 0
-0.56993842 -0.25649595 -0.36397079 0
-0.53339124 -0.14884758 -0.36235204 0
-0.5396564 -0.091844082 -0.36141145 0
-0.4759481 0.023017883 -0.3594563 0
-0.45167994 0.11747408 -0.35775718 0
-0.42202735 0.21716118 -0.35633358 0
-0.39244056 0.30397272 -0.35497633 0
-0.36315346 0.40929699 -0.35305855 0
-0.68966365 -0.34432125 -0.36546275 0
-0.68260026 -0.23586178 -0.36454624 0
-0.63995624 -0.14623642 -0.36295184 0
-0.60569954 -0.098355293 -0.36026278 0
-0.5892787 0.036375046 -0.35891119 0
-0.54807782 0.15127707 -0.35602263 0
-0.52658629 0.24311256 -0.35414457 0
-0.50347543 0.31677675 -0.35267222 0
-0.44844151 0.45191097 -0.35130185 0
-0.77485919 -0.27923441 -0.36563733 0
-0.78244352 -0.17975998 -0.36354342 0
-0.7264173 -0.12185097 -0.36241448 0
-0.69992757 -0.0023317337 -0.35936758 0
-0.66232109 0.094944954 -0.3573305 0
-0.6524899 0.15289307 -0.35484505 0
-0.60880923 0.26600409 -0.35267401 0
-0.59055638 0.35447454 -0.35093766 0
-0.53737378 0.48364639 -0.34953454 0
-0.87299204 -0.26359844 -0.36552626 0
-0.84373951 -0.16145802 -0.36350468 0
-0.8511312 -0.07813406 -0.36133292 0
-0.79696369 -0.0062112808 -0.35947275 0
-0.7605269 0.10878754 -0.35638043 0
-0.74875569 0.19714355 -0.35401094 0
-0.71111894 0.30227423 -0.35106048 0
-0.69437408 0.38589525 -0.34937453 0
-0.65498543 0.48577118 -0.34776652 0
-0.98013854 -0.21288157 -0.3638905 0
-0.94829106 -0.14365578 -0.3626869 0
-0.90545607 -0.066627026 -0.36052594 0
-0.90469146 0.029250145 -0.3586221 0
-0.8699367 0.1366272 -0.35615036 0
-0.84831452 0.22443342 -0.3532266 0
-0.81551671 0.31728125 -0.35089767 0
-0.81079292 0.38287115 -0.34837583 0
-0.99507213 0.079189777 -0.35701808 0
-0.97045588 0.17267752 -0.35487139 0
-0.92874837 0.24254227 -0.35268393 0
-0.89683795 0.34009886 -0.35034993 0
-0.89300728 0.41572094 -0.34787309 0
-0.9740386 0.45410013 -0.34747136 0
0.69437528 -0.49216938 -0.22684655 0
0.6366663 -0.42705202 -0.24875975 0
0.61985159 -0.36298132 -0.23421916 0
0.58525181 -0.30646753 -0.23655182 0
0.56516457 -0.22417259 -0.25364718 0
0.52811766 -0.16696501 -0.2383734 0
0.51635122 -0.077866554 -0.25122207 0
0.59021163 0.2141242 -0.2142438 0
0.6473856 0.31217051 -0.2116634 0
0.67270923 0.36913443 -0.2205677 0
0.70960927 0.45753813 -0.23231375 0
0.47313833 -0.050782681 -0.20839477 0
0.47575426 0.026700974 -0.24700215 0
0.45786572 0.11165619 -0.25730649 0
0.57525015 0.32612276 -0.26104319 0
0.63761663 0.49608946 -0.28319028 0
0.44437337 0.16035557 -0.27606407 0
0.79956388 -0.43333292 -0.1289452 0
0.72417593 -0.44677925 -0.16783682 0
0.75352073 -0.39902592 -0.12793463 0
0.65037465 -0.40921497 -0.18239629 0
0.64987111 -0.360466 -0.14708418 0
0.66824651 -0.29611874 -0.11228406 0
0.83770633 0.34345293 -0.11031511 0
0.57966042 -0.2982955 -0.1626299 0
0.57111168 -0.23099804 -0.13483897 0
0.65401673 0.12548447 -0.14219022 0
0.714077 0.1638732 -0.11221331 0
0.73170137 0.34865999 -0.15838653 0
0.81886148 0.48157644 -0.1606082 0
0.51649189 -0.17813301 -0.14551586 0
0.49129915 -0.10763121 -0.15283063 0
0.60043144 0.098510742 -0.16245449 0
0.66152549 0.25607109 -0.17769286 0
0.46943521 -0.03160429 -0.16856979 0
0.99204206 -0.48442888 -0.01329571 0
0.93591452 -0.43494797 -0.024748415 0
0.9246819 -0.35861874 -0.0016196668 0
0.85019302 -0.46212864 -0.096720695 0
0.85742402 -0.39528036 -0.064487338 0
0.8621285 -0.30441999 -0.018257439 0
0.75902963 -0.35245037 -0.094811141 0
0.77883291 -0.28244543 -0.033957928 0
0.89023638 0.16643238 -0.016681254 0
0.65226269 -0.30373049 -0.09069407 0
0.69042063 -0.25268316 -0.055087328 0
0.70108771 -0.15809822 -0.010616928 0
0.79066372 -0.00048303604 -0.006180793 0
0.78012896 0.10807514 -0.049266517 0
0.86034203 0.1750412 -0.043734103 0
0.85756159 0.28931427 -0.077099055 0
0.60771036 -0.21150827 -0.070489764 0
0.60967779 -0.15151358 -0.041343093 0
0.67250466 -0.073335171 -0.050476819 0
0.68399978 0.039819241 -0.084051818 0
0.53563571 -0.17182636 -0.089001417 0
0.53670216 -0.12401104 -0.077034086 0
0.98659348 -0.35606861 0.050177455 0
0.98354864 -0.25596333 0.076834887 0
0.89949226 -0.28888464 0.025100231 0
0.91790581 -0.20660067 0.077608615 0
0.88519788 -0.12161064 0.078480005 0
0.93856025 0.022318363 0.044640392 0
0.99637604 0.036626339 0.073257864 0
0.78722763 -0.23062754 0.027874827 0
0.84170437 -0.16691589 0.039603263 0
0.85442472 -0.095088005 0.050362349 0
0.83310533 -0.024707794 0.021583408 0
0.91087747 0.085502625 0.014732957 0
0.7522223 -0.14432764 0.028714687 0
0.6837163 -0.4492569 -0.30398324 0
0.63021064 -0.39662123 -0.31340793 0
0.66098046 -0.37328911 -0.31271037 0
0.52013779 -0.46177435 -0.33735549 0
0.53089404 -0.39146423 -0.33687365 0
0.57712245 -0.28516579 -0.32694235 0
0.55685472 -0.20615721 -0.31936738 0
0.4371841 -0.46093607 -0.34526265 0
0.4443202 -0.35681629 -0.34584698 0
0.44748259 -0.271451 -0.34640834 0
0.51498246 -0.1907444 -0.34108934 0
0.51965785 -0.074518681 -0.3185508 0
0.5115962 0.0041255951 -0.33265087 0
0.28899336 -0.48404169 -0.35829535 0
0.29022932 -0.42999697 -0.35862437 0
0.36125636 -0.31506443 -0.35379702 0
0.41741443 -0.19943571 -0.35006669 0
0.37474012 -0.14426279 -0.35440695 0
0.45830226 -0.045604706 -0.34815913 0
0.46509004 0.037455082 -0.32750016 0
0.46470332 0.14668989 -0.33748588 0
0.54878664 0.43682289 -0.32925123 0
0.19634342 -0.40055132 -0.3675704 0
0.23882341 -0.29728699 -0.36496893 0
0.28658009 -0.19371128 -0.3618837 0
0.33736682 -0.074567795 -0.35862786 0
0.31239533 -0.0073337555 -0.36185014 0
0.37183332 0.072669983 -0.35711795 0
0.43782783 0.21016359 -0.3383978 0
0.41895604 0.23220873 -0.32459036 0
0.46790791 0.37310934 -0.34813643 0
0.10070705 -0.46727943 -0.37079465 0
0.12196922 -0.35478401 -0.36914667 0
0.16466045 -0.20656776 -0.36710387 0
0.20707369 -0.10671759 -0.36508173 0
0.25594974 0.017185688 -0.36302012 0
0.30824327 0.1811533 -0.36096925 0
0.34423065 0.31752682 -0.35874847 0
-0.0049545765 -0.42915535 -0.37066001 0
0.052522421 -0.33490801 -0.36906996 0
0.039258242 -0.24455309 -0.36820042 0
0.089082956 -0.15732813 -0.36676562 0
0.1315968 -0.051669121 -0.36479276 0
0.17877698 0.097222805 -0.36282611 0
0.22928596 0.25207853 -0.36076781 0
0.26015401 0.41369104 -0.35864064 0
-0.095458508 -0.41418839 -0.37089705 0
-0.067716837 -0.31653309 -0.36941898 0
-0.032663345 -0.18559599 -0.36797076 0
0.018368006 -0.10916281 -0.36651716 0
0.027186394 -0.0072717667 -0.36521918 0
-0.0013389587 0.050156116 -0.36444411 0
0.098492622 0.15348339 -0.36261001 0
0.13687468 0.29549646 -0.36049283 0
0.16498351 0.44782877 -0.3583599 0
-0.22389174 -0.45504045 -0.37201428 0
-0.17986941 -0.36139441 -0.37027016 0
-0.14985871 -0.2458992 -0.3687529 0
-0.11263418 -0.18176746 -0.36853552 0
-0.11587191 -0.085501671 -0.36683992 0
-0.11364532 -0.011915684 -0.36550787 0
-0.063660145 0.082942486 -0.36393303 0
-0.0057337284 0.21741629 -0.36209217 0
0.055953741 0.37017727 -0.36035147 0
-0.32797742 -0.43348122 -0.36995348 0
-0.28320551 -0.35369444 -0.36924085 0
-0.23652458 -0.26463413 -0.36798534 0
-0.25748205 -0.17288637 -0.3664048 0
-0.21632147 -0.070447445 -0.36518955 0
-0.17728233 0.013996601 -0.36399543 0
-0.14712334 0.13622618 -0.36200827 0
-0.1385529 0.29273748 -0.35937318 0
-0.091510057 0.28352308 -0.36042994 0
-0.04531002 0.39498138 -0.35851571 0
-0.44923806 -0.49790001 -0.36980712 0
-0.40179467 -0.40228939 -0.36866978 0
-0.3896513 -0.34444809 -0.36731943 0
-0.35264039 -0.25132561 -0.36621177 0
-0.31732178 -0.15969419 -0.36499608 0
-0.29911852 -0.053215027 -0.36326009 0
-0.25705791 0.06335783 -0.36214072 0
-0.23452091 0.18188429 -0.36002111 0
-0.19231296 0.29863262 -0.3581802 0
-0.1381886 0.44568586 -0.35645658 0
-0.54912734 -0.47907114 -0.36783355 0
-0.50805926 -0.36816788 -0.36654833 0
-0.47378445 -0.28840685 -0.36533648 0
-0.4265902 -0.2312274 -0.36449322 0
-0.41857433 -0.10365868 -0.36316141 0
-0.377105 0.01031065 -0.36082512 0
-0.32306933 0.056494236 -0.36066699 0
-0.32147288 0.21611118 -0.35811362 0
-0.28234291 0.32962704 -0.35624018 0
-0.28156781 0.35073137 -0.35623887 0
-0.23973227 0.48005438 -0.35428178 0
-0.62757039 -0.43266392 -0.36713001 0
-0.60115552 -0.32739162 -0.36570463 0
-0.57825303 -0.23751163 -0.36433011 0
-0.53116465 -0.15006256 -0.36304101 0
-0.5042882 -0.059138298 -0.36163217 0
-0.48138595 0.020512104 -0.35942569 0
-0.44932175 0.12820292 -0.35793373 0
-0.40853643 0.25805044 -0.35626346 0
-0.37537408 0.38733721 -0.35428604 0
-0.7216208 -0.47972918 -0.36866045 0
-0.74287724 -0.41977787 -0.36788115 0
-0.69516921 -0.3183074 -0.36610314 0
-0.66786575 -0.21246433 -0.36432621 0
-0.62036824 -0.10989761 -0.36297753 0
-0.60110164 -0.011761665 -0.36076197 0
-0.58148956 0.067695618 -0.35823688 0
-0.56154966 0.14161825 -0.35581487 0
-0.500947 0.2822752 -0.35437247 0
-0.44755769 0.40077686 -0.35282162 0
-0.84474659 -0.45269108 -0.36868557 0
-0.83001971 -0.36738777 -0.36772025 0
-0.79730129 -0.29759884 -0.36668122 0
-0.75920844 -0.18379784 -0.36491546 0
-0.71492505 -0.073369026 -0.3621254 0
-0.72042632 0.028510094 -0.35956964 0
-0.66569495 0.074661255 -0.3583084 0
-0.6454711 0.17007351 -0.35499194 0
-0.59367418 0.30447292 -0.35254595 0
-0.61971426 0.41797018 -0.34947559 0
-0.54510784 0.43331194 -0.35090598 0
-0.92755795 -0.45195293 -0.36871323 0
-0.93169594 -0.35245752 -0.3676891 0
-0.88620901 -0.26609468 -0.36612442 0
-0.87448907 -0.15970898 -0.36387277 0
-0.81271005 -0.06049633 -0.36118951 0
-0.80322719 0.019065857 -0.35877669 0
-0.75849414 0.15061903 -0.35663167 0
-0.72802997 0.19620514 -0.35426745 0
-0.70926261 0.31541634 -0.35122514 0
-0.70930433 0.45480871 -0.34786585 0
-0.65694928 0.47556591 -0.34898537 0
-0.95720005 -0.1373992 -0.36323887 0
-0.90696859 -0.024754524 -0.36046657 0
-0.89983463 0.062603951 -0.3580665 0
-0.87268043 0.14843941 -0.35567397 0
-0.83059669 0.25409079 -0.35355031 0
-0.82351756 0.34780836 -0.35037005 0
-0.78191471 0.45629072 -0.34729964 0
-0.99595165 0.093799114 -0.35747224 0
-0.95547342 0.15208626 -0.3550863 0
-0.94230056 0.26738596 -0.35277608 0
-0.90937591 0.38674974 -0.34987003 0
-0.99728942 0.40985584 -0.34940428 0
0.6944716 -0.47422123 -0.20297584 0
0.63725042 -0.41041136 -0.23347637 0
0.61021972 -0.35366392 -0.25308496 0
0.57910824 -0.28589821 -0.23788312 0
0.56359673 -0.19822741 -0.26752892 0
0.53237128 -0.16493082 -0.24258474 0
0.50315905 -0.064538002 -0.24218234 0
0.58449602 0.23228359 -0.21955344 0
0.65635586 0.31626225 -0.20000753 0
0.65000415 0.39126825 -0.23983163 0
0.72299194 0.46095324 -0.22058842 0
0.47221184 -0.008764267 -0.23457864 0
0.46953583 0.067872524 -0.25916851 0
0.45444584 0.16670895 -0.27218309 0
0.5630188 0.26048613 -0.25612554 0
0.55714965 0.35772991 -0.28841448 0
0.80458522 -0.48558283 -0.14340147 0
0.82081795 -0.41525459 -0.11000469 0
0.72950006 -0.44745541 -0.16270611 0
0.76012158 -0.38011217 -0.11639181 0
0.66355157 -0.38865185 -0.15216032 0
0.65127826 -0.32986689 -0.13326803 0
0.85991836 0.31849384 -0.093524843 0
0.85041881 0.40416861 -0.13080248 0
0.57520914 -0.27332592 -0.15542284 0
0.57359219 -0.22398806 -0.12430772 0
0.67553139 0.075164318 -0.099203765 0
0.71535635 0.19795132 -0.12467566 0
0.73633027 0.31361437 -0.14825097 0
0.72255445 0.35769081 -0.18031514 0
0.50802302 -0.13974047 -0.1480121 0
0.48548079 -0.084001541 -0.14608324 0
0.58681464 0.13805342 -0.18238357 0
0.65233755 0.17424488 -0.16398862 0
0.48013449 -0.056497097 -0.1452547 0
0.46997023 0.011703014 -0.19198084 0
0.9465704 -0.44097042 -0.022016406 0
0.86774302 -0.46163511 -0.084566593 0
0.85324931 -0.38928938 -0.059151679 0
0.87234354 -0.30084753 -0.015843093 0
0.76346016 -0.32238102 -0.070177019 0
0.76567698 -0.2582221 -0.01915437 0
0.92179966 0.2008934 -0.013480633 0
0.68440723 -0.23782539 -0.0507074 0
0.68838406 -0.1504159 -0.0070380867 0
0.78400135 0.055002689 -0.031876892 0
0.8814106 0.28206873 -0.058775187 0
0.60106874 -0.20159101 -0.066338241 0
0.66897345 -0.11272812 -0.031005234 0
0.68313336 0.015188217 -0.066090435 0
0.76354408 0.18033171 -0.0781385 0
0.54506516 -0.12184 -0.078877121 0
0.97143102 -0.40299988 0.016720921 0
0.9783175 -0.32414389 0.055971205 0
0.98405147 -0.25292015 0.097953618 0
0.89545727 -0.28255272 0.017260998 0
0.91105461 -0.20049286 0.072187066 0
0.88667107 -0.13181543 0.072346866 0
0.97012925 0.13516569 0.035196573 0
0.8250916 -0.24960184 0.018727601 0
0.79564595 -0.19325495 0.033206373 0
0.83464098 -0.057197571 0.027946025 0
0.73109746 -0.16223145 0.020830661 0
0.92303777 0.11732769 1.217806 0
0.94034004 0.2810688 1.2321484 0
0.63213801 -0.39067316 -0.31377563 0
0.46962452 -0.49814129 -0.34552303 0
0.5268259 -0.46317053 -0.33950269 0
0.54966092 -0.35843134 -0.33835399 0
0.57065678 -0.26695585 -0.32419777 0
0.55890536 -0.16493511 -0.3218517 0
0.40138245 -0.44174719 -0.35180873 0
0.47405195 -0.33586025 -0.34652123 0
0.48549628 -0.24850988 -0.34644541 0
0.49516559 -0.15309954 -0.3466545 0
0.52481151 -0.070520878 -0.31876051 0
0.29225683 -0.43616295 -0.36192417 0
0.34454346 -0.31269455 -0.35861185 0
0.396451 -0.20705891 -0.35493022 0
0.47442222 -0.083240509 -0.34955516 0
0.46246648 -0.017109871 -0.33753127 0
0.4876914 0.082429886 -0.32637671 0
0.47171855 0.16895771 -0.33317485 0
0.58092976 0.3917079 -0.29411644 0
0.5715692 0.48869705 -0.32852024 0
0.18880534 -0.46535397 -0.37067473 0
0.25643039 -0.36034775 -0.36613953 0
0.21667218 -0.30074358 -0.3703779 0
0.27712893 -0.21042824 -0.36580172 0
0.32952571 -0.078350544 -0.36257294 0
0.37040496 0.075973988 -0.36067325 0
0.44701266 0.19866085 -0.33892909 0
0.41896534 0.28138542 -0.35872734 0
0.49127364 0.40049171 -0.34234446 0
0.48995543 0.46229076 -0.35542449 0
0.091192484 -0.49501991 -0.37410057 0
0.10456848 -0.42567062 -0.37234628 0
0.16253352 -0.25499439 -0.37058386 0
0.20557547 -0.15234804 -0.36841732 0
0.26124477 0.0024523735 -0.36633182 0
0.29096341 0.1490531 -0.3640976 0
0.35925221 0.35272789 -0.36149719 0
0.0088193417 -0.40101004 -0.37383354 0
0.038818121 -0.34659815 -0.37217247 0
0.086668253 -0.21618652 -0.3702774 0
0.14140558 -0.1263833 -0.36815318 0
0.12030816 -0.034567356 -0.36831647 0
0.19783664 0.049012184 -0.36615291 0
0.18866301 0.15212107 -0.36503831 0
0.1876266 0.24515581 -0.3639482 0
0.2844646 0.38498926 -0.3612943 0
0.23854494 0.4344058 -0.36128035 0
-0.11457157 -0.4781065 -0.37498498 0
-0.084500551 -0.37828207 -0.37340468 0
-0.051132441 -0.25718832 -0.37197903 0
0.0040295124 -0.16425276 -0.37003455 0
0.045944452 -0.019514561 -0.36804688 0
0.090673685 0.12933493 -0.36595455 0
0.11123848 0.28507757 -0.36380482 0
0.16176176 0.45651817 -0.36111593 0
-0.20567155 -0.43345022 -0.37425297 0
-0.15122509 -0.29779053 -0.37318736 0
-0.14696193 -0.19236469 -0.37135157 0
-0.090137243 -0.071043491 -0.36964792 0
-0.037779808 0.034689426 -0.36785454 0
-0.0011096001 0.180305 -0.36569947 0
0.016278744 0.34824181 -0.36332142 0
-0.3019588 -0.41226244 -0.37309495 0
-0.27925801 -0.31308889 -0.3714886 0
-0.23900843 -0.21165752 -0.37026703 0
-0.20181727 -0.035455227 -0.3673768 0
-0.17562151 0.076516628 -0.36514789 0
-0.097351074 0.098340511 -0.36687884 0
-0.092372656 0.24489594 -0.36401686 0
-0.062212467 0.36050415 -0.36171824 0
-0.40274549 -0.40734434 -0.37173709 0
-0.3724308 -0.28295088 -0.36954656 0
-0.31293058 -0.12644148 -0.36752555 0
-0.28761506 0.0066599846 -0.3654539 0
-0.26206827 0.13547754 -0.36324993 0
-0.18916774 0.26408625 -0.36191344 0
-0.16292644 0.4139576 -0.35956585 0
-0.1008575 0.4270997 -0.36087298 0
-0.51267529 -0.44330692 -0.37068877 0
-0.51792121 -0.36387873 -0.36912411 0
-0.48299861 -0.27474546 -0.36792073 0
-0.409235 -0.15031052 -0.36675659 0
-0.42197943 -0.095084667 -0.36514193 0
-0.35140562 0.034174919 -0.36407223 0
-0.36481237 0.12100792 -0.36242688 0
-0.32442951 0.22760391 -0.36050254 0
-0.32336783 0.29707098 -0.35911468 0
-0.24125862 0.43063593 -0.3579542 0
-0.62841129 -0.43103313 -0.36994061 0
-0.58480072 -0.33121967 -0.36867395 0
-0.5621748 -0.253057 -0.36724722 0
-0.53039789 -0.13577747 -0.36587068 0
-0.50327754 -0.0651474 -0.36421791 0
-0.46469426 0.060702801 -0.36171255 0
-0.42873454 0.18674946 -0.35978216 0
-0.37441492 0.28117657 -0.358091 0
-0.41989732 0.33322573 -0.35718113 0
-0.34809518 0.44657469 -0.35581705 0
-0.74558783 -0.49135923 -0.37168664 0
-0.7125752 -0.3614397 -0.37012812 0
-0.69374919 -0.2833252 -0.36877564 0
-0.65411043 -0.20903206 -0.36735767 0
-0.64761615 -0.078769207 -0.36556187 0
-0.60367131 -0.022727013 -0.36427236 0
-0.57236719 0.11957884 -0.36040676 0
-0.52646446 0.18879128 -0.3588753 0
-0.51800537 0.23369551 -0.35800806 0
-0.49946213 0.3535924 -0.35563931 0
-0.83165479 -0.4610095 -0.37201658 0
-0.81438565 -0.35085011 -0.37071824 0
-0.78568411 -0.24318743 -0.36894733 0
-0.74986696 -0.16416979 -0.36723846 0
-0.71272039 -0.084700108 -0.36489624 0
-0.66697025 0.029049873 -0.36280346 0
-0.66246533 0.11241674 -0.36068246 0
-0.64669371 0.24144983 -0.3562355 0
-0.59412646 0.38257504 -0.35386163 0
-0.94562602 -0.43526459 -0.37191874 0
-0.90541744 -0.33468819 -0.37068275 0
-0.87723994 -0.21353817 -0.368617 0
-0.84785438 -0.12928247 -0.36642167 0
-0.81619668 -0.047244549 -0.36404097 0
-0.77895832 0.027014732 -0.36178702 0
-0.73331475 0.1415782 -0.3589544 0
-0.75924635 0.29741812 -0.3554253 0
-0.71063423 0.28947258 -0.3557938 0
-0.68392777 0.43446589 -0.35250476 0
-0.99548626 -0.28118992 -0.36893511 0
-0.97902274 -0.20157051 -0.36710846 0
-0.94536972 -0.094851017 -0.36570254 0
-0.91443563 0.0030026436 -0.36338341 0
-0.88117981 0.074051857 -0.36109129 0
-0.84800744 0.1822319 -0.35815078 0
-0.8117733 0.29833269 -0.35504311 0
-0.8503325 0.33883953 -0.35486567 0
-0.79101825 0.45423317 -0.35175845 0
-0.99212384 0.092097759 -0.36039245 0
-0.96034288 0.21430397 -0.35747814 0
-0.94486356 0.32835627 -0.3542507 0
-0.88325548 0.40105963 -0.35291678 0
-0.91119599 0.48531866 -0.35107222 0
-0.99496984 0.46048594 -0.35055783 0
0.67962003 -0.44859552 -0.27249783 0
0.64589119 -0.46259546 -0.24864414 0
0.63298821 -0.39047527 -0.25003964 0
0.61484051 -0.32619286 -0.2815285 0
0.58182287 -0.26268196 -0.24705419 0
0.55585837 -0.18192673 -0.27588472 0
0.5247426 -0.14091253 -0.23700762 0
0.50990415 -0.05978775 -0.25576934 0
0.59273529 0.20504856 -0.21153453 0
0.66185308 0.43399096 -0.25212032 0
0.48803258 -0.01268959 -0.24487787 0
0.47927999 0.064204693 -0.25005206 0
0.46405292 0.16247654 -0.271366 0
0.58492422 0.29355145 -0.25036019 0
0.44834185 0.23802471 -0.29145148 0
0.82817507 -0.45263195 -0.1246388 0
0.80764723 -0.3768363 -0.09947145 0
0.76056838 -0.48886585 -0.17303321 0
0.73378825 -0.43470955 -0.16623718 0
0.73925424 -0.36586857 -0.12481999 0
0.64357376 -0.38477516 -0.17099303 0
0.66401267 -0.32414198 -0.12261614 0
0.5993495 -0.3560977 -0.19688657 0
0.57852578 -0.2666173 -0.15391752 0
0.68670607 0.14360619 -0.1212388 0
0.68401933 0.21439886 -0.16076848 0
0.78005123 0.28730965 -0.11880001 0
0.75881004 0.38805771 -0.1773828 0
0.5297935 -0.22042847 -0.14608514 0
0.51599598 -0.15456963 -0.144131 0
0.50476503 -0.061278343 -0.1619122 0
0.67167425 0.31710005 -0.19025651 0
0.47938776 -0.014300346 -0.17004412 0
0.92704058 -0.47872496 -0.051234782 0
0.94176626 -0.39397144 -0.021451354 0
0.86031556 -0.44649601 -0.085856706 0
0.87095308 -0.34927034 -0.041563123 0
0.77695537 -0.32543659 -0.0717507 0
0.79410362 -0.26552391 -0.028301477 0
0.84737444 0.071755886 -0.0011274815 0
0.98875117 0.29351711 -0.013366699 0
0.67008209 -0.29925394 -0.096149176 0
0.69172549 -0.23027658 -0.043352664 0
0.69553113 -0.11366844 -0.021782428 0
0.8191998 0.10312223 -0.034918725 0
0.81381083 0.20652103 -0.066051662 0
0.59816766 -0.17009354 -0.074286819 0
0.69013023 -0.036684513 -0.050723672 0
0.69514036 0.078755856 -0.085686177 0
0.52645683 -0.095689297 -0.095870912 0
0.95057797 -0.38925838 0.007014364 0
0.98055291 -0.31176805 0.050196141 0
0.89458609 -0.26953602 0.021493644 0
0.91389799 -0.18873692 0.074145675 0
0.92984295 -0.056819439 0.076724201 0
0.80389524 -0.21901226 0.018113464 0
0.78641629 -0.16408587 0.037501276 0
0.86104679 -0.042077065 0.031985104 0
0.71307302 -0.17940044 0.010003597 0
0.87923551 0.1520977 1.2537426 0
0.90040708 0.25280046 1.2293856 0
0.84626698 0.23172235 1.2537967 0
0.64463449 -0.41627598 -0.31558803 0
0.62918115 -0.35434008 -0.30579415 0
0.4798069 -0.49925566 -0.34112731 0
0.54693294 -0.43695211 -0.3342191 0
0.61039495 -0.28385782 -0.29414284 0
0.5957911 -0.22928429 -0.31501174 0
0.58579087 -0.13991165 -0.33595428 0
0.42794108 -0.43522739 -0.3463181 0
0.43048191 -0.40278769 -0.3467328 0
0.48058558 -0.26205254 -0.34385353 0
0.54301262 -0.16871834 -0.33873543 0
0.53035522 -0.10619736 -0.32428396 0
0.52853227 -0.045782566 -0.31109884 0
0.33641243 -0.46041107 -0.35457385 0
0.32218361 -0.3574543 -0.35681581 0
0.37631917 -0.31203794 -0.35263523 0
0.42371416 -0.1559267 -0.35026497 0
0.39744949 -0.10701466 -0.35323817 0
0.48632884 0.032792568 -0.32528162 0
0.4701488 0.13865566 -0.3133634 0
0.56056952 0.35934305 -0.30163875 0
0.54054022 0.41918564 -0.33558506 0
0.65342259 0.48402357 -0.28302771 0
0.18776464 -0.44776821 -0.36798936 0
0.25656891 -0.33446407 -0.36319107 0
0.31976819 -0.21794891 -0.35883182 0
0.292135 -0.1772089 -0.36177072 0
0.34944034 -0.04603672 -0.35816267 0
0.41596532 0.13119888 -0.35428554 0
0.44574785 0.23805618 -0.32822865 0
0.43027353 0.38000202 -0.3557162 0
0.13755107 -0.39950752 -0.36868703 0
0.16719317 -0.25305557 -0.36656132 0
0.21384215 -0.24663353 -0.36682582 0
0.23508668 -0.12852049 -0.36444977 0
0.28945804 -0.0016198158 -0.36226347 0
0.25708461 0.09607935 -0.36242083 0
0.34113479 0.23251057 -0.35964137 0
0.37834382 0.41735888 -0.35658288 0
-0.007389307 -0.46750069 -0.37025014 0
0.081021786 -0.34762478 -0.3685261 0
0.044472933 -0.28991413 -0.36852178 0
0.085261106 -0.1880765 -0.36637229 0
0.12783837 -0.053463936 -0.36420745 0
0.12863946 -0.022766113 -0.36430022 0
0.18419743 0.11880016 -0.36220342 0
0.23962998 0.28101158 -0.35945314 0
0.30147123 0.49523497 -0.35659447 0
-0.083491564 -0.40272999 -0.37007657 0
-0.10019159 -0.31843948 -0.36904612 0
-0.014992237 -0.26641226 -0.36832479 0
-0.017103195 -0.11223507 -0.3662048 0
0.041876793 0.036483765 -0.36417082 0
0.082587004 0.15031242 -0.36196062 0
0.13880563 0.34611845 -0.35936925 0
-0.18840337 -0.41378164 -0.37052777 0
-0.16127658 -0.29574299 -0.36853549 0
-0.1639719 -0.20323849 -0.36716172 0
-0.10262012 -0.044392109 -0.36567268 0
-0.025572777 0.059046268 -0.36398128 0
-0.019970417 0.17372656 -0.36137852 0
0.036759853 0.38716316 -0.3588669 0
-0.31687975 -0.47267103 -0.37062991 0
-0.28518176 -0.38142252 -0.36849004 0
-0.24249721 -0.18131256 -0.36625132 0
-0.18562222 -0.052402973 -0.36382836 0
-0.22097325 -0.0048680305 -0.36303997 0
-0.12777495 0.090231419 -0.36214525 0
-0.090120077 0.24264622 -0.36000392 0
-0.1371851 0.26578665 -0.35900077 0
-0.046229124 0.43309784 -0.35724634 0
-0.4017725 -0.46307898 -0.36867076 0
-0.38039207 -0.33802366 -0.36700198 0
-0.34691978 -0.26877928 -0.3656964 0
-0.3205061 -0.13983393 -0.36366025 0
-0.33327579 -0.02859211 -0.36065322 0
-0.26872754 0.0057368279 -0.36201105 0
-0.22798061 0.12590742 -0.359992 0
-0.18867326 0.3125329 -0.35792628 0
-0.13101339 0.46575165 -0.35549414 0
-0.49830937 -0.41041422 -0.36650658 0
-0.48031902 -0.29618454 -0.36483434 0
-0.4278307 -0.22948265 -0.36393136 0
-0.40770292 -0.098932743 -0.36179885 0
-0.39707804 0.0056777 -0.35932928 0
-0.32571054 0.1721921 -0.35796645 0
-0.25090718 0.26628876 -0.35665569 0
-0.29590082 0.32842302 -0.35574916 0
-0.21747041 0.46643066 -0.35375267 0
-0.61924791 -0.4635129 -0.36687344 0
-0.59266829 -0.38334131 -0.36546817 0
-0.58442831 -0.27319145 -0.36405554 0
-0.53561497 -0.18467569 -0.36265373 0
-0.49781513 -0.060617447 -0.36079317 0
-0.46862698 0.039484501 -0.35788104 0
-0.50719166 0.084840775 -0.35736451 0
-0.4227674 0.20129633 -0.35602835 0
-0.38709116 0.31321907 -0.35394758 0
-0.72727537 -0.4168191 -0.36698216 0
-0.69067931 -0.33951187 -0.36558506 0
-0.67381716 -0.27027893 -0.36464 0
-0.63326645 -0.12073088 -0.36281455 0
-0.59474778 -0.058702469 -0.35995027 0
-0.58877015 0.068628788 -0.35653225 0
-0.53098416 0.20250177 -0.35393187 0
-0.48668575 0.3757062 -0.35206383 0
-0.84190083 -0.49304676 -0.36879104 0
-0.84264326 -0.41471052 -0.36756369 0
-0.78730297 -0.2975893 -0.36576441 0
-0.744838 -0.21256161 -0.36427045 0
-0.72714591 -0.12142992 -0.36207244 0
-0.65057683 0.00061178207 -0.35952133 0
-0.67292786 0.064450264 -0.35760361 0
-0.69608736 0.15082645 -0.35574839 0
-0.62714958 0.25312948 -0.3526963 0
-0.61815476 0.39019585 -0.34965441 0
-0.56839132 0.40177965 -0.35055965 0
-0.94809437 -0.48868608 -0.36895356 0
-0.91963363 -0.36410284 -0.36685455 0
-0.88061666 -0.26897717 -0.36566159 0
-0.85283017 -0.19360304 -0.36356798 0
-0.83166981 -0.085214615 -0.36126098 0
-0.77498746 -0.0097746849 -0.35841477 0
-0.7771287 0.12428188 -0.35504526 0
-0.72219872 0.29173326 -0.35202804 0
-0.67375565 0.40246725 -0.34881151 0
-0.99273872 -0.27197456 -0.36388919 0
-0.95801544 -0.15488958 -0.36260605 0
-0.94314265 -0.063650131 -0.36048847 0
-0.88464952 0.038293362 -0.35770756 0
-0.86765575 0.14922619 -0.3544572 0
-0.82758498 0.30343246 -0.35131201 0
-0.7504046 0.40864038 -0.34828287 0
-0.9953227 0.070806026 -0.35708654 0
-0.96218824 0.19034052 -0.35398528 0
-0.91413355 0.29068089 -0.35073671 0
-0.95490575 0.32099009 -0.350595 0
-0.85973072 0.42532253 -0.34762806 0
-0.96066761 0.44667101 -0.34714228 0
0.7071569 -0.4979682 -0.21555531 0
0.65718532 -0.43659544 -0.23406398 0
0.62892008 -0.35750151 -0.2461946 0
0.5940156 -0.30279446 -0.22179499 0
0.578053 -0.2300868 -0.24384883 0
0.76025057 0.43578148 -0.18052134 0
0.55701184 -0.17775059 -0.24409968 0
0.52352786 -0.09662962 -0.24848303 0
0.66151667 0.28720093 -0.19561139 0
0.65590811 0.36489391 -0.23853964 0
0.48082852 -0.044462204 -0.19235834 0
0.48153329 0.010641575 -0.24268344 0
0.45311594 0.10663557 -0.26877928 0
0.55993533 0.25018024 -0.25427946 0
0.83141351 -0.42358494 -0.099728554 0
0.73943233 -0.47014809 -0.16811433 0
0.75448465 -0.38841009 -0.12071222 0
0.65272593 -0.45699644 -0.17513841 0
0.66173387 -0.35857248 -0.14486536 0
0.65988708 -0.27564287 -0.097512603 0
0.60340166 -0.31285191 -0.14986259 0
0.57377744 -0.24480629 -0.12969172 0
0.67500448 0.13366938 -0.12122771 0
0.77190971 0.26505661 -0.12016451 0
0.53803778 -0.18539286 -0.13915408 0
0.51211476 -0.10381126 -0.15690002 0
0.67120147 0.22903872 -0.16024685 0
0.47435713 -0.042040348 -0.16169474 0
0.94176412 -0.4393096 -0.028787076 0
0.95875001 -0.34054279 0.010737985 0
0.8642149 -0.39811134 -0.062760532 0
0.87426305 -0.31301785 -0.01785785 0
0.88106656 -0.25732613 0.01055944 0
0.78457522 -0.28891945 -0.035062879 0
0.77686954 -0.22995234 0.012089729 0
0.8475821 0.051229954 0.0019050241 0
0.98105264 0.22283316 -0.009847343 0
0.68006754 -0.26567554 -0.060416579 0
0.71539235 -0.17494059 -0.016509354 0
0.79317522 0.10387468 -0.046883613 0
0.61181831 -0.1861124 -0.055877507 0
0.61778617 -0.15374756 -0.056057662 0
0.67299271 -0.0042600632 -0.084810376 0
0.97754097 -0.32644367 0.056000054 0
0.91056085 -0.21888113 0.064496845 0
0.92286158 -0.1241765 0.083604306 0
0.80028558 -0.19352484 0.04159373 0
0.86991215 -0.055896759 0.035953432 0
0.88426518 0.19690371 1.2438173 0
0.84060335 0.21061373 1.283998 0
0.85535216 0.30265093 1.2780843 0
0.70622945 -0.45865583 -0.30273551 0
0.68869114 -0.42957401 -0.30807039 0
0.65589881 -0.32086945 -0.31364268 0
0.50984526 -0.49356604 -0.33998093 0
0.58847332 -0.39102077 -0.3316054 0
0.58874798 -0.2762599 -0.31330013 0
0.58702779 -0.18022203 -0.30535728 0
