# .PCD v0.7 - Point Cloud Data file format
VERSION 0.7
FIELDS x y z intensity
SIZE 4 4 4 4
TYPE F F F F
COUNT 1 1 1 1
WIDTH 1296
HEIGHT 1
VIEWPOINT 0 0 0 1 0 0 0
POINTS 1296
DATA ascii
0.66416717 -0.036280993 -0.36288878 0
0.74123621 -0.027078636 -0.36285824 0
0.84990406 -0.03155395 -0.36316615 0
0.99345922 -0.055851717 -0.36374027 0
0.54939985 0.073949732 -0.36091763 0
0.6609354 0.059114348 -0.36112526 0
0.76519752 0.062778607 -0.36085364 0
0.88020539 0.040008165 -0.36134541 0
0.95645618 0.06096556 -0.36118972 0
0.55298138 0.15885796 -0.36092865 0
0.65576959 0.15961385 -0.36052683 0
0.75482154 0.15175036 -0.35965079 0
0.86975479 0.14460748 -0.35975358 0
0.95797467 0.15964027 -0.35963333 0
0.48789978 0.30871332 -0.36065051 0
0.55505419 0.24820438 -0.36050177 0
0.65843678 0.25373951 -0.35928074 0
0.74256277 0.24495631 -0.35844389 0
0.84137034 0.27285177 -0.35794714 0
0.93344784 0.26041588 -0.35822782 0
0.4761374 0.36493352 -0.36008537 0
0.54677796 0.36610684 -0.35920668 0
0.64999604 0.3549076 -0.35796165 0
0.75206661 0.36056376 -0.3567287 0
0.8533051 0.3608529 -0.35681525 0
0.95196962 0.35739717 -0.35632598 0
0.46004009 0.45676753 -0.3591994 0
0.55289149 0.44992587 -0.3579942 0
0.65130711 0.46730703 -0.35634145 0
0.75158548 0.46348122 -0.35542509 0
0.85188198 0.46278629 -0.35460982 0
0.95498562 0.45035529 -0.35369569 0
0.3831656 -0.42474115 -0.37431273 0
0.49348879 -0.39865458 -0.37502933 0
0.57902908 -0.42121762 -0.37730923 0
0.67620134 -0.39915803 -0.37815875 0
0.78384733 -0.41966429 -0.37922105 0
0.90439773 -0.44351557 -0.37982064 0
0.99807811 -0.40934753 -0.3786906 0
0.3747313 -0.33951154 -0.37276876 0
0.47112584 -0.32477832 -0.37430099 0
0.59715271 -0.33433184 -0.37635925 0
0.68338561 -0.33165336 -0.37645411 0
0.79148149 -0.32767671 -0.37616557 0
0.88978553 -0.32682112 -0.3765673 0
0.99620628 -0.30089968 -0.37538213 0
0.38184118 -0.23412965 -0.3715274 0
0.48964524 -0.22364888 -0.37267691 0
0.59540057 -0.23793583 -0.37368333 0
0.68557525 -0.2335535 -0.37369138 0
0.78845358 -0.21766631 -0.37296593 0
0.90905976 -0.22196636 -0.37290472 0
0.98811388 -0.21499418 -0.37283236 0
0.37477279 -0.14392291 -0.36963382 0
0.45557237 -0.13164781 -0.37027594 0
0.58779883 -0.1152484 -0.37014893 0
0.69994831 -0.11821248 -0.3703329 0
0.79975891 -0.12462679 -0.37021089 0
0.886343 -0.12778731 -0.37035906 0
0.97313833 -0.12588978 -0.3702628 0
0.37748861 -0.028723501 -0.36742166 0
0.46873331 -0.030721184 -0.36743936 0
0.58361316 -0.028221529 -0.36728126 0
0.69820094 -0.031951047 -0.36756694 0
0.75928092 -0.001419846 -0.36704314 0
0.86879992 -0.025738176 -0.36736932 0
0.94940996 -0.01301774 -0.36702985 0
0.36582088 0.075930819 -0.36518639 0
0.45307255 0.066358238 -0.36531758 0
0.5779295 0.081153125 -0.3653841 0
0.67644429 0.070981093 -0.36553252 0
0.77913356 0.083688006 -0.36495697 0
0.82940197 0.10941377 -0.36465526 0
0.97615242 0.097520635 -0.36485469 0
0.31969047 0.16640717 -0.36501551 0
0.39069438 0.17470658 -0.36526102 0
0.46317554 0.15408832 -0.36525682 0
0.56752801 0.17627488 -0.36548904 0
0.65657306 0.1853832 -0.36465222 0
0.78594017 0.16496871 -0.3637841 0
0.88958192 0.1862324 -0.36345208 0
0.31070638 0.26126111 -0.36514598 0
0.37324405 0.27898255 -0.365358 0
0.45831561 0.26668352 -0.36533561 0
0.56961584 0.26443535 -0.36491242 0
0.6759994 0.26950079 -0.36326626 0
0.75381947 0.30313313 -0.36203864 0
0.87180686 0.2749525 -0.36222422 0
0.29525566 0.38177076 -0.36533585 0
0.37832808 0.37720522 -0.36524463 0
0.47068787 0.3821303 -0.36465731 0
0.57611895 0.37808716 -0.36331904 0
0.67890334 0.37093741 -0.36194348 0
0.79110456 0.37159711 -0.36073831 0
0.86871815 0.37867615 -0.36072713 0
0.96155834 0.37771797 -0.36019498 0
0.27722263 0.49138093 -0.36524057 0
0.36458278 0.46950614 -0.3649928 0
0.48538065 0.48403433 -0.36311248 0
0.56250453 0.49127591 -0.3618097 0
0.66757703 0.48372203 -0.36042792 0
0.78147697 0.49534348 -0.35890415 0
0.85196686 0.43814015 -0.35986757 0
0.9843955 0.48163763 -0.35679656 0
0.91097403 -0.48272112 -0.38776317 0
0.11517334 -0.4560129 -0.37799761 0
0.18883109 -0.42560455 -0.37828827 0
0.28224945 -0.40488037 -0.37892547 0
0.38103771 -0.4357377 -0.38081843 0
0.48894382 -0.42361468 -0.38251278 0
0.62942457 -0.42016774 -0.38449517 0
0.69717956 -0.39598706 -0.38543069 0
0.80651784 -0.42071223 -0.38573641 0
0.91088152 -0.3921859 -0.38492313 0
0.17139459 -0.32586414 -0.3769747 0
0.27985072 -0.31654862 -0.37730995 0
0.37618089 -0.32076281 -0.37962425 0
0.49512696 -0.32756373 -0.38109368 0
0.5842979 -0.32801589 -0.38241556 0
0.70416355 -0.31466171 -0.38229203 0
0.80903411 -0.33596781 -0.38301551 0
0.91228461 -0.32425871 -0.38272476 0
0.18246126 -0.20403303 -0.37522733 0
0.28698134 -0.21869954 -0.37634471 0
0.385252 -0.23089477 -0.37781924 0
0.49518013 -0.23360892 -0.37950003 0
0.61864209 -0.23063186 -0.38002077 0
0.68531013 -0.20110396 -0.37888214 0
0.7892642 -0.21715102 -0.37959224 0
0.88044047 -0.21591486 -0.3798722 0
0.19394279 -0.1173679 -0.37398928 0
0.27484345 -0.10645591 -0.37441283 0
0.35189629 -0.11701728 -0.37625486 0
0.49419498 -0.1427307 -0.37721491 0
0.58911252 -0.11074516 -0.37614614 0
0.71299458 -0.099289298 -0.37598366 0
0.75024176 -0.10945735 -0.37688878 0
0.88999748 -0.10812144 -0.3760469 0
0.98828053 -0.12781172 -0.3769905 0
0.19112444 -0.025673654 -0.37252805 0
0.31301594 -0.034435794 -0.37406415 0
0.39148402 -0.010771882 -0.3734833 0
0.48978734 -0.015944436 -0.37352276 0
0.57363772 0.0029842928 -0.37326369 0
0.69672585 -0.00839727 -0.37341613 0
0.7542634 -0.0054269247 -0.37324682 0
0.85356283 0.014008563 -0.372668 0
0.96695638 -0.011855215 -0.3734709 0
0.12376809 0.065589242 -0.3713924 0
0.19449782 0.068395704 -0.37133193 0
0.28401446 0.062284142 -0.37160861 0
0.3680706 0.084913902 -0.37139577 0
0.50358605 0.077298149 -0.37153614 0
0.56171608 0.095934376 -0.37145996 0
0.69254088 0.097629242 -0.37128115 0
0.74333024 0.04027484 -0.37190792 0
0.85808063 0.083582439 -0.37100738 0
0.9528327 0.09736117 -0.37093461 0
0.13476896 0.18237685 -0.37118629 0
0.18598938 0.17627893 -0.37127134 0
0.27805424 0.1862224 -0.3713147 0
0.375916 0.17817467 -0.3713876 0
0.49173212 0.19035745 -0.37145847 0
0.5590167 0.18708238 -0.37154859 0
0.69568777 0.18479466 -0.37045026 0
0.83360887 0.19452907 -0.36937273 0
0.89474082 0.18310389 -0.36967802 0
0.11939502 0.3003428 -0.37125376 0
0.17498255 0.28075516 -0.37120426 0
0.29923964 0.30166808 -0.37140369 0
0.39491606 0.27697623 -0.37152421 0
0.47898793 0.30500814 -0.37128896 0
0.59150529 0.27417484 -0.37059632 0
0.73056459 0.26281652 -0.36900836 0
0.78269267 0.29118216 -0.36816338 0
0.92034245 0.27069137 -0.36830151 0
0.10320258 0.38565233 -0.37129822 0
0.1877439 0.36653227 -0.37128118 0
0.27287149 0.38181898 -0.37139234 0
0.35124683 0.39003563 -0.37139845 0
0.47335148 0.39424884 -0.37063321 0
0.58969092 0.37808144 -0.36901248 0
0.65898776 0.38613224 -0.36782745 0
0.76993012 0.38380489 -0.36667681 0
0.86082387 0.39158481 -0.36673173 0
0.98293757 0.40278906 -0.36514717 0
0.08254981 0.47187307 -0.37124532 0
0.1721983 0.47653294 -0.37136307 0
0.29278851 0.48056871 -0.37139615 0
0.37745476 0.482375 -0.37073249 0
0.48940229 0.46798554 -0.3694405 0
0.58039594 0.49346057 -0.3675577 0
0.66522932 0.45763636 -0.36697397 0
0.77430511 0.48507667 -0.36517477 0
0.85645509 0.47118226 -0.36496383 0
0.03018117 -0.43810192 -0.35077089 0
0.12266898 -0.42073178 -0.35225409 0
0.2330389 -0.41917169 -0.35346067 0
0.30853701 -0.42705923 -0.35466465 0
0.4234724 -0.44131708 -0.35673785 0
0.50531697 -0.42435926 -0.35734576 0
0.61478567 -0.45350578 -0.35915089 0
0.69004893 -0.424752 -0.36014703 0
0.8015306 -0.41582587 -0.36018154 0
0.92387009 -0.44652697 -0.36099273 0
0.043631077 -0.33146903 -0.35107791 0
0.12720346 -0.33183745 -0.35199258 0
0.2331326 -0.32059643 -0.35203916 0
0.31439471 -0.31445777 -0.35320961 0
0.38476324 -0.31627798 -0.35472062 0
0.49965501 -0.33392376 -0.35619688 0
0.60581589 -0.32162583 -0.35751742 0
0.74266982 -0.30277875 -0.35723031 0
0.90167642 -0.31269845 -0.35738009 0
0.036081314 -0.22279368 -0.35058978 0
0.13446403 -0.24010706 -0.35091737 0
0.21659422 -0.21364203 -0.35068426 0
0.32100344 -0.23030606 -0.35202199 0
0.41963935 -0.23420814 -0.3540335 0
0.52141261 -0.20689456 -0.35427234 0
0.62803817 -0.22284168 -0.35473645 0
0.6821208 -0.24709356 -0.35524526 0
0.79280543 -0.23933358 -0.35496551 0
0.87772727 -0.20649815 -0.3545793 0
0.9881413 -0.21171686 -0.35493916 0
0.028159857 -0.099047363 -0.34923518 0
0.1374166 -0.13671187 -0.34954014 0
0.22866416 -0.14438479 -0.34982556 0
0.3160224 -0.13306078 -0.3506386 0
0.39179897 -0.13274054 -0.35197732 0
0.51819539 -0.12380426 -0.35214773 0
0.66065693 -0.13209355 -0.35210755 0
0.7481637 -0.10439201 -0.35166878 0
0.86447501 -0.11305971 -0.35186896 0
0.92461991 -0.12109435 -0.35211229 0
0.028137207 -0.031516351 -0.34829128 0
0.13560414 -0.015112624 -0.34803772 0
0.21049809 -0.028720643 -0.34832507 0
0.28978777 -0.011469413 -0.34880278 0
0.40093899 -0.021803364 -0.34913155 0
0.52305007 -0.031434648 -0.34957567 0
0.62204599 -0.0081981122 -0.34897473 0
0.73095584 0.0047024786 -0.34848613 0
0.83805108 0.0053882822 -0.34857571 0
0.96032453 -0.024673894 -0.34945065 0
0.031499624 0.07563509 -0.34720984 0
0.12686777 0.07842356 -0.34724844 0
0.19629359 0.065526016 -0.34727344 0
0.30953741 0.086071983 -0.34730172 0
0.43152666 0.06980177 -0.34760362 0
0.52313495 0.08398407 -0.34748316 0
0.61529112 0.086362399 -0.34761333 0
0.71210623 0.078995854 -0.34745961 0
0.81854939 0.098381028 -0.34686017 0
0.94208002 0.090008453 -0.34696445 0
0.019326687 0.18340561 -0.34731454 0
0.13621521 0.18622613 -0.34749308 0
0.2358315 0.16181211 -0.34744391 0
0.33219671 0.1854175 -0.34752843 0
0.43985009 0.14913222 -0.34765184 0
0.51266646 0.18108997 -0.34772408 0
0.60746622 0.16897671 -0.34776622 0
0.69823885 0.16345344 -0.3466152 0
0.82056117 0.17180641 -0.34576988 0
0.93131208 0.17743133 -0.34577423 0
-0.029531479 0.28628924 -0.34749156 0
0.022243023 0.27844203 -0.34759098 0
0.10331893 0.28260672 -0.34759596 0
0.21731806 0.25479993 -0.34771875 0
0.31731677 0.27941307 -0.34775066 0
0.40855646 0.25976595 -0.34780693 0
0.50758243 0.29957724 -0.34756425 0
0.61544704 0.27703729 -0.34648368 0
0.70679879 0.29262632 -0.34502962 0
0.81279588 0.2335486 -0.34491315 0
0.88741994 0.29045773 -0.34444231 0
-0.03639245 0.3807615 -0.34782416 0
0.0075697899 0.37065169 -0.34777695 0
0.12056851 0.35978755 -0.34784764 0
0.21275067 0.35389414 -0.34790456 0
0.31390977 0.3586331 -0.34802669 0
0.39346623 0.36814365 -0.34810331 0
0.53656912 0.41396099 -0.34580669 0
0.62139201 0.35266218 -0.3455357 0
0.76410961 0.37456664 -0.34317553 0
0.83268046 0.36745629 -0.34338436 0
0.96624637 0.41870701 -0.34127444 0
0.99231577 0.34949821 -0.34279388 0
-0.058103085 0.46660876 -0.34804019 0
0.027734995 0.4693011 -0.34801292 0
0.12501311 0.48367628 -0.34823209 0
0.20471287 0.4565236 -0.34815338 0
0.33479381 0.4661251 -0.34785485 0
0.42699099 0.4640305 -0.34660232 0
0.50949764 0.48157993 -0.34527606 0
0.61972547 0.46519721 -0.34394079 0
0.72823691 0.45696563 -0.34248117 0
0.84444594 0.4650816 -0.34180251 0
0.94232273 0.48974153 -0.33964258 0
-0.12621331 -0.44849885 -0.36195177 0
-0.048971415 -0.44831648 -0.36327305 0
0.035476446 -0.42441377 -0.36437178 0
0.12436533 -0.42752349 -0.36585769 0
0.20079875 -0.45608747 -0.36686954 0
0.28420663 -0.42538822 -0.36797974 0
0.41589689 -0.42546576 -0.37010682 0
0.53467941 -0.4487533 -0.37236807 0
0.59541821 -0.39718771 -0.37231758 0
0.72046399 -0.43576753 -0.37451109 0
0.8317461 -0.4225646 -0.37447008 0
0.97980309 -0.41103286 -0.37380835 0
0.98716569 -0.46387666 -0.37537909 0
-0.13582945 -0.3666088 -0.36178797 0
-0.067242622 -0.32885596 -0.36268789 0
0.055605173 -0.34656259 -0.36457264 0
0.13025236 -0.33380899 -0.36541995 0
0.24402928 -0.36270514 -0.3664498 0
0.31492186 -0.32101688 -0.36696047 0
0.44918227 -0.34392345 -0.3694278 0
0.49597335 -0.3468467 -0.3699322 0
0.60333824 -0.3533538 -0.37156862 0
0.71172023 -0.34328842 -0.37172151 0
0.81565738 -0.34047967 -0.37215599 0
0.97656059 -0.3609201 -0.37221658 0
0.99221587 -0.32826 -0.37077552 0
-0.12198162 -0.19946522 -0.36214036 0
-0.060542583 -0.24310432 -0.36297524 0
0.039117098 -0.22696975 -0.36377162 0
0.14080071 -0.23385069 -0.36406952 0
0.23476219 -0.2362321 -0.36464053 0
0.31154084 -0.2282259 -0.36551973 0
0.38483548 -0.22572502 -0.36641636 0
0.52006459 -0.24121128 -0.36879233 0
0.63628674 -0.21190847 -0.3677271 0
0.68613958 -0.25949064 -0.36953449 0
0.81002831 -0.24783821 -0.36919761 0
0.92474246 -0.21858853 -0.36858785 0
-0.12483525 -0.12890826 -0.36218673 0
-0.065218687 -0.14057931 -0.36231804 0
0.010259151 -0.1038978 -0.36211064 0
0.13938785 -0.11429639 -0.36239225 0
0.22450852 -0.13621883 -0.36309326 0
0.34150171 -0.14078499 -0.36456645 0
0.46022916 -0.1177588 -0.36509055 0
0.54923296 -0.12924466 -0.36556929 0
0.64639068 -0.12151448 -0.36578357 0
0.78423977 -0.14033158 -0.36611888 0
0.9094274 -0.12767985 -0.365787 0
-0.12423944 -0.03518226 -0.36112139 0
-0.073683262 -0.01160115 -0.36082515 0
0.010580063 -0.027301468 -0.36114967 0
0.12070155 -0.027239114 -0.36116239 0
0.257442 -0.024543777 -0.36166486 0
0.34418273 -0.024749968 -0.36238125 0
0.43050718 -0.023642655 -0.36256152 0
0.53442383 -0.02350207 -0.36225402 0
0.64993358 -0.028378781 -0.36244565 0
0.76319909 -0.046144627 -0.36331832 0
0.89950728 -0.023011189 -0.36228779 0
0.99302053 -0.022355162 -0.36312246 0
-0.12810063 0.070499822 -0.35997301 0
-0.082551718 0.064069077 -0.35986131 0
0.0057585239 0.070252508 -0.36006927 0
0.13063931 0.057347238 -0.36023897 0
0.23539233 0.077981412 -0.36021477 0
0.30297065 0.09676297 -0.3602103 0
0.42436814 0.053423848 -0.36075395 0
0.52249527 0.061696049 -0.36064279 0
0.64213037 0.05506561 -0.36080509 0
0.74440336 0.066196725 -0.36041886 0
0.86969948 0.085522756 -0.3601144 0
0.99086857 0.05979304 -0.36066043 0
-0.14308858 0.16708465 -0.35986272 0
-0.066816568 0.16314921 -0.36000526 0
0.027787685 0.17577003 -0.36008424 0
0.13319683 0.17248166 -0.36020151 0
0.2379427 0.14607707 -0.36039162 0
0.32304096 0.1658752 -0.36053154 0
0.41634512 0.15002006 -0.36060971 0
0.50497675 0.14659393 -0.36070728 0
0.60076499 0.16554067 -0.36061159 0
0.73025179 0.17371887 -0.35908425 0
0.84281182 0.18798535 -0.35866526 0
0.97991347 0.1488087 -0.35930845 0
-0.15869188 0.24772903 -0.35995212 0
-0.077717066 0.28168088 -0.36007553 0
0.020652533 0.23742615 -0.36018789 0
0.1035881 0.29198229 -0.36028644 0
0.20874357 0.24915481 -0.3604297 0
0.30968976 0.28340548 -0.36052617 0
0.4160428 0.25776023 -0.36069244 0
0.51982713 0.29492527 -0.36010563 0
0.59093547 0.24929056 -0.35992852 0
0.70252824 0.27078417 -0.35812277 0
0.81703448 0.28147334 -0.35732204 0
0.92911839 0.28947124 -0.3573938 0
-0.17681146 0.36854923 -0.36005029 0
-0.068423033 0.35694847 -0.36026889 0
0.02703619 0.3578217 -0.36022288 0
0.14329743 0.3973003 -0.36033094 0
0.23537731 0.36981359 -0.36063993 0
0.36930847 0.36148101 -0.36081949 0
0.44769144 0.36926404 -0.36028096 0
0.55420899 0.36114115 -0.35886481 0
0.65961313 0.39480293 -0.35696718 0
0.67715573 0.37635052 -0.35710567 0
0.79447103 0.36763752 -0.35604975 0
0.90091085 0.38279548 -0.35592091 0
-0.18484235 0.4621377 -0.36022273 0
-0.060068846 0.47581935 -0.36036167 0
0.029725075 0.45451489 -0.36044472 0
0.12560701 0.45025438 -0.3605684 0
0.2421093 0.48311973 -0.36083022 0
0.34693241 0.45687273 -0.36061698 0
0.40398836 0.48194963 -0.35927731 0
0.51126647 0.47620744 -0.35783327 0
0.75033259 0.47536036 -0.35465401 0
0.85983396 0.46857506 -0.35408089 0
0.24021435 -0.49949098 -0.37789327 0
0.85737443 -0.49165863 -0.38649231 0
0.99438095 -0.47339812 -0.38588768 0
-0.22935772 -0.415176 -0.36914855 0
-0.11720347 -0.42640495 -0.37118554 0
-0.046690941 -0.39445519 -0.37211347 0
0.050539017 -0.42113942 -0.37375486 0
0.14429498 -0.41720262 -0.37536383 0
0.2285192 -0.4036032 -0.37647644 0
0.34364319 -0.41199377 -0.37822142 0
0.45844221 -0.40382639 -0.37961486 0
0.56885028 -0.40789837 -0.38191456 0
0.68630648 -0.3901591 -0.38378999 0
0.72753429 -0.38449982 -0.38268033 0
0.86214328 -0.42235437 -0.38401929 0
0.98255658 -0.36855489 -0.382514 0
-0.24493217 -0.2997385 -0.36903012 0
-0.15517831 -0.32315102 -0.37045991 0
-0.0032529831 -0.33953395 -0.37257633 0
0.042138815 -0.30955157 -0.37364447 0
0.14781427 -0.31474581 -0.37469983 0
0.23964787 -0.30843121 -0.37482297 0
0.34511733 -0.30864185 -0.37647507 0
0.4474113 -0.30471832 -0.37799606 0
0.56774187 -0.31470972 -0.38029552 0
0.69978285 -0.30758271 -0.3806636 0
0.82611775 -0.29911521 -0.38056237 0
0.96353555 -0.25920975 -0.3790682 0
-0.25355601 -0.23905563 -0.36875629 0
-0.1511817 -0.22682467 -0.37044042 0
-0.056387424 -0.20317993 -0.37198949 0
0.047542572 -0.19609767 -0.37287366 0
0.13705707 -0.20821087 -0.37312326 0
0.24266005 -0.20960276 -0.37311149 0
0.32213497 -0.20290226 -0.37479195 0
0.41726613 -0.1948667 -0.37626886 0
0.54617882 -0.19181104 -0.37719914 0
0.68394852 -0.21260194 -0.37769079 0
0.82486534 -0.21149898 -0.37747076 0
0.94806194 -0.17848779 -0.37649497 0
-0.25183916 -0.12449613 -0.36894667 0
-0.14771128 -0.10869808 -0.37051314 0
-0.023777962 -0.11815123 -0.37158614 0
0.054491043 -0.09577702 -0.37147236 0
0.13373542 -0.090570718 -0.37128234 0
0.21493745 -0.11214873 -0.37175769 0
0.33494663 -0.092898056 -0.37310627 0
0.43236256 -0.10963608 -0.37401098 0
0.52528191 -0.098413572 -0.37437421 0
0.67164326 -0.11720467 -0.37455368 0
0.7735858 -0.084096774 -0.37406659 0
0.89602089 -0.057298981 -0.37328023 0
0.91093493 -0.10889396 -0.37483746 0
-0.24480128 -0.030274853 -0.36904949 0
-0.15122557 -0.016298257 -0.37007084 0
-0.058549404 -0.003595043 -0.36999708 0
0.041590452 0.00088816136 -0.3699519 0
0.1436913 0.0039197356 -0.36991599 0
0.20809579 -0.032296818 -0.37051848 0
0.34324121 -0.0048327297 -0.37124115 0
0.51097894 -0.027888738 -0.37215349 0
0.62450314 -0.0016186498 -0.37145096 0
0.76656914 0.0030886754 -0.37096435 0
0.88004947 0.022320269 -0.37064093 0
-0.26312685 0.10306995 -0.36848953 0
-0.15882969 0.072061501 -0.36887786 0
-0.075203419 0.10572915 -0.36880177 0
0.031229258 0.10141761 -0.36887175 0
0.14149356 0.1112393 -0.36900055 0
0.25835943 0.072926171 -0.36939463 0
0.3551445 0.10017344 -0.36933145 0
0.48447394 0.089034535 -0.36948389 0
0.59695888 0.13703345 -0.36943427 0
0.60832548 0.087219909 -0.36944291 0
0.72493696 0.11793526 -0.36895269 0
0.8544395 0.12240706 -0.36863333 0
-0.30437684 0.20688848 -0.36848256 0
-0.23006654 0.2062992 -0.36859208 0
-0.15604305 0.179425 -0.36864692 0
-0.047093391 0.19875434 -0.36880225 0
0.066177845 0.20175809 -0.36886182 0
0.17376733 0.17398401 -0.3690519 0
0.28734946 0.15983142 -0.36927196 0
0.34004927 0.20731407 -0.36915487 0
0.46315026 0.20159094 -0.36932397 0
0.56203723 0.22635229 -0.36927643 0
0.71747279 0.20061834 -0.36799914 0
0.81584692 0.21950296 -0.36726177 0
0.99525309 0.183375 -0.36782509 0
-0.3186574 0.28541726 -0.36851254 0
-0.23408055 0.30422783 -0.36857846 0
-0.15151191 0.29283917 -0.36864218 0
-0.040254831 0.28092325 -0.36888355 0
0.058570147 0.28729373 -0.36895865 0
0.15199733 0.27630043 -0.36906457 0
0.22956753 0.29511058 -0.36906987 0
0.32771468 0.28418478 -0.36919862 0
0.43982601 0.29508868 -0.36931714 0
0.56621885 0.29683289 -0.36869901 0
0.67786169 0.30907646 -0.36689061 0
0.78813338 0.316374 -0.36576176 0
0.81056523 0.29928586 -0.36586586 0
0.97402525 0.28410172 -0.36619788 0
-0.34310484 0.36859703 -0.36849451 0
-0.25053573 0.39027363 -0.36855561 0
-0.13108754 0.37543878 -0.3687346 0
-0.0548141 0.39226419 -0.36888051 0
0.040148735 0.39879939 -0.36889404 0
0.15803766 0.39809489 -0.36904484 0
0.20771813 0.43950725 -0.36922008 0
0.33464193 0.38948634 -0.36917061 0
0.43216681 0.35995698 -0.36939248 0
0.53818345 0.38637555 -0.36778885 0
0.64263082 0.39268789 -0.36606985 0
0.71969533 0.44563678 -0.36401653 0
0.92697453 0.39135882 -0.36447319 0
-0.36073065 0.48929182 -0.36849594 0
-0.24405313 0.46969503 -0.36868721 0
-0.15076518 0.47176471 -0.36881995 0
-0.068482876 0.48783204 -0.3688013 0
0.04441905 0.49028632 -0.369003 0
0.13771868 0.48200232 -0.36908507 0
0.27101874 0.48358935 -0.36919302 0
0.49549937 0.47333074 -0.36697409 0
0.62007666 0.46154317 -0.36539522 0
0.7292521 0.48858804 -0.36346436 0
-0.47068024 -0.49924058 -0.35680884 0
-0.46897054 -0.40786242 -0.35740563 0
-0.39677572 -0.44636211 -0.3592042 0
-0.30808306 -0.41643199 -0.36239254 0
-0.22614074 -0.43761718 -0.36403638 0
-0.14565325 -0.42117614 -0.36523563 0
-0.030039787 -0.42596751 -0.36731046 0
0.093636751 -0.43001059 -0.3695325 0
0.18750358 -0.41458184 -0.37087882 0
0.24556375 -0.38054201 -0.37099519 0
0.38968992 -0.43808645 -0.3739019 0
0.51096082 -0.40227035 -0.37568986 0
0.66958451 -0.44040492 -0.37855795 0
0.79195285 -0.40739736 -0.37843418 0
0.93156648 -0.36343062 -0.37769115 0
0.94930339 -0.41965356 -0.37921709 0
-0.49015212 -0.35092077 -0.35799345 0
-0.40296698 -0.33164102 -0.36049086 0
-0.28984785 -0.31605098 -0.36278951 0
-0.22105026 -0.34222701 -0.3640027 0
-0.15690041 -0.33358982 -0.36525366 0
-0.021886349 -0.32761902 -0.36749122 0
0.046644449 -0.29318497 -0.36866987 0
0.16977406 -0.33942929 -0.36999154 0
0.24633861 -0.29574361 -0.3696216 0
0.35292912 -0.31704184 -0.37222883 0
0.50273132 -0.30280465 -0.3740719 0
0.61640811 -0.32481271 -0.37651113 0
0.64356804 -0.30212253 -0.37513307 0
0.77169108 -0.32735497 -0.37617946 0
0.92898273 -0.31040484 -0.37590003 0
-0.43308806 -0.24288902 -0.36058867 0
-0.32129288 -0.21552856 -0.3623707 0
-0.22170234 -0.249713 -0.36416093 0
-0.12748337 -0.24328221 -0.36584994 0
-0.01805234 -0.21127166 -0.36750984 0
0.08348918 -0.23229107 -0.36826134 0
0.18756866 -0.22462825 -0.36833966 0
0.31077552 -0.2202507 -0.3709498 0
0.35051394 -0.20884661 -0.37038463 0
0.50131536 -0.21644433 -0.37228715 0
0.61930394 -0.21891975 -0.37282783 0
0.73278952 -0.20171067 -0.37272078 0
0.89502454 -0.21643829 -0.37338185 0
-0.41032839 -0.14662291 -0.36102304 0
-0.30756354 -0.13258937 -0.36294833 0
-0.23372698 -0.12937495 -0.36423862 0
-0.11422038 -0.12351453 -0.36593848 0
0.012680054 -0.10967943 -0.36658055 0
0.10545945 -0.10917722 -0.36654937 0
0.20475268 -0.1153308 -0.36692381 0
0.32611632 -0.071525902 -0.36807689 0
0.33669639 -0.13595891 -0.36918804 0
0.45714283 -0.095839955 -0.36918464 0
0.59215927 -0.11346594 -0.36976016 0
0.71979809 -0.12953632 -0.37045765 0
0.88243699 -0.12281075 -0.37029088 0
-0.4235599 -0.025428966 -0.36112881 0
-0.31393409 -0.019222133 -0.36300462 0
-0.22700858 -0.048373554 -0.36435309 0
-0.1134553 -0.020849787 -0.36503047 0
0.014076948 -0.0044347793 -0.36503264 0
0.11237025 -0.013413429 -0.36528936 0
0.19415307 -0.033450276 -0.36578783 0
0.30022335 -0.0085546449 -0.36681271 0
0.42128372 0.020199422 -0.36588222 0
0.44171333 -0.029355202 -0.36718571 0
0.55417919 -0.0063914284 -0.36681661 0
0.68574858 -0.020475116 -0.36731479 0
0.82105088 0.035405505 -0.36592913 0
0.83281326 -0.016466465 -0.36759844 0
-0.47924113 0.084566295 -0.36056635 0
-0.41284299 0.093017876 -0.36188972 0
-0.30075407 0.081429295 -0.36338753 0
-0.23630977 0.08481279 -0.36393666 0
-0.10091448 0.055709824 -0.36411986 0
-0.014299393 0.087260917 -0.36418366 0
0.076654196 0.091145784 -0.36437377 0
0.16657162 0.062029161 -0.36467597 0
0.29052567 0.053801972 -0.36516222 0
0.40303946 0.072680287 -0.36502531 0
0.53746629 0.089626528 -0.36543009 0
0.65199757 0.1095155 -0.36566287 0
0.80959344 0.085428968 -0.36518779 0
0.97818732 0.10326156 -0.36516929 0
-0.48208761 0.21369626 -0.36267567 0
-0.43037486 0.15931523 -0.36267197 0
-0.3202517 0.15960433 -0.36372006 0
-0.21592164 0.18089935 -0.36399889 0
-0.11031032 0.17519808 -0.36422068 0
-0.029569864 0.16859433 -0.36431921 0
0.058565378 0.17346124 -0.36449438 0
0.14292598 0.17508671 -0.36464924 0
0.26059008 0.17215437 -0.36491859 0
0.37315059 0.17978053 -0.36513886 0
0.51383114 0.193344 -0.36559564 0
0.62593484 0.21028015 -0.36499652 0
0.75870085 0.18628153 -0.36396268 0
0.94809461 0.19292729 -0.36394531 0
-0.49654531 0.27866313 -0.36344624 0
-0.415663 0.25618303 -0.36368826 0
-0.31309533 0.2661491 -0.36400038 0
-0.21615577 0.28061649 -0.36424533 0
-0.14068294 0.28029448 -0.36433566 0
-0.048263311 0.26537147 -0.36450785 0
0.06627965 0.27407837 -0.36478102 0
0.15850616 0.29867479 -0.36498919 0
0.23375773 0.26940107 -0.36503378 0
0.36742997 0.28003064 -0.36545926 0
0.48701382 0.28982732 -0.36564532 0
0.59362054 0.31360468 -0.364097 0
0.75118327 0.27126688 -0.36267227 0
0.90775108 0.28468251 -0.36275101 0
-0.51766372 0.38375098 -0.36371255 0
-0.42011857 0.36166579 -0.3638978 0
-0.32001519 0.3751795 -0.36417681 0
-0.25564432 0.39803073 -0.36436194 0
-0.13162351 0.37864229 -0.36456895 0
-0.0015873909 0.38213441 -0.3649205 0
0.098861694 0.39883113 -0.36511934 0
0.21150899 0.37463754 -0.36524972 0
0.33565521 0.37747505 -0.36556685 0
0.45408773 0.38942516 -0.36497211 0
0.55293369 0.40096247 -0.36338657 0
0.69323468 0.3939966 -0.36156958 0
0.86892366 0.3760446 -0.36153135 0
-0.52889013 0.47181338 -0.36395788 0
-0.40457392 0.44301644 -0.36420187 0
-0.34711766 0.47365209 -0.36436331 0
-0.24817348 0.47955602 -0.36459282 0
-0.128088 0.46181226 -0.36479574 0
-0.016513586 0.47572792 -0.3650246 0
0.077438354 0.47760087 -0.3652626 0
0.1924963 0.47120243 -0.36549795 0
0.30266738 0.4884662 -0.36558384 0
0.49156427 0.47140136 -0.36331764 0
0.67951393 0.47767827 -0.36087507 0
0.83242655 0.44323924 -0.36069465 0
0.96925759 0.49402276 -0.35748252 0
0.1631031 -0.48851329 -0.37187532 0
0.74037099 -0.47878122 -0.38200396 0
-0.65951061 -0.42680836 -0.35049367 0
-0.57292867 -0.46231681 -0.35293838 0
-0.48900795 -0.45651296 -0.35614306 0
-0.39568806 -0.4291209 -0.35929829 0
-0.27202511 -0.43633863 -0.36308855 0
-0.14357877 -0.41254109 -0.36543602 0
-0.077365637 -0.45083472 -0.36678144 0
0.042593479 -0.40046176 -0.36894089 0
0.16078401 -0.44980836 -0.37127259 0
0.18479872 -0.42164555 -0.37129575 0
0.29975915 -0.42791349 -0.37315845 0
0.44180393 -0.43054226 -0.37557366 0
0.57925296 -0.43723878 -0.37809882 0
0.75237036 -0.4418996 -0.38062626 0
0.89158034 -0.41350526 -0.38072124 0
-0.65247798 -0.34551629 -0.35197568 0
-0.59022117 -0.33253694 -0.35429013 0
-0.49487567 -0.34829292 -0.3571924 0
-0.41171527 -0.32830191 -0.36025992 0
-0.28409791 -0.34463662 -0.36309278 0
-0.17015696 -0.32422835 -0.36535913 0
-0.059169292 -0.37064564 -0.36718976 0
0.0097548962 -0.3241663 -0.36828849 0
0.14607096 -0.30055463 -0.37011173 0
0.17268634 -0.36075819 -0.37082991 0
0.2803731 -0.32449013 -0.37150121 0
0.41067553 -0.31194711 -0.37368947 0
0.53534317 -0.30707341 -0.37606061 0
0.70306182 -0.30883324 -0.37703881 0
0.87413597 -0.30340573 -0.37713033 0
-0.66095448 -0.23337248 -0.35377741 0
-0.58646536 -0.22474372 -0.35607764 0
-0.48677921 -0.22974822 -0.35945356 0
-0.36042333 -0.23900077 -0.36189741 0
-0.27354336 -0.2234453 -0.36371872 0
-0.15460348 -0.25562873 -0.36556965 0
-0.081272602 -0.22584924 -0.36684906 0
0.036833763 -0.22248054 -0.36866486 0
0.13666153 -0.22751711 -0.36911455 0
0.23967052 -0.20157993 -0.3695935 0
0.37165737 -0.19360024 -0.37178904 0
0.52179193 -0.20842001 -0.37371159 0
0.68101001 -0.20169154 -0.37366906 0
0.82236385 -0.18888222 -0.37414059 0
-0.6403904 -0.14918527 -0.3556475 0
-0.5871911 -0.13594693 -0.35754284 0
-0.48411536 -0.11986799 -0.35991386 0
-0.37549186 -0.14439085 -0.36176696 0
-0.26589584 -0.13596439 -0.36386216 0
-0.17215037 -0.12638304 -0.36554673 0
-0.081647158 -0.13059992 -0.36711487 0
0.031095028 -0.14325611 -0.36754858 0
0.12813234 -0.12057841 -0.36759514 0
0.21584344 -0.1234338 -0.36830312 0
0.32281399 -0.098771602 -0.36919358 0
0.49148583 -0.10271102 -0.37057 0
0.66961002 -0.15463467 -0.37219107 0
0.81319046 -0.12220557 -0.37182578 0
0.98047996 -0.10334623 -0.37172547 0
-0.65940976 -0.02213504 -0.35688084 0
-0.58895636 -0.041170552 -0.35823649 0
-0.49948263 -0.032025635 -0.35965636 0
-0.40611553 -0.031948473 -0.36145025 0
-0.26856184 -0.027543891 -0.36388594 0
-0.18654299 -0.024507329 -0.36534423 0
-0.1046977 -0.035999727 -0.36600205 0
-0.0096976757 -0.018608373 -0.36592665 0
0.086041212 0.0085947514 -0.36590362 0
0.22825027 -0.018778894 -0.36646676 0
0.33626342 -0.0049221776 -0.36750484 0
0.47137618 -0.029230502 -0.3683089 0
0.60968184 -0.023520425 -0.36870557 0
0.78685975 -0.038282655 -0.36923698 0
0.92524147 -0.012767397 -0.36959124 0
-0.67274714 0.089907415 -0.35705286 0
-0.60760474 0.06450966 -0.35814831 0
-0.48341155 0.074610658 -0.36048186 0
-0.38249755 0.063353457 -0.36226496 0
-0.28589821 0.069732696 -0.36397839 0
-0.18625355 0.087985367 -0.36445302 0
-0.10199738 0.029040106 -0.36500782 0
-0.024430752 0.080693536 -0.3649998 0
0.080460787 0.087285325 -0.36532483 0
0.16930103 0.089764655 -0.36543733 0
0.28981662 0.10645534 -0.36588603 0
0.43828392 0.053584076 -0.36664316 0
0.54608202 0.10688187 -0.36661232 0
0.72610354 0.072391376 -0.36701095 0
0.88856626 0.10236313 -0.36692455 0
-0.68730068 0.15723968 -0.35793805 0
-0.58461237 0.1741893 -0.36014003 0
-0.47583103 0.19193591 -0.36248299 0
-0.39401603 0.16924059 -0.36360177 0
-0.30347943 0.16474968 -0.36431217 0
-0.22191763 0.16938758 -0.36456418 0
-0.099586964 0.15209828 -0.36490977 0
0.0443542 0.16926934 -0.36527711 0
0.11971521 0.19918877 -0.36562774 0
0.16055369 0.13588479 -0.36552143 0
0.31447291 0.14907494 -0.36630094 0
0.41142011 0.17754102 -0.36657146 0
0.54628301 0.19415823 -0.36696982 0
0.70045257 0.17732972 -0.36606109 0
0.86734152 0.20313069 -0.36535993 0
-0.68432403 0.25669673 -0.35974222 0
-0.58123875 0.26445413 -0.36177552 0
-0.50057888 0.29824677 -0.36376935 0
-0.42228127 0.28049275 -0.36415115 0
-0.28839588 0.26561686 -0.3645727 0
-0.16206789 0.26198682 -0.36492145 0
-0.086956501 0.25475755 -0.36505124 0
0.0076429844 0.28891519 -0.36539453 0
0.12556243 0.30883127 -0.36588174 0
0.2224586 0.26313025 -0.36611518 0
0.26422143 0.25948426 -0.36624199 0
0.37849832 0.30060694 -0.3667596 0
0.49799395 0.31114978 -0.36672693 0
0.65552306 0.31213072 -0.3649233 0
0.69227314 0.24348268 -0.3654893 0
0.83049393 0.28996125 -0.3641547 0
0.98891544 0.29308951 -0.36462033 0
-0.69588637 0.37381959 -0.36152148 0
-0.58047748 0.35331517 -0.36334509 0
-0.47721982 0.36994731 -0.36422735 0
-0.37681317 0.36688274 -0.36456162 0
-0.28244901 0.37131721 -0.36479485 0
-0.18193483 0.36946195 -0.36518845 0
-0.098675013 0.35894582 -0.36538619 0
-0.0042386055 0.36218709 -0.3655929 0
0.10496807 0.37424931 -0.36595395 0
0.24343443 0.36705917 -0.36651045 0
0.39064908 0.34812069 -0.36711326 0
0.49636722 0.36836451 -0.36625168 0
0.62053633 0.39649504 -0.36424455 0
0.77872348 0.38926405 -0.36283052 0
0.96549797 0.36386931 -0.36301881 0
-0.7598877 0.49608108 -0.36251509 0
-0.70882535 0.44384155 -0.36254993 0
-0.62164092 0.4604865 -0.36389983 0
-0.50739098 0.45618317 -0.36437622 0
-0.41218758 0.48167405 -0.36457801 0
-0.32247138 0.48678184 -0.36492261 0
-0.19616699 0.47710794 -0.36534429 0
-0.094707251 0.48186243 -0.36560765 0
-0.026316881 0.44633228 -0.36575705 0
0.077413797 0.46134874 -0.36607653 0
0.1988101 0.47447523 -0.36655492 0
0.3082819 0.48190314 -0.36678356 0
0.45606828 0.45465279 -0.36556393 0
0.5854249 0.47709772 -0.36361521 0
0.73408484 0.47944671 -0.36174014 0
0.90764213 0.48116475 -0.36046708 0
0.0013532639 -0.47448635 -0.36737666 0
-0.85415077 -0.42859349 -0.3451789 0
-0.7772603 -0.4307557 -0.34754574 0
-0.66937995 -0.43173078 -0.35105762 0
-0.5461154 -0.42974237 -0.35464311 0
-0.45746851 -0.41192135 -0.35836011 0
-0.34990263 -0.44140279 -0.36140999 0
-0.24536848 -0.42421687 -0.36351514 0
-0.15143681 -0.40550387 -0.36494654 0
-0.035188437 -0.40062663 -0.36700153 0
0.11450124 -0.41406918 -0.36936399 0
0.21195102 -0.40529671 -0.37088811 0
0.34491014 -0.41448116 -0.37330499 0
0.51217484 -0.41173398 -0.37604386 0
0.71476483 -0.43360958 -0.37839118 0
0.8647089 -0.42540187 -0.37907496 0
-0.8439486 -0.34428716 -0.34647501 0
-0.76278901 -0.33047619 -0.34917256 0
-0.65541315 -0.31473374 -0.35303122 0
-0.52357435 -0.37270406 -0.35628682 0
-0.47356558 -0.32161987 -0.35878322 0
-0.34878945 -0.33861446 -0.36155295 0
-0.25408626 -0.30895206 -0.36320305 0
-0.15278506 -0.33771801 -0.36489981 0
-0.046659946 -0.34468034 -0.36688328 0
0.092040062 -0.33001366 -0.36869574 0
0.20101953 -0.30940837 -0.36904725 0
0.33662462 -0.31335941 -0.37128288 0
0.49294877 -0.30397868 -0.37393084 0
0.66721964 -0.30101341 -0.37447521 0
0.8399117 -0.31192976 -0.37525189 0
-0.84331751 -0.21920259 -0.34840783 0
-0.76822877 -0.22692589 -0.35068476 0
-0.70067978 -0.19232504 -0.35350505 0
-0.56516838 -0.24170744 -0.35701644 0
-0.44545794 -0.22095698 -0.35986039 0
-0.34643149 -0.25788933 -0.36152136 0
-0.26591849 -0.21824081 -0.36305022 0
-0.17896414 -0.23192072 -0.36462632 0
-0.064494848 -0.24231151 -0.366653 0
0.060016632 -0.21818087 -0.36706364 0
0.18391347 -0.22391649 -0.36741367 0
0.30003309 -0.19698247 -0.36913648 0
0.46769118 -0.21646518 -0.37189916 0
0.6181469 -0.19108714 -0.37140849 0
0.79075408 -0.19991314 -0.37204489 0
0.97208381 -0.23509713 -0.37345824 0
-0.83417749 -0.1317459 -0.34995601 0
-0.77035022 -0.13549858 -0.35199931 0
-0.68636918 -0.12912086 -0.35496622 0
-0.57686567 -0.13733047 -0.35758743 0
-0.47540236 -0.1049705 -0.35954642 0
-0.36708593 -0.14816232 -0.36127239 0
-0.27114344 -0.13825643 -0.36291534 0
-0.17877007 -0.13020271 -0.36449435 0
-0.062940359 -0.14102373 -0.36561614 0
0.031821728 -0.092329174 -0.36514792 0
0.15478754 -0.12356859 -0.36587197 0
0.27389264 -0.10814433 -0.36742115 0
0.28465796 -0.088420033 -0.36681184 0
0.45110822 -0.14060909 -0.36935145 0
0.56771469 -0.070848711 -0.36788648 0
0.59446526 -0.13027819 -0.36958909 0
0.77105927 -0.1203438 -0.36930507 0
0.94905472 -0.12634525 -0.36953351 0
-0.83530235 -0.054922991 -0.35113013 0
-0.76935005 -0.054871161 -0.35317338 0
-0.67588782 -0.029147323 -0.35594055 0
-0.55766201 -0.052584082 -0.3579964 0
-0.46869349 -0.026396584 -0.3594622 0
-0.36716771 -0.037983425 -0.36109814 0
-0.28412366 -0.051217411 -0.36269015 0
-0.20408583 -0.032294404 -0.36380249 0
-0.076127529 -0.036415208 -0.36394081 0
0.0067994595 0.0012860894 -0.36372107 0
0.13376975 -0.027559109 -0.36437517 0
0.24774241 0.02529549 -0.36396357 0
0.28867912 -0.048443671 -0.36579481 0
0.40437341 -0.024117734 -0.36588994 0
0.54520154 0.027908292 -0.36438864 0
0.58108521 -0.042703211 -0.36635286 0
0.7273438 -0.0093584135 -0.36584359 0
0.87580276 0.018344566 -0.36548132 0
-0.84430718 0.057595558 -0.35271955 0
-0.78655124 0.066902116 -0.35418707 0
-0.67699766 0.078547657 -0.35618368 0
-0.58290076 0.066648833 -0.35774314 0
-0.49001217 0.091879643 -0.35956687 0
-0.37021136 0.080067366 -0.36131924 0
-0.26913357 0.056313928 -0.36245483 0
-0.21849394 0.063990034 -0.36237204 0
-0.10680532 0.059463441 -0.36264586 0
-0.00091838837 0.08553458 -0.36290359 0
0.11114287 0.068689078 -0.3632679 0
0.23381805 0.093237683 -0.3634671 0
0.37401295 0.12297088 -0.36382505 0
0.38107491 0.072970659 -0.36378187 0
0.52680802 0.10477985 -0.3641175 0
0.66660404 0.1024839 -0.36373127 0
0.85210443 0.09919095 -0.36376572 0
-0.86300206 0.18271951 -0.35425609 0
-0.7869575 0.15768653 -0.35522354 0
-0.66383505 0.14334299 -0.35727692 0
-0.60586929 0.17976178 -0.35876739 0
-0.48731232 0.20133646 -0.36105254 0
-0.37074137 0.15599072 -0.36194789 0
-0.25396228 0.18169524 -0.36228442 0
-0.15269303 0.17069583 -0.36245409 0
-0.024508238 0.1954888 -0.36292449 0
-0.0017614365 0.14135957 -0.3630102 0
0.11798882 0.18936539 -0.36314753 0
0.34362268 0.23063488 -0.36380368 0
0.49615216 0.19401917 -0.36404443 0
0.65108871 0.18062884 -0.36292744 0
0.81367445 0.1918375 -0.36234173 0
-0.87274718 0.25424224 -0.35520434 0
-0.76995301 0.27056319 -0.35730216 0
-0.68158531 0.27718574 -0.35892433 0
-0.56134748 0.26442093 -0.36088139 0
-0.45358968 0.27894604 -0.3618499 0
-0.3542738 0.27370542 -0.36215204 0
-0.27396083 0.27581182 -0.36231792 0
-0.19156313 0.28856495 -0.36236474 0
-0.07158041 0.28823617 -0.36270243 0
0.04151082 0.29489779 -0.36296177 0
0.15115786 0.28226435 -0.36314043 0
0.29605269 0.26856226 -0.36344907 0
0.4545939 0.31114447 -0.363655 0
0.48670578 0.24425942 -0.36408541 0
0.6206131 0.28797978 -0.3618691 0
-0.95906901 0.40157312 -0.3558622 0
-0.87527943 0.36351502 -0.35686111 0
-0.78636003 0.3842535 -0.35877019 0
-0.67570519 0.3701368 -0.36047369 0
-0.56566763 0.36886409 -0.36162013 0
-0.48241162 0.39026293 -0.36187425 0
-0.40002942 0.40269005 -0.36205876 0
-0.30319905 0.37833893 -0.36231086 0
-0.19083953 0.36815953 -0.36259148 0
-0.088168383 0.36860991 -0.36276096 0
0.001698494 0.39940208 -0.36286312 0
0.13244462 0.38806209 -0.36325634 0
0.30818129 0.3490245 -0.36379069 0
0.43208575 0.3797546 -0.36299464 0
0.6013341 0.35716453 -0.36120701 0
-0.95843649 0.4637951 -0.35691974 0
-0.867697 0.4720926 -0.35868433 0
-0.78002167 0.47350469 -0.36026168 0
-0.70458531 0.45971745 -0.36114648 0
-0.58587193 0.48342049 -0.36161068 0
-0.46505737 0.49508008 -0.36192936 0
-0.36200094 0.49113256 -0.36224246 0
-0.19393778 0.48458299 -0.36263537 0
-0.11602259 0.45599324 -0.36275196 0
-0.011680603 0.47373343 -0.36296523 0
0.10791302 0.49175161 -0.36333966 0
0.22209644 0.49481082 -0.3633875 0
0.39596415 0.48139498 -0.3620666 0
0.76692343 0.28923675 -0.3608759 0
0.97216344 0.33812237 -0.35934186 0
0.97865343 0.29714522 -0.36057073 0
0.57245135 0.42156839 -0.36061826 0
0.7239635 0.38456118 -0.35939872 0
0.92274499 0.41150475 -0.35791034 0
0.54391241 0.49947134 -0.3599177 0
0.68227315 0.49208108 -0.35805371 0
0.8642056 0.49866715 -0.3561992 0
-0.9299376 -0.44235647 -0.34169424 0
-0.81854272 -0.4361285 -0.34347683 0
-0.72831059 -0.44315901 -0.34612238 0
-0.63917351 -0.41523719 -0.34915584 0
-0.52721214 -0.43212053 -0.35209578 0
-0.43203497 -0.42231482 -0.35532442 0
-0.34925818 -0.43777534 -0.35796583 0
-0.20548582 -0.46040517 -0.36052519 0
-0.10689497 -0.43502685 -0.36235666 0
0.037360191 -0.44269794 -0.36416745 0
0.14398146 -0.40840617 -0.36600557 0
0.30514026 -0.38106787 -0.36751625 0
0.51149821 -0.42571703 -0.37066585 0
0.6971736 -0.42486089 -0.37317339 0
0.85667014 -0.43866882 -0.37394604 0
-0.93063521 -0.33854222 -0.34297103 0
-0.82289481 -0.33333355 -0.34483737 0
-0.72089314 -0.32651618 -0.34775782 0
-0.65004587 -0.30619347 -0.35052991 0
-0.53585219 -0.33848801 -0.35331839 0
-0.44852185 -0.30167907 -0.35666806 0
-0.34808564 -0.32728758 -0.35837838 0
-0.2361412 -0.34019676 -0.36014313 0
-0.11174488 -0.31619743 -0.36202499 0
0.0069978237 -0.32126057 -0.36395651 0
0.14314699 -0.3136946 -0.36475787 0
0.31484127 -0.31928402 -0.36609071 0
0.50015593 -0.34664851 -0.36909547 0
0.65234756 -0.33289364 -0.37085566 0
0.79691267 -0.26999056 -0.36896554 0
0.84613228 -0.35296607 -0.37087113 0
-0.92301822 -0.22094607 -0.34495622 0
-0.83107901 -0.25125462 -0.3459903 0
-0.71893692 -0.2326667 -0.3492682 0
-0.63395619 -0.21916218 -0.35217512 0
-0.52783465 -0.24069011 -0.35496467 0
-0.46209478 -0.2038108 -0.35681993 0
-0.33814359 -0.23272331 -0.35837799 0
-0.22150087 -0.24091247 -0.36015475 0
-0.11497521 -0.19944629 -0.36191422 0
-0.0073034763 -0.20089175 -0.36322594 0
0.14154959 -0.21891321 -0.36323148 0
0.26524305 -0.22906996 -0.36478269 0
0.4597013 -0.2400552 -0.36725563 0
0.60642862 -0.2524361 -0.36898816 0
0.63179541 -0.22902989 -0.36734003 0
0.80185843 -0.22899911 -0.36715198 0
0.98750472 -0.21507683 -0.36736053 0
-0.92863154 -0.1430674 -0.34607512 0
-0.82372713 -0.13598888 -0.34792048 0
-0.73172355 -0.14798032 -0.35031843 0
-0.64858413 -0.11140426 -0.35352379 0
-0.56091523 -0.099713266 -0.35527658 0
-0.44664526 -0.12351976 -0.35681584 0
-0.36051631 -0.1342327 -0.35819131 0
-0.25537252 -0.11572158 -0.35987523 0
-0.12752128 -0.10794891 -0.36158401 0
-0.021501541 -0.10426561 -0.36176163 0
0.092998266 -0.094693929 -0.36160091 0
0.25017524 -0.13196911 -0.36277804 0
0.4032588 -0.086425997 -0.36342233 0
0.42109442 -0.14168517 -0.36512661 0
0.56606483 -0.11119568 -0.36448494 0
0.71608448 -0.066076174 -0.36295015 0
0.76000738 -0.15223508 -0.36522883 0
0.95581365 -0.11750847 -0.36418056 0
-0.94108915 -0.039692618 -0.34753048 0
-0.83441401 -0.042117115 -0.34918773 0
-0.75082135 -0.043089215 -0.35151336 0
-0.64215112 -0.031368658 -0.35387874 0
-0.52340031 -0.0060606785 -0.355831 0
-0.38796473 -0.016139466 -0.35791755 0
-0.38253784 -0.06127904 -0.3580099 0
-0.26306319 -0.01253897 -0.35968485 0
-0.1606667 -0.0046007931 -0.36031967 0
-0.020673275 -0.025939744 -0.360439 0
0.072512627 -0.00066398829 -0.36019868 0
0.20471048 0.026495526 -0.35981077 0
0.23621535 -0.041937754 -0.36084542 0
0.37245202 -0.0031357966 -0.36092809 0
0.52746105 0.0049953349 -0.36082238 0
0.71324658 -0.02700166 -0.3613818 0
0.91099691 -0.021274071 -0.36141902 0
-0.93003011 0.065165877 -0.34938028 0
-0.83780789 0.052617557 -0.35066065 0
-0.75869513 0.071809605 -0.35256481 0
-0.63836861 0.084699616 -0.35439125 0
-0.44007683 0.066716984 -0.35732472 0
-0.32607675 0.050588153 -0.35863286 0
-0.16842818 0.058397576 -0.3594299 0
-0.057157755 0.060900446 -0.35944092 0
0.053668499 0.094961338 -0.35953513 0
0.18519878 0.082751922 -0.35946676 0
0.35761738 0.072781578 -0.35962367 0
0.49129081 0.095276907 -0.35950112 0
0.65979886 0.079569198 -0.35954922 0
0.891047 0.04287035 -0.35946625 0
-0.94438887 0.16551585 -0.35077089 0
-0.82673454 0.15611945 -0.3524158 0
-0.73965359 0.1939833 -0.35440519 0
-0.63868189 0.15185195 -0.35534769 0
-0.52906489 0.14391986 -0.35695893 0
-0.41700387 0.18749949 -0.35927737 0
-0.33316255 0.17496482 -0.35930067 0
-0.21339345 0.16956858 -0.35938448 0
-0.097986221 0.13342704 -0.3593325 0
-0.083622694 0.15775955 -0.35949677 0
0.036581516 0.17096458 -0.35961825 0
0.1798048 0.17216963 -0.35967276 0
0.32383299 0.15964052 -0.35962063 0
0.4792099 0.17349271 -0.35963613 0
0.60632992 0.19155484 -0.35889938 0
0.61389732 0.22726575 -0.35852391 0
-0.95050335 0.25031766 -0.35204473 0
-0.83934951 0.27364022 -0.35410658 0
-0.72426796 0.2485273 -0.35555542 0
-0.61959362 0.25053963 -0.35720184 0
-0.53379917 0.26376703 -0.35875058 0
-0.45884204 0.30625573 -0.35948378 0
-0.33020973 0.25630954 -0.35954574 0
-0.24897695 0.28774431 -0.35944492 0
-0.11074948 0.25752002 -0.35957995 0
-0.01712203 0.2539151 -0.35944784 0
0.020366669 0.25726768 -0.35974735 0
0.14607334 0.28145421 -0.35974434 0
0.28880644 0.27173689 -0.35968527 0
0.42689228 0.30402684 -0.35964081 0
-0.9422226 0.37545568 -0.35410288 0
-0.83931375 0.35475105 -0.35540503 0
-0.73355818 0.36076692 -0.35716397 0
-0.64522505 0.36675385 -0.35865602 0
-0.56078815 0.37702245 -0.35953313 0
-0.46856213 0.3743639 -0.35961983 0
-0.35967326 0.34692863 -0.3595967 0
-0.27152181 0.3753345 -0.35955212 0
-0.15404248 0.38031211 -0.35962662 0
-0.029742241 0.35510218 -0.3596651 0
0.10222769 0.36845288 -0.3596828 0
0.24895 0.38474479 -0.35975552 0
0.42894149 0.35884833 -0.3596046 0
-0.93955755 0.46213636 -0.35552216 0
-0.84355736 0.45187327 -0.35688776 0
-0.74450421 0.48804834 -0.35880899 0
-0.66496062 0.44087023 -0.35953695 0
-0.58285975 0.47902954 -0.35971811 0
-0.45126939 0.45830196 -0.3596499 0
-0.36570549 0.42480505 -0.35981345 0
-0.26050782 0.46197 -0.35972241 0
-0.17536378 0.48304793 -0.35982648 0
-0.064401627 0.45379913 -0.35973066 0
0.078398228 0.46270517 -0.35982946 0
0.21810007 0.46632287 -0.35979033 0
0.83333826 0.1315583 -0.35843331 0
0.82993531 0.19750118 -0.35723943 0
0.59958982 0.30109185 -0.35786414 0
0.77487636 0.30426592 -0.3558104 0
0.40851688 0.41174924 -0.35917425 0
0.5353322 0.41257104 -0.35701299 0
0.75053596 0.38059121 -0.35461518 0
0.96346807 0.3937133 -0.35300019 0
0.36207628 0.48708272 -0.35861862 0
0.52626634 0.45878392 -0.35662389 0
0.68370867 0.49622649 -0.35355726 0
0.90784955 0.49436557 -0.35092348 0
0.74692488 -0.49083167 -0.37976488 0
-0.99698091 -0.43209848 -0.344529 0
-0.89235187 -0.4248648 -0.34614578 0
-0.80684376 -0.44228664 -0.34737444 0
-0.71595597 -0.43971467 -0.34971663 0
-0.59276009 -0.46338472 -0.35289279 0
-0.50242853 -0.45738876 -0.35590148 0
-0.38883805 -0.42614403 -0.35995096 0
-0.25166583 -0.45146531 -0.36386245 0
-0.22081566 -0.41452566 -0.36395407 0
-0.12513804 -0.42258707 -0.36594599 0
0.010061502 -0.40510556 -0.36788705 0
0.15301228 -0.41162157 -0.37034595 0
0.32123423 -0.37464261 -0.37201577 0
0.35541248 -0.44895697 -0.37314403 0
0.5252471 -0.43485582 -0.37605587 0
0.72513032 -0.42425522 -0.37854576 0
0.91121483 -0.36144462 -0.37706351 0
0.96322417 -0.45527971 -0.37933612 0
-0.98492587 -0.35057056 -0.34568417 0
-0.88209152 -0.33539793 -0.34760407 0
-0.81192636 -0.33659059 -0.34866959 0
-0.71389818 -0.31677902 -0.35135084 0
-0.62642789 -0.34057251 -0.35387743 0
-0.51641417 -0.32994199 -0.35733482 0
-0.3978796 -0.32042247 -0.3612788 0
-0.26777577 -0.32188281 -0.36370367 0
-0.113621 -0.33643496 -0.36585501 0
-0.014809608 -0.33381182 -0.36773384 0
0.12376666 -0.31072706 -0.3698543 0
0.33012199 -0.33398175 -0.37102371 0
0.49926329 -0.31267014 -0.37370658 0
0.6906395 -0.32408369 -0.37558678 0
0.89181876 -0.29997852 -0.375135 0
-0.90370011 -0.23530412 -0.34888527 0
-0.80362654 -0.22196524 -0.35068908 0
-0.71484613 -0.21008267 -0.35301298 0
-0.62246108 -0.23829705 -0.35556263 0
-0.51107907 -0.22873017 -0.35901088 0
-0.39368534 -0.23660478 -0.36172763 0
-0.26561999 -0.25833842 -0.36368304 0
-0.13483191 -0.22532123 -0.36568397 0
-0.025128841 -0.25536633 -0.36763692 0
0.13912249 -0.25168401 -0.36887962 0
0.159024 -0.22946993 -0.36835396 0
0.26835179 -0.21625605 -0.36924955 0
0.47492313 -0.21963967 -0.37190971 0
0.63728762 -0.18986006 -0.3717342 0
0.86323881 -0.22984651 -0.37309688 0
-0.98870063 -0.13757245 -0.34909058 0
-0.89218307 -0.12006223 -0.35092431 0
-0.80820537 -0.12519222 -0.35218835 0
-0.69737792 -0.15055014 -0.35423627 0
-0.60484219 -0.13351715 -0.35747188 0
-0.52015328 -0.13730644 -0.35980743 0
-0.4245584 -0.12839949 -0.36151385 0
-0.28191853 -0.15655455 -0.36353806 0
-0.16502976 -0.091866829 -0.36541295 0
-0.14573383 -0.15061118 -0.36557099 0
-0.04125905 -0.12799805 -0.36700499 0
0.085747957 -0.095268101 -0.36679035 0
0.27062774 -0.124408 -0.36715499 0
0.42177844 -0.085399806 -0.36894491 0
0.45976448 -0.16181135 -0.37075585 0
0.62646604 -0.11584003 -0.36901504 0
0.81991196 -0.12391822 -0.36995572 0
-0.91855478 -0.007311862 -0.35227665 0
-0.81916904 -0.040627632 -0.35337025 0
-0.71856928 -0.036541462 -0.35552585 0
-0.64441824 -0.0050575137 -0.35811877 0
-0.53097796 -0.032486349 -0.35965237 0
-0.42541504 -0.048055366 -0.36142796 0
-0.30843449 -0.052117266 -0.36330742 0
-0.19408917 -0.0040857755 -0.36512482 0
-0.057368755 -0.030681062 -0.36565864 0
0.084202051 -0.029791396 -0.36571553 0
0.22825575 -0.0068603344 -0.36546701 0
0.41764379 -0.042140108 -0.36729804 0
0.54799128 -0.0046814941 -0.3667182 0
0.80099678 -0.041967344 -0.3670243 0
-0.91746688 0.055919655 -0.3533532 0
-0.81938052 0.071224511 -0.35516289 0
-0.70415974 0.058942385 -0.35716715 0
-0.59312844 0.085121408 -0.35911515 0
-0.43514919 0.036940202 -0.36126456 0
-0.32693887 0.042479932 -0.363087 0
-0.20591283 0.082017869 -0.36442566 0
-0.10077858 0.084850475 -0.36457199 0
0.049852371 0.078305945 -0.36470929 0
0.21677136 0.071206689 -0.36474076 0
0.37465048 0.057739682 -0.3650876 0
0.51459241 0.087301746 -0.36479831 0
0.74221897 0.095105954 -0.36472327 0
0.75010657 0.04072056 -0.36502343 0
-0.92068315 0.15535869 -0.35496026 0
-0.8062458 0.1722592 -0.35704449 0
-0.66545177 0.17223373 -0.35933349 0
-0.5739274 0.16590981 -0.36071068 0
-0.47808504 0.16660374 -0.36220816 0
-0.4394269 0.13247699 -0.36238998 0
-0.32971191 0.16913015 -0.36413261 0
-0.12357545 0.1852963 -0.36454743 0
0.033154488 0.17368378 -0.36471668 0
0.16858172 0.17463756 -0.36469075 0
0.34224939 0.19350857 -0.36492574 0
0.34748006 0.14241755 -0.36479896 0
0.51474428 0.17913225 -0.3650763 0
0.71151233 0.16541484 -0.36414081 0
-0.99224985 0.28206292 -0.35585642 0
-0.89313579 0.27244499 -0.35726908 0
-0.78774571 0.27640983 -0.35902905 0
-0.69902778 0.28280038 -0.36055294 0
-0.61624956 0.27323863 -0.36170834 0
-0.50221229 0.27564764 -0.36358938 0
-0.37633991 0.29008752 -0.36455348 0
-0.26525664 0.26804104 -0.36452192 0
-0.21166062 0.23974967 -0.36444139 0
-0.15098143 0.29925764 -0.36470994 0
0.0061211586 0.27620244 -0.36485049 0
0.1474576 0.27627349 -0.36485982 0
0.31181383 0.28448343 -0.36499888 0
0.46039677 0.29248387 -0.36503038 0
-0.92002845 0.36300343 -0.35832101 0
-0.8145721 0.35661134 -0.35987282 0
-0.71364164 0.37379566 -0.36182904 0
-0.63043809 0.36742541 -0.36304 0
-0.51246953 0.36983904 -0.36455271 0
-0.39010715 0.36787879 -0.36471394 0
