# .PCD v0.7 - Point Cloud Data file format
VERSION 0.7
FIELDS x y z intensity
SIZE 4 4 4 4
TYPE F F F F
COUNT 1 1 1 1
WIDTH 673
HEIGHT 1
VIEWPOINT 0 0 0 1 0 0 0
POINTS 673
DATA ascii
0.37209368 -0.45679188 -0.25608444 0
0.44284916 -0.49120188 -0.26215008 0
0.51796937 -0.46038628 -0.2875894 0
0.75511861 -0.46201277 -0.36938047 0
0.81638432 -0.42747092 -0.37071317 0
0.90589619 -0.48602939 -0.3751871 0
0.88630033 -0.34536982 -0.37569231 0
0.93808818 -0.39651442 -0.37625378 0
0.93288183 -0.25136495 -0.38165161 0
0.99443865 0.12788224 -0.33506712 0
0.15812731 -0.49368739 -0.2739687 0
0.19484091 -0.42111874 -0.26588163 0
0.25284362 -0.46140003 -0.26525259 0
0.35070539 -0.49768519 -0.25688937 0
0.3122654 -0.41373754 -0.2762605 0
0.3997643 -0.45386934 -0.27444741 0
0.46363664 -0.46735287 -0.28005904 0
0.4588213 -0.39962101 -0.31047887 0
0.19196105 -0.38915324 -0.2583985 0
0.10084534 -0.45261288 -0.31922209 0
0.15462828 -0.48107672 -0.28895265 0
0.12965775 -0.29997015 -0.30513257 0
0.14494205 -0.35345864 -0.3094103 0
0.19360805 -0.29162955 -0.32617503 0
0.28336596 -0.35553408 -0.31520197 0
0.37492442 -0.37916088 -0.31558189 0
0.4778285 -0.44196033 -0.28414649 0
0.5549705 -0.49169636 -0.28157413 0
0.33571005 -0.25865459 -0.35891595 0
0.4426012 -0.34645653 -0.33955285 0
0.51844335 -0.37957764 -0.34037092 0
0.55263114 -0.42950559 -0.34054029 0
0.37957144 -0.17006922 -0.36034679 0
0.47372127 -0.26085806 -0.36069915 0
0.56525803 -0.29808569 -0.36458007 0
0.65524769 -0.36535621 -0.36787283 0
0.7489121 -0.48670077 -0.36860999 0
0.77626109 -0.46228027 -0.36725393 0
0.42690539 -0.024886131 -0.36357856 0
0.4569838 -0.11390996 -0.36309028 0
0.55752802 -0.15939331 -0.36522698 0
0.59461188 -0.20613408 -0.36654449 0
0.71525693 -0.27095866 -0.36662447 0
0.800246 -0.35243535 -0.37063336 0
0.95055366 -0.45236158 -0.37520051 0
0.45761323 0.030911207 -0.36305851 0
0.54489398 -0.024603844 -0.36555219 0
0.63343453 -0.07601738 -0.36861545 0
0.68222094 -0.15242624 -0.36773407 0
0.84277868 -0.25023699 -0.37183523 0
0.98487186 -0.35816288 -0.376452 0
0.48234844 0.16604137 -0.36623526 0
0.48529029 0.15394115 -0.36529624 0
0.58333826 0.06861186 -0.3650429 0
0.66190529 -0.015336752 -0.3678163 0
0.76278043 -0.090092421 -0.3691169 0
0.870152 -0.1270771 -0.37457347 0
0.86837602 -0.19541097 -0.37172642 0
0.50999188 0.26156855 -0.36596996 0
0.59181309 0.21109653 -0.36940703 0
0.69931793 0.14410877 -0.36877298 0
0.71955442 0.07331109 -0.36947748 0
0.78456736 -0.011779547 -0.36928239 0
0.89040518 -0.032174349 -0.37587637 0
0.5199461 0.39122295 -0.36703211 0
0.52840948 0.31572986 -0.36403334 0
0.61338592 0.28682303 -0.36856896 0
0.70649219 0.23711896 -0.37044433 0
0.79631186 0.12289786 -0.37249184 0
0.89688849 0.0838871 -0.37920171 0
0.97856641 0.061482668 -0.36497429 0
0.52042341 0.45473337 -0.3676734 0
0.62452507 0.40321684 -0.36873788 0
0.7176013 0.33966208 -0.37098849 0
0.81426501 0.29790306 -0.3744632 0
0.80355787 0.2208643 -0.37445101 0
0.91424942 0.1848979 -0.37916696 0
0.71340132 0.4475553 -0.37361848 0
0.816257 0.3889401 -0.37552568 0
0.93038774 0.32835102 -0.37849197 0
0.99551249 0.26017451 -0.36819339 0
0.81475639 0.49713826 -0.37573612 0
0.92438769 0.45614123 -0.37739959 0
0.96280336 0.38859391 -0.3785733 0
0.1708765 -0.44843078 -0.27028006 0
0.17158675 -0.3909893 -0.26497295 0
0.24588394 -0.40154195 -0.26442796 0
0.34577584 -0.48198032 -0.26374337 0
0.18096375 -0.31566405 -0.27955341 0
0.30641222 -0.38094497 -0.27615982 0
0.35226393 -0.42821121 -0.26040739 0
0.43707609 -0.47584271 -0.26277393 0
0.53460836 0.49424481 -0.3644222 0
0.21031785 -0.45487285 -0.28523433 0
0.27023339 -0.41375685 -0.27971837 0
0.3497107 -0.40612769 -0.29124871 0
0.47259855 -0.44535899 -0.30020052 0
0.61395764 -0.41942406 -0.37279308 0
0.47422433 -0.27325296 -0.36918008 0
0.70620847 -0.41153455 -0.37179783 0
0.61233783 -0.22939515 -0.36949271 0
0.77252316 -0.33566856 -0.37631282 0
0.84777188 -0.3311007 -0.37705585 0
0.48244452 -0.017780304 -0.37008104 0
0.67129707 -0.14552116 -0.37409669 0
0.88805747 -0.24702764 -0.38408443 0
0.52241182 0.016843081 -0.37129876 0
0.57589531 0.012929201 -0.36921218 0
0.71723509 -0.10159826 -0.37591672 0
0.75710988 -0.063750505 -0.37734485 0
0.95296764 -0.24408412 -0.38432696 0
0.62905121 0.10471702 -0.3736091 0
0.83540034 -0.02524972 -0.3794798 0
0.69182754 0.13830185 -0.37330291 0
0.9283433 0.055967331 -0.38273484 0
0.56970406 0.32176018 -0.37109107 0
0.75691128 0.2365272 -0.37702748 0
0.94953823 0.16973042 -0.38419837 0
0.97580719 0.16315413 -0.35603195 0
0.61714387 0.44244313 -0.37564516 0
0.82719421 0.34085011 -0.38205189 0
0.88004899 0.40172219 -0.38413423 0
-0.97093081 -0.45368934 -0.38646525 0
-0.88199043 -0.49832392 -0.38529003 0
-0.93967724 -0.37780833 -0.38708842 0
-0.83528948 -0.41591573 -0.3817147 0
-0.76646352 -0.44176197 -0.38105828 0
-0.68081617 -0.42601299 -0.37880224 0
-0.85720301 -0.28511834 -0.38499963 0
-0.81200457 -0.25205898 -0.37589282 0
-0.88603997 -0.12638545 -0.38718337 0
-0.82667255 -0.17846203 -0.3846615 0
-0.77678776 -0.20005751 -0.369497 0
-0.20668101 -0.47531605 -0.36285418 0
-0.82835603 -0.059703588 -0.3865369 0
-0.74703932 -0.12661362 -0.37260008 0
-0.15116382 -0.41924524 -0.36234766 0
-0.091315031 -0.38665485 -0.36001056 0
0.022114515 -0.4928081 -0.34868047 0
-0.78936887 0.0018758774 -0.37539434 0
-0.14409423 -0.24743891 -0.36250788 0
-0.025040865 -0.35276914 -0.35709333 0
0.073235989 -0.3947742 -0.33794636 0
0.12933636 -0.45423388 -0.30487415 0
-0.66199136 0.077412605 -0.37382287 0
-0.58526206 0.051311731 -0.36837089 0
-0.17913246 -0.15270591 -0.36143625 0
-0.092894316 -0.21679163 -0.3603844 0
0.10529852 -0.3239603 -0.33925539 0
0.15240264 -0.33987951 -0.30209157 0
0.24645257 -0.37159276 -0.29709026 0
0.38497066 -0.42205262 -0.29826471 0
0.4293189 -0.4630177 -0.26373607 0
-0.54472065 0.12855005 -0.37613696 0
-0.49149346 0.14481425 -0.36431533 0
-0.34186339 0.060409307 -0.35105908 0
-0.23207736 -0.00066542625 -0.36663699 0
-0.11559725 -0.076874971 -0.36038631 0
-0.022443056 -0.16252613 -0.35765564 0
0.038784504 -0.13532209 -0.35490412 0
0.14996433 -0.24207544 -0.36049634 0
0.23496795 -0.29142928 -0.34869051 0
0.33364987 -0.33924699 -0.3467074 0
0.40279245 -0.31787109 -0.34674776 0
0.4555521 -0.40872908 -0.31816915 0
-0.43493485 0.18241382 -0.36762488 0
-0.34606576 0.16612625 -0.36982691 0
-0.26263928 0.10980487 -0.36689562 0
-0.16438961 0.042426825 -0.36229897 0
-0.061386585 0.0028862953 -0.35881615 0
0.061368465 -0.061842203 -0.36034667 0
0.12101531 -0.073394775 -0.35853928 0
0.21512151 -0.18066978 -0.36422467 0
0.27918911 -0.14084649 -0.36605132 0
-0.36683512 0.28345776 -0.3709749 0
-0.28932905 0.19862461 -0.36550182 0
-0.19207478 0.17722058 -0.36274672 0
-0.10416484 0.14251757 -0.36076576 0
-0.01952672 0.079394102 -0.35485536 0
0.16430974 -0.034240007 -0.36075383 0
0.21523976 -0.043204546 -0.35901046 0
0.3515296 -0.11637068 -0.36632955 0
0.40982533 -0.10359931 -0.36586922 0
-0.29662061 0.36686373 -0.36760825 0
-0.22044015 0.30178523 -0.36309808 0
-0.13557529 0.26882219 -0.36081189 0
-0.042515039 0.23458433 -0.35820341 0
0.018771172 0.16744518 -0.35493308 0
0.10142803 0.14878964 -0.35726774 0
0.26281047 0.036802053 -0.36376941 0
0.43938756 -0.03262639 -0.37025756 0
-0.25675154 0.43590975 -0.36646825 0
-0.20946574 0.42553711 -0.3642059 0
-0.099153757 0.3640604 -0.35872817 0
0.0096833706 0.28738093 -0.35477918 0
0.040120602 0.31395674 -0.35556984 0
0.1714325 0.22134137 -0.36024684 0
0.32959652 0.12943792 -0.36848485 0
-0.17659497 0.4973073 -0.36249471 0
-0.075587034 0.43876982 -0.35694778 0
-0.032369137 0.40212822 -0.35449088 0
0.085387945 0.35601091 -0.35667318 0
0.2124548 0.28735662 -0.36334884 0
0.25333166 0.29821277 -0.36239648 0
0.39268279 0.160537 -0.3684631 0
0.42713046 0.19536901 -0.36955881 0
0.15873814 0.44060373 -0.35892069 0
0.31475878 0.36843324 -0.36416054 0
0.45358753 0.26172972 -0.37299192 0
0.51677752 0.28257227 -0.37136936 0
0.38915515 0.447474 -0.36510307 0
-0.63982844 -0.36154938 -0.33898181 0
-0.82019162 -0.22639847 -0.35794365 0
-0.75087619 -0.22042465 -0.34334308 0
-0.63790512 -0.27565265 -0.32704186 0
-0.58885407 -0.30317187 -0.29939306 0
-0.51055455 -0.31364775 -0.27194899 0
-0.75332427 -0.069402933 -0.36419654 0
-0.70298433 -0.15409017 -0.35024494 0
-0.6245811 -0.16897726 -0.30658585 0
-0.53116059 -0.17237186 -0.3108269 0
-0.796103 0.062171698 -0.35636765 0
-0.74462652 0.00086688995 -0.33010453 0
-0.67443037 -0.050996304 -0.3137027 0
-0.56234241 -0.064174175 -0.31870538 0
-0.50504947 -0.1350491 -0.32029146 0
0.17331386 -0.44388485 -0.27316606 0
-0.7864058 0.12767768 -0.32918781 0
-0.73714375 0.11042905 -0.31426144 0
-0.57628226 0.059211731 -0.32379782 0
-0.53749633 0.0081129074 -0.32131034 0
-0.46938515 -0.0020468235 -0.29198086 0
0.16265249 -0.38599825 -0.26155967 0
0.29629874 -0.44685769 -0.2719937 0
-0.5445776 0.081327677 -0.35372925 0
-0.49098563 0.085479259 -0.32976145 0
-0.4311409 0.06519866 -0.31873381 0
-0.45780063 0.16510582 -0.33813018 0
0.92725062 -0.39916015 -0.38665798 0
0.049570322 -0.3050828 -0.36381137 0
0.10475159 -0.29373431 -0.36415511 0
0.19051385 -0.26929379 -0.3649357 0
0.28795958 -0.27382421 -0.36245659 0
0.38481092 -0.37659883 -0.33813226 0
0.42632055 -0.34871101 -0.36826599 0
0.51802659 -0.40167904 -0.35192904 0
0.30245018 -0.17165184 -0.37046638 0
0.50588942 -0.33978391 -0.37368438 0
0.55460286 -0.29289365 -0.37630719 0
0.79758215 -0.46990561 -0.37958792 0
0.17241645 -0.0069129467 -0.36699772 0
0.37344193 -0.11498976 -0.37312225 0
0.63197803 -0.26039958 -0.37701806 0
0.87228203 -0.40657377 -0.38565221 0
0.22973466 0.057729483 -0.3704136 0
0.29701233 0.084128618 -0.37042004 0
0.46762228 -0.051525354 -0.37528804 0
0.70421886 -0.17931676 -0.38114002 0
0.32629108 0.16466451 -0.37520307 0
0.36974287 0.17221546 -0.3741321 0
0.54995012 0.021858454 -0.37793937 0
0.81473804 -0.11407852 -0.38389051 0
0.42960334 0.22714615 -0.37538952 0
0.61886215 0.068688869 -0.37871855 0
0.66003251 0.099137068 -0.37913573 0
0.91743493 -0.024427652 -0.38999739 0
0.97565627 -0.024857283 -0.38920343 0
0.26303363 0.41702819 -0.37009615 0
0.49500418 0.30599523 -0.37743419 0
0.71190143 0.18878531 -0.38286248 0
0.95928621 0.071690798 -0.38149166 0
0.31465459 0.45194292 -0.36936724 0
0.54927802 0.34896326 -0.37712604 0
0.77186441 0.24882412 -0.38392416 0
0.98549128 0.15832257 -0.38096625 0
0.59095073 0.42570829 -0.37913185 0
0.81291151 0.29737687 -0.38630834 0
0.85964561 0.29659462 -0.3847653 0
0.89897156 0.40656877 -0.39038593 0
-0.96291852 -0.43773437 -0.3922618 0
-0.88886023 -0.39772725 -0.39084637 0
-0.70619464 -0.45214343 -0.38418257 0
-0.80630732 -0.24686265 -0.37774467 0
-0.7840724 -0.35543513 -0.38755441 0
-0.8352654 -0.1112721 -0.39345771 0
-0.77384901 -0.18410492 -0.36848027 0
-0.71996927 -0.21169782 -0.3556028 0
-0.63497424 -0.28769326 -0.34035206 0
-0.84366298 -0.047672749 -0.39155954 0
-0.76797748 -0.080232382 -0.3812151 0
-0.70024872 -0.13626862 -0.35400015 0
-0.48517656 -0.1820128 -0.32226342 0
-0.066396475 -0.41070604 -0.36398584 0
0.052948952 -0.49274325 -0.3426156 0
-0.77287507 0.013403654 -0.36099517 0
-0.76729202 -0.027223587 -0.37341744 0
-0.54539847 -0.10361505 -0.33453 0
-0.0035712719 -0.38150311 -0.36094135 0
0.093974829 -0.41455936 -0.3359372 0
0.14830112 -0.47512507 -0.30048859 0
-0.79363441 0.12600088 -0.36398876 0
-0.6649859 0.10566306 -0.38643932 0
-0.57452059 0.035305977 -0.35347939 0
-0.10339141 -0.22850466 -0.36633366 0
-0.065782547 -0.20134306 -0.36491644 0
0.15171933 -0.3376503 -0.31761381 0
0.24731445 -0.40767407 -0.2704201 0
0.29094744 -0.37110639 -0.31453568 0
0.35329485 -0.46673489 -0.27328217 0
0.46889973 -0.45524573 -0.28727135 0
-0.6191535 0.13463354 -0.38470978 0
-0.52902746 0.12982154 -0.36629748 0
-0.44954753 0.10995293 -0.34278452 0
-0.2430582 0.0052752495 -0.37144542 0
-0.15999484 -0.07323575 -0.36897427 0
0.0033905506 -0.13034177 -0.36307245 0
0.41955042 -0.38956714 -0.31498513 0
-0.50413799 0.23029208 -0.38108987 0
-0.39604115 0.1743772 -0.37176818 0
-0.30098271 0.11749554 -0.37337101 0
-0.20207906 0.067512751 -0.37051868 0
-0.11791754 0.02955246 -0.3666476 0
0.08904624 -0.07632947 -0.36325997 0
0.14402723 -0.080972195 -0.36195225 0
-0.43706393 0.30218482 -0.37938505 0
-0.35595465 0.28624582 -0.37885237 0
-0.26803517 0.22707653 -0.37298995 0
-0.13220692 0.15580654 -0.36716217 0
-0.067025661 0.12150335 -0.3654353 0
-0.00058889389 0.11445165 -0.36124748 0
-0.37477922 0.36936927 -0.37733191 0
-0.27249265 0.38391733 -0.37450916 0
-0.21832967 0.29056668 -0.36971903 0
-0.11952782 0.27301717 -0.3657645 0
0.051958561 0.16052651 -0.36081862 0
-0.32505393 0.46305466 -0.37632716 0
-0.21873784 0.42701983 -0.37040162 0
-0.13044453 0.36035132 -0.36544484 0
-0.057020664 0.3080101 -0.36537313 0
-0.00079011917 0.34448576 -0.36003888 0
0.12020755 0.23587704 -0.36403561 0
-0.11991572 0.4702003 -0.36571109 0
0.033821821 0.41910887 -0.36151212 0
0.19419217 0.29426003 -0.36519343 0
0.077748775 0.46278334 -0.36227685 0
0.23010349 0.3886416 -0.36991835 0
-0.55570817 -0.38760877 -0.30115145 0
-0.59988236 -0.27470303 -0.31380761 0
-0.53693414 -0.29698443 -0.28736097 0
-0.65428019 -0.10655427 -0.3084451 0
-0.61437201 -0.19739294 -0.30928558 0
-0.710325 0.0019025803 -0.31318229 0
-0.77017188 0.11905217 -0.32779968 0
-0.54635334 0.015455008 -0.31744277 0
-0.50748205 -0.0026683807 -0.30525088 0
-0.4624598 0.065500736 -0.31418365 0
0.6958251 -0.47324371 -0.37329233 0
0.76136327 -0.48300672 -0.37087551 0
0.84546137 -0.38081384 -0.37881115 0
0.9292624 -0.31661296 -0.38368544 0
0.82213736 -0.0090932846 -0.37613073 0
0.87568665 0.090316534 -0.38190049 0
0.95472479 0.10917449 -0.38055697 0
0.97036695 0.22397375 -0.38783318 0
0.98558879 0.34392476 -0.38211706 0
-0.17206049 -0.49030447 -0.35912603 0
0.036795139 -0.47127056 -0.34564987 0
-0.063683748 -0.35725784 -0.35811716 0
0.074393988 -0.41972804 -0.3293328 0
-0.13588285 -0.17778826 -0.36139226 0
-0.00082325935 -0.30277252 -0.3559078 0
0.096491814 -0.29934549 -0.3464027 0
0.36101913 -0.40756464 -0.299463 0
-0.19382811 -0.037873983 -0.36160934 0
-0.063029528 -0.12600946 -0.3573404 0
0.13939261 -0.22311902 -0.35881603 0
0.22291613 -0.30693436 -0.34204158 0
0.33483148 -0.33022547 -0.34316367 0
0.43408322 -0.34793472 -0.35146257 0
0.477772 -0.40996361 -0.31035271 0
-0.0050346851 -0.049343586 -0.35447347 0
0.20790386 -0.15713644 -0.36203879 0
0.52779555 -0.29869127 -0.36608401 0
0.050115108 0.022350788 -0.35638613 0
0.11312151 0.04915905 -0.35630929 0
0.28937149 -0.070885181 -0.36593568 0
0.58776617 -0.18841577 -0.37210318 0
0.14377689 0.12442636 -0.36048871 0
0.17592382 0.14750862 -0.36075264 0
0.38026714 -0.02680707 -0.36586785 0
0.66041923 -0.13633561 -0.37303376 0
0.23719478 0.17851186 -0.36000133 0
0.45946455 0.062456846 -0.36872509 0
0.73862696 -0.10774899 -0.3716931 0
0.29988933 0.28066611 -0.36319983 0
0.53813148 0.11941075 -0.36867934 0
0.76947856 -0.030215979 -0.37571692 0
0.35256171 0.31843019 -0.36218941 0
0.60282326 0.22653675 -0.37184989 0
0.38193631 0.42563891 -0.36631376 0
0.64873528 0.28705859 -0.37264723 0
0.9748795 0.16624236 -0.35810825 0
0.68889904 0.36427236 -0.37430418 0
0.73376727 0.48234653 -0.37717855 0
-0.97820354 -0.43303633 -0.38597584 0
-0.89002323 -0.4274857 -0.38115782 0
-0.72946525 -0.46658468 -0.37708604 0
-0.83399391 -0.25426435 -0.36495459 0
-0.70848179 -0.39914894 -0.37991172 0
-0.80325031 -0.17805123 -0.38061678 0
-0.75842571 -0.20693207 -0.34403223 0
-0.61219954 -0.23824334 -0.30520087 0
-0.6124208 -0.30245471 -0.31006461 0
-0.88268256 -0.0047967434 -0.38606083 0
-0.810987 -0.069033384 -0.38108402 0
-0.71414471 -0.13015771 -0.34599924 0
-0.59406281 -0.17395544 -0.29422545 0
-0.81575346 0.068719625 -0.36084491 0
-0.77033782 0.020036936 -0.34381205 0
-0.72192836 -0.029245138 -0.31978226 0
-0.56147957 -0.054894686 -0.32541919 0
-0.52752209 -0.15390944 -0.31605017 0
0.11562395 -0.40054297 -0.30299884 0
-0.78957748 0.15289378 -0.34776807 0
-0.59004164 0.050489902 -0.34904474 0
-0.53298593 0.029080868 -0.31140649 0
0.12114787 -0.34752631 -0.31008026 0
0.17251921 -0.33089042 -0.2945013 0
0.29313707 -0.41689205 -0.26476556 0
0.40771389 -0.45850348 -0.27217582 0
-0.77091694 0.20270944 -0.37025619 0
-0.67072725 0.207057 -0.37958699 0
-0.56087947 0.13268876 -0.36864185 0
-0.50805378 0.099646807 -0.33423001 0
-0.45132709 0.059071541 -0.31027377 0
-0.27989936 0.023655891 -0.36286986 0
-0.60727382 0.28018761 -0.3783015 0
-0.4966085 0.24209619 -0.37522274 0
-0.46027493 0.15367365 -0.34816355 0
-0.37988091 0.16007113 -0.36593962 0
-0.24762535 0.10521626 -0.36302024 0
-0.14494562 0.05338192 -0.3606112 0
-0.55294514 0.34045815 -0.37675178 0
-0.4835217 0.32624364 -0.374098 0
-0.40946603 0.30354714 -0.37050658 0
-0.32567573 0.24157572 -0.36723709 0
-0.20189571 0.1863153 -0.3612529 0
-0.086557388 0.11991 -0.3565985 0
-0.49779058 0.41987848 -0.37579274 0
-0.42302728 0.40628624 -0.37232751 0
-0.36005354 0.41352129 -0.37049973 0
-0.26631498 0.31942487 -0.36398566 0
-0.14728546 0.291641 -0.35896993 0
-0.03342557 0.22675347 -0.35445082 0
-0.052191257 0.17216754 -0.35457832 0
-0.40564799 0.49270773 -0.37026441 0
-0.32121205 0.43973398 -0.36703765 0
-0.20957088 0.40460205 -0.36094272 0
-0.086324692 0.35437989 -0.35348213 0
-0.010101318 0.25831747 -0.3526783 0
0.01599884 0.30370712 -0.3519901 0
-0.17281461 0.48923969 -0.35991818 0
-0.062233448 0.48159122 -0.35535079 0
0.044672489 0.40815377 -0.35725504 0
0.1105876 0.4546566 -0.35605788 0
-0.57542109 -0.24385262 -0.27599323 0
-0.54423094 -0.32672167 -0.26402658 0
-0.71949434 0.028892994 -0.30095756 0
-0.69882631 -0.013843298 -0.28950703 0
-0.76510859 0.082329512 -0.31049985 0
-0.5087502 -0.030074835 -0.2841385 0
0.77520108 -0.49794674 -0.37849757 0
0.8457222 -0.48380923 -0.37950894 0
0.89628816 -0.42785907 -0.38385531 0
0.97821856 -0.42600465 -0.38346317 0
0.097661495 -0.47631335 -0.31959811 0
-0.0057115555 -0.30959129 -0.35991687 0
0.096853733 -0.40301585 -0.33677024 0
0.015323639 -0.22606421 -0.36257643 0
0.10754657 -0.33061814 -0.34936652 0
0.20225573 -0.31407785 -0.33384374 0
-0.093038559 -0.072659016 -0.36497104 0
0.096377611 -0.19836593 -0.36267835 0
0.36497235 -0.33331037 -0.35593823 0
0.40564203 -0.39851499 -0.30787784 0
0.51954842 -0.42406511 -0.3458395 0
-0.039021492 0.026588678 -0.36281431 0
0.18941712 -0.13479733 -0.3645969 0
0.44924235 -0.26455355 -0.37121317 0
-0.00026893616 0.089207411 -0.36037505 0
0.27773023 -0.062715769 -0.3665688 0
0.52208805 -0.19924641 -0.37322423 0
0.066156387 0.16777444 -0.36056656 0
0.33672023 -0.001060009 -0.36840963 0
0.38784432 0.023819447 -0.3677389 0
0.59128714 -0.14507842 -0.37415403 0
0.6354847 -0.087717056 -0.37600219 0
0.14428186 0.28241992 -0.36399949 0
0.12493634 0.21279359 -0.36062866 0
0.42004108 0.068777084 -0.36909562 0
0.66142416 -0.01676321 -0.3793965 0
0.19566202 0.32525563 -0.36340594 0
0.45778275 0.17972636 -0.37413996 0
0.73513412 0.024143219 -0.37794641 0
0.24682069 0.42147589 -0.36530483 0
0.52188015 0.27586651 -0.37607247 0
0.79394698 0.093774796 -0.37906882 0
0.28850865 0.47532296 -0.36470133 0
0.55670142 0.37205338 -0.3786608 0
0.83055377 0.20921373 -0.38549379 0
0.99111462 0.15243864 -0.3638818 0
0.58540201 0.4731276 -0.38093895 0
0.88635898 0.29151845 -0.38826734 0
0.92625999 0.38565397 -0.39106032 0
-0.9559617 -0.40779257 -0.39018875 0
-0.85975814 -0.49446058 -0.38911551 0
-0.72625089 -0.43570971 -0.38384145 0
-0.76408005 -0.25431824 -0.34706563 0
-0.60950041 -0.35461235 -0.32702678 0
-0.73412442 -0.20049024 -0.35058331 0
-0.63166761 -0.25182629 -0.33808577 0
-0.58751583 -0.30216622 -0.30722934 0
-0.8275156 -0.045080662 -0.38794708 0
-0.77076507 -0.047609329 -0.38441122 0
-0.68067813 -0.13892174 -0.34109086 0
-0.57919121 -0.18715596 -0.30320323 0
-0.95968747 0.17348909 -0.39730406 0
-0.87550712 0.10096359 -0.39267087 0
-0.80529308 0.061517954 -0.37724376 0
-0.74092412 0.0089235306 -0.33511508 0
-0.69137549 -0.041237354 -0.31225443 0
-0.54302883 -0.040951729 -0.31954253 0
-0.50801349 -0.10810995 -0.32879299 0
-0.41190147 -0.20185614 -0.32473987 0
0.14155173 -0.39621115 -0.29315743 0
-0.91666937 0.26464963 -0.39780623 0
-0.79030347 0.15297723 -0.35949504 0
-0.66702032 0.13321805 -0.38323593 0
-0.57059288 0.045332193 -0.35754234 0
-0.50648999 0.019638538 -0.31511885 0
-0.43767881 0.0082786083 -0.29645985 0
0.14451504 -0.33681655 -0.30005237 0
0.29915524 -0.38525534 -0.28332269 0
0.46781445 -0.43994164 -0.28167862 0
-0.86650729 0.32574058 -0.39584756 0
-0.74935889 0.23019814 -0.38689661 0
-0.61457586 0.21324515 -0.38301671 0
-0.52993536 0.13643575 -0.36327565 0
-0.46887612 0.098089695 -0.32993883 0
-0.36373949 0.088097334 -0.3476941 0
-0.79715896 0.37456751 -0.39100796 0
-0.68521976 0.30988097 -0.3855136 0
-0.56469774 0.29709554 -0.38291401 0
-0.4527986 0.2149179 -0.37795758 0
-0.45614719 0.16449475 -0.36962461 0
-0.34258389 0.14151859 -0.37365991 0
-0.21388745 0.077088118 -0.37028313 0
-0.16385007 0.10894084 -0.36548722 0
-0.72123218 0.45097685 -0.387411 0
-0.61318898 0.4095149 -0.38399935 0
-0.51132369 0.35706186 -0.38091719 0
-0.43059778 0.26278353 -0.37831217 0
-0.37880683 0.27781725 -0.37396353 0
-0.29231095 0.21495342 -0.37075663 0
-0.14441395 0.16444707 -0.36530417 0
-0.55356455 0.48872685 -0.38207012 0
-0.49786592 0.46873593 -0.38025719 0
-0.43554997 0.44523954 -0.37762505 0
-0.34313059 0.38158965 -0.37454581 0
-0.23877025 0.32925296 -0.36921734 0
-0.12727094 0.22833681 -0.36564398 0
-0.096180439 0.24189067 -0.36202759 0
-0.29686356 0.4453454 -0.37148726 0
-0.19990253 0.41548252 -0.3679409 0
-0.061269522 0.3455596 -0.36102605 0
-0.146065 0.49754167 -0.36410099 0
-0.018456221 0.46189857 -0.35877985 0
-0.51598907 -0.32019234 -0.26913965 0
-0.71923828 0.064118147 -0.30049592 0
0.58871174 -0.38124323 -0.36570466 0
0.67508054 -0.26208282 -0.36976355 0
0.73377705 -0.16253614 -0.37302017 0
0.78806424 -0.16132855 -0.37013677 0
0.83747506 -0.019253016 -0.37838483 0
0.90916872 0.018917799 -0.37782118 0
0.95827723 0.1213572 -0.38139674 0
0.99753213 0.20462894 -0.38097382 0
0.99971747 0.38353777 -0.38361549 0
0.99205184 0.29892325 -0.38187981 0
-0.98083329 -0.45550203 -0.38549793 0
-0.91282225 -0.44249177 -0.38165605 0
-0.84344912 -0.44429207 -0.37668949 0
0.019207954 -0.37146163 -0.35074359 0
0.11678863 -0.43225527 -0.30893195 0
-0.11800861 -0.18139839 -0.35783994 0
0.074390411 -0.28279853 -0.35531837 0
0.14413476 -0.34627509 -0.31515431 0
0.3436687 -0.4162643 -0.29227045 0
-0.23926544 -0.002423048 -0.36291569 0
-0.067448139 -0.12733531 -0.3550337 0
0.17299151 -0.22777987 -0.35606003 0
0.25456285 -0.32132983 -0.33593148 0
0.38199568 -0.34209323 -0.34807962 0
0.45747733 -0.41715312 -0.31778064 0
-0.19726944 0.059545994 -0.36044317 0
-0.022887707 -0.01146841 -0.3537609 0
0.23940992 -0.16177797 -0.35812056 0
-0.15446472 0.16200376 -0.35856116 0
0.042108059 0.052662134 -0.34934151 0
0.30071735 -0.077002525 -0.3610962 0
-0.12898231 0.24570799 -0.35799044 0
0.076138973 0.15574718 -0.35412347 0
0.35456538 -0.0060968399 -0.36302978 0
0.12573838 0.22111607 -0.35494763 0
0.38544416 0.064687967 -0.36580092 0
0.43362069 0.060551167 -0.36261094 0
0.1838975 0.31534719 -0.35593802 0
0.47533798 0.16663694 -0.36612827 0
0.22649145 0.41267967 -0.35715723 0
0.50902963 0.26752543 -0.36938584 0
0.55751109 0.37052727 -0.36930948 0
0.54123712 0.30564165 -0.36834651 0
0.9899447 0.10986423 -0.34431651 0
0.57812953 0.46718717 -0.37029672 0
-0.78460288 -0.26999974 -0.33410722 0
-0.76251292 -0.20721626 -0.33403593 0
-0.70768881 -0.19319177 -0.35017616 0
-0.61903667 -0.27808309 -0.31329352 0
-0.56109262 -0.3024857 -0.27944547 0
-0.81318831 -0.059922934 -0.37716681 0
-0.73830462 -0.085431099 -0.34928471 0
-0.68045115 -0.12247133 -0.31877959 0
-0.58757615 -0.20113969 -0.29403782 0
-0.89516497 0.1027987 -0.3852405 0
-0.78432894 0.035687208 -0.35234332 0
-0.70771575 0.0087306499 -0.29205823 0
-0.49520516 -0.1584959 -0.31680077 0
0.19128609 -0.45245147 -0.26926875 0
-0.94440675 0.23136234 -0.38869172 0
-0.81604695 0.17652035 -0.37070417 0
-0.78350949 0.1302104 -0.3229028 0
-0.56732082 0.044428825 -0.33848429 0
-0.47717023 -0.012470961 -0.2920804 0
0.19086981 -0.35783029 -0.2659862 0
-0.96848178 0.36958504 -0.39012384 0
-0.88467455 0.31925774 -0.38663697 0
-0.7758832 0.21617365 -0.37616789 0
-0.69152498 0.19849372 -0.37895173 0
-0.63969183 0.16223788 -0.37219602 0
-0.50883698 0.13086939 -0.35083842 0
-0.4970026 0.060587645 -0.32573044 0
-0.92113805 0.42328358 -0.38753861 0
-0.82344866 0.39652705 -0.38353556 0
-0.73293781 0.29757094 -0.37797302 0
-0.62362885 0.28179884 -0.3768084 0
-0.51068187 0.20167208 -0.37233567 0
-0.38869119 0.16138816 -0.3616547 0
-0.7693851 0.48502946 -0.38153112 0
-0.67948174 0.40558219 -0.37819356 0
-0.57668161 0.4163723 -0.37881696 0
-0.5535686 0.34691429 -0.3729592 0
-0.44796896 0.29840279 -0.3706941 0
-0.30006623 0.24022985 -0.36395741 0
-0.5914185 0.49565506 -0.37325782 0
-0.49947667 0.45244074 -0.37222654 0
-0.38417912 0.38244057 -0.36770582 0
-0.26254964 0.34059882 -0.36326033 0
-0.10663748 0.29902506 -0.35654175 0
-0.35229874 0.48861289 -0.36794782 0
-0.23221278 0.40455914 -0.36172938 0
-0.081403255 0.31155396 -0.35310835 0
-0.19472909 0.49066234 -0.35977358 0
-0.055924177 0.43448043 -0.35298365 0
