# .PCD v0.7 - Point Cloud Data file format
VERSION 0.7
FIELDS x y z intensity
SIZE 4 4 4 4
TYPE F F F F
COUNT 1 1 1 1
WIDTH 1294
HEIGHT 1
VIEWPOINT 0 0 0 1 0 0 0
POINTS 1294
DATA ascii
0.90485096 0.13465881 -0.35135412 0
-0.080409527 0.2421484 -0.35589266 0
0.0065321922 0.24132919 -0.35534215 0
0.12418127 0.24211216 -0.35647511 0
0.21102285 0.23553371 -0.35627699 0
0.29131317 0.26357079 -0.35573339 0
0.38785362 0.23709106 -0.3550365 0
0.5062232 0.23997784 -0.35625005 0
0.618999 0.24577713 -0.35438371 0
0.74713469 0.24215221 -0.35558581 0
0.87266541 0.25734138 -0.35597444 0
0.96996164 0.22356796 -0.35270739 0
-0.063371658 0.36508179 -0.35997295 0
-0.0086364746 0.34584141 -0.35721946 0
0.1015873 0.3448 -0.35820436 0
0.19309282 0.36425304 -0.35644984 0
0.2855072 0.32453346 -0.35606837 0
0.4009676 0.35373878 -0.35708117 0
0.51571846 0.3519249 -0.35603833 0
0.59606552 0.35383987 -0.35265374 0
0.70534754 0.34164143 -0.35172009 0
0.84416437 0.31659794 -0.35342908 0
0.85330439 0.37222672 -0.35488987 0
0.95714808 0.34300518 -0.35273838 0
-0.10073948 0.44035816 -0.35502124 0
0.0090241432 0.46283913 -0.35770178 0
0.11668015 0.46763706 -0.35766339 0
0.19990826 0.44785976 -0.35667562 0
0.31734419 0.4484129 -0.35532117 0
0.40842056 0.44613171 -0.35507584 0
0.50328159 0.44634151 -0.35175109 0
0.59936428 0.44548416 -0.35404444 0
0.70286846 0.45960236 -0.35270762 0
0.81176853 0.45713043 -0.35122585 0
0.89737082 0.44534683 -0.35162282 0
-0.26262617 -0.44378948 -0.37072992 0
-0.16810656 -0.44929314 -0.36881685 0
-0.059453011 -0.45069408 -0.36696625 0
0.045901299 -0.45075703 -0.36612153 0
0.14015055 -0.42733955 -0.3629899 0
0.22340822 -0.46233559 -0.36116016 0
0.37534332 -0.45842934 -0.36140919 0
0.41021729 -0.46865273 -0.36147177 0
0.4800663 -0.44581413 -0.36072838 0
0.6178112 -0.42626095 -0.3634932 0
-0.25232553 -0.33786011 -0.36827707 0
-0.17162514 -0.35844707 -0.36775661 0
-0.059046268 -0.35256004 -0.36557603 0
0.063619137 -0.35756493 -0.36660504 0
0.11740494 -0.3398056 -0.36500609 0
0.24971867 -0.34252357 -0.36257482 0
0.33800745 -0.34686947 -0.36166131 0
0.40414524 -0.34871387 -0.36312866 0
0.49804688 -0.371562 -0.36177433 0
-0.26596022 -0.26235104 -0.36459577 0
-0.16606998 -0.24046326 -0.36574626 0
-0.051686764 -0.25285721 -0.36500144 0
0.032031536 -0.25469685 -0.36378551 0
0.11514521 -0.23188877 -0.36271048 0
0.21554804 -0.26269341 -0.36242533 0
0.29697275 -0.24068737 -0.36186182 0
0.40460825 -0.2281723 -0.36196864 0
0.5129323 -0.24035168 -0.36200118 0
-0.24409151 -0.15394402 -0.36515534 0
-0.16495419 -0.12546921 -0.36444688 0
-0.079232216 -0.13849831 -0.36498189 0
0.020593166 -0.14624596 -0.36224341 0
0.14855194 -0.13290119 -0.36280966 0
0.2318716 -0.1595993 -0.36282504 0
0.32048321 -0.15645885 -0.35953152 0
0.41119909 -0.12193203 -0.36205888 0
-0.24943829 -0.053599358 -0.3651619 0
-0.17993784 -0.041937828 -0.36366296 0
-0.068161011 -0.036267281 -0.36320794 0
0.032611847 -0.042910576 -0.36172223 0
0.13303137 -0.047038078 -0.3604697 0
0.21850061 -0.051567078 -0.3606981 0
0.2975421 -0.063406944 -0.36056423 0
0.39454412 -0.046358109 -0.36006594 0
0.51916742 -0.0016145706 -0.36214113 0
-0.24980783 0.052742958 -0.3644172 0
-0.17178106 0.061489105 -0.36220992 0
-0.070972919 0.042491913 -0.36414921 0
0.023049831 0.051491737 -0.36157298 0
0.15816784 0.05921936 -0.36354518 0
0.2028861 0.060027122 -0.35924363 0
0.31871605 0.052481651 -0.36319542 0
0.40614605 0.062855721 -0.3616519 0
-0.2450161 0.16757011 -0.36526728 0
-0.17733765 0.16767502 -0.36305416 0
-0.097587585 0.15275574 -0.36219358 0
0.023905277 0.14111996 -0.36315274 0
0.11714268 0.15582371 -0.36190534 0
0.2213397 0.16896915 -0.36208987 0
0.30901957 0.14948177 -0.36271763 0
0.39688349 0.14465046 -0.36115861 0
0.51768494 0.1336956 -0.36260414 0
-0.2808938 0.2470417 -0.36251211 0
-0.17492771 0.26180553 -0.36391973 0
-0.068284035 0.24582767 -0.36242366 0
0.021905899 0.25230408 -0.36255884 0
0.11241007 0.25382614 -0.36039734 0
0.20883036 0.24758148 -0.36162758 0
0.3000226 0.24801064 -0.36278272 0
0.40044165 0.23469257 -0.36243153 0
0.50369596 0.24371147 -0.36210966 0
-0.3253417 0.3572979 -0.36000896 0
-0.27621937 0.33082008 -0.36452365 0
-0.18096828 0.36134624 -0.36366415 0
-0.077654839 0.35106182 -0.36381674 0
0.015060425 0.3470192 -0.36418581 0
0.12245607 0.35940266 -0.36314535 0
0.21725082 0.33911991 -0.36174154 0
0.29783726 0.3796587 -0.36450553 0
0.38956356 0.34254265 -0.36266565 0
0.48448038 0.39272022 -0.36155176 0
-0.32491875 0.49199867 -0.36352968 0
-0.27664852 0.42960358 -0.36204863 0
-0.17701864 0.47325993 -0.36257386 0
-0.076468468 0.45681953 -0.36384606 0
0.042400837 0.44783878 -0.36292219 0
0.13065815 0.45193291 -0.36143589 0
0.22512436 0.43705082 -0.36208344 0
0.30487776 0.4567194 -0.36279559 0
0.38974428 0.43281555 -0.36382294 0
0.7009306 -0.44928551 -0.36036932 0
0.84420633 -0.47189331 -0.36118603 0
0.95655346 -0.46195793 -0.35602939 0
0.48044348 -0.31948853 -0.35900104 0
0.60902977 -0.3479023 -0.36133909 0
0.7202692 -0.34790134 -0.36124063 0
0.84169483 -0.35419178 -0.35896873 0
0.96801901 -0.32714748 -0.35545301 0
0.61093044 -0.26061344 -0.36037505 0
0.69976091 -0.26457024 -0.35749364 0
0.87051153 -0.23639774 -0.36075068 0
0.96923923 -0.2193327 -0.35431242 0
0.51874542 -0.13221836 -0.35868263 0
0.60637808 -0.16886234 -0.35875726 0
0.70679569 -0.16895294 -0.35720634 0
0.83701086 -0.15441322 -0.35592246 0
0.96860313 -0.16889477 -0.35376954 0
0.99286556 -0.1035099 -0.35615277 0
0.49635601 -0.05570507 -0.35948682 0
0.61231565 -0.033840179 -0.35952306 0
0.71439219 -0.067759514 -0.35786152 0
0.84494877 -0.019770622 -0.35654259 0
0.96465015 -0.037181854 -0.35267425 0
0.49893999 0.057304382 -0.36006951 0
0.61429834 0.061870575 -0.36031008 0
0.73085403 0.029261589 -0.36011934 0
0.87113142 0.063810349 -0.35991216 0
0.95811033 0.090123177 -0.35264945 0
0.97963381 0.050208092 -0.35474014 0
0.48311996 0.16406918 -0.3590405 0
0.62829638 0.16217327 -0.36274767 0
0.72300386 0.14928818 -0.36028433 0
0.85899878 0.15852642 -0.35942507 0
0.98774147 0.15511799 -0.35649061 0
0.47118282 0.29558659 -0.35918927 0
0.61691475 0.25126743 -0.36228037 0
0.72104454 0.26933289 -0.36134791 0
0.85449266 0.28353882 -0.36040115 0
0.95657873 0.25064087 -0.35424995 0
0.33303785 0.31770229 -0.356318 0
0.45598888 0.33042908 -0.35780883 0
0.61436462 0.34435558 -0.36268616 0
0.70539808 0.36239243 -0.36030555 0
0.81849384 0.37353325 -0.35724139 0
0.46076393 0.4569931 -0.35976958 0
0.56871605 0.49237633 -0.35938072 0
0.59267235 0.43455219 -0.3612268 0
0.69782782 0.4615736 -0.36053729 0
0.80118084 0.44686604 -0.35610247 0
0.97783422 0.48705959 -0.35917401 0
0.99585915 0.43987751 -0.36061668 0
-0.42676163 -0.45582962 -0.3693912 0
-0.33213139 -0.44530296 -0.36987829 0
-0.22934675 -0.46853828 -0.36932182 0
-0.15090513 -0.42494583 -0.37164605 0
-0.060534 -0.45452404 -0.36937988 0
0.034655571 -0.47240448 -0.36674452 0
0.14815378 -0.47240734 -0.36620998 0
0.23227739 -0.46107864 -0.36292017 0
0.34395552 -0.45722008 -0.36250567 0
0.47610283 -0.44933987 -0.36455822 0
0.57778072 -0.46519947 -0.36340141 0
0.72312832 -0.46439838 -0.36392844 0
-0.42909527 -0.33759403 -0.368469 0
-0.34520197 -0.36111927 -0.36880732 0
-0.22674417 -0.36047649 -0.36909413 0
-0.14031887 -0.35808849 -0.3672092 0
-0.074117184 -0.37175369 -0.36966097 0
0.042042255 -0.36203861 -0.36793363 0
0.15164089 -0.3737278 -0.36808884 0
0.23634863 -0.37867355 -0.36258912 0
0.35244036 -0.34747028 -0.36256123 0
0.46620655 -0.36623669 -0.36252105 0
0.58111763 -0.36901665 -0.3628695 0
-0.41012716 -0.26472282 -0.36911356 0
-0.36962271 -0.25553036 -0.36780167 0
-0.25672197 -0.25296402 -0.3681314 0
-0.15320015 -0.24647903 -0.36710107 0
-0.043058395 -0.25712585 -0.36442554 0
0.053791523 -0.27287483 -0.36606884 0
0.13350725 -0.25605202 -0.36431003 0
0.27830648 -0.25515747 -0.3664912 0
0.36427355 -0.25586033 -0.36344838 0
0.48113585 -0.26474762 -0.36361909 0
0.59394026 -0.24279976 -0.36344337 0
-0.42167807 -0.16202736 -0.36587548 0
-0.36363268 -0.15981388 -0.36495399 0
-0.25907993 -0.15119457 -0.3654747 0
-0.14905739 -0.14202499 -0.36647606 0
-0.052731037 -0.1532383 -0.36458623 0
0.061022758 -0.16306305 -0.3654871 0
0.14976454 -0.14980698 -0.36259079 0
0.27475452 -0.14887142 -0.36496675 0
0.36681652 -0.14455795 -0.36307526 0
0.46855593 -0.1560688 -0.36193442 0
0.58799887 -0.19378376 -0.36234367 0
-0.42599964 -0.085229874 -0.3644371 0
-0.35578585 -0.05787468 -0.36479104 0
-0.24590063 -0.048459053 -0.36409855 0
-0.17082262 -0.043166161 -0.3630929 0
-0.04743433 -0.055049896 -0.36345947 0
0.052671432 -0.05123806 -0.3628509 0
0.15179634 -0.065846443 -0.36240053 0
0.25171518 -0.050112724 -0.36225331 0
0.3763113 -0.04165554 -0.36427784 0
0.46021938 -0.04041481 -0.36121345 0
0.60374832 -0.043272018 -0.36471272 0
-0.41961145 0.039629936 -0.36450052 0
-0.3539238 0.054611206 -0.36454129 0
-0.26987076 0.029921532 -0.36368811 0
-0.16404438 0.03623867 -0.36052465 0
-0.048001289 0.039318085 -0.36327505 0
0.072653294 0.048151016 -0.36298859 0
0.14266968 0.03428936 -0.36180401 0
0.23716164 0.051222801 -0.3611455 0
0.35528374 0.034213066 -0.36232233 0
0.47965193 0.060829163 -0.36398768 0
-0.41176462 0.16388607 -0.36550105 0
-0.36422348 0.14901543 -0.36167359 0
-0.24234104 0.14010048 -0.36406136 0
-0.15498209 0.13276482 -0.36079848 0
-0.023481846 0.14230633 -0.36242628 0
0.051007271 0.12103176 -0.36122036 0
0.12898588 0.13260841 -0.36112523 0
0.25186586 0.14753914 -0.36363697 0
0.37748861 0.15646553 -0.36581397 0
0.47469091 0.12729263 -0.36399746 0
-0.43234634 0.23433113 -0.3611567 0
-0.34429264 0.24114037 -0.36164021 0
-0.25287056 0.24441433 -0.36171651 0
-0.1483717 0.26941681 -0.36202884 0
-0.049541473 0.24546242 -0.36311412 0
0.048874378 0.22186089 -0.36223722 0
0.13451004 0.24482059 -0.36315727 0
0.22359324 0.22124672 -0.36146951 0
0.33509827 0.23039532 -0.36211872 0
0.46937609 0.27887154 -0.36530113 0
-0.44983149 0.33996487 -0.36140013 0
-0.34031057 0.34702396 -0.3640511 0
-0.24599314 0.34587383 -0.36317658 0
-0.16422081 0.35267925 -0.36249113 0
-0.070851803 0.35994148 -0.36081958 0
0.0674963 0.34106636 -0.36276817 0
0.22331142 0.33423519 -0.3632493 0
0.32521009 0.31873512 -0.36242247 0
-0.52917862 0.45394897 -0.35883403 0
-0.44929075 0.4247942 -0.36221552 0
-0.34623337 0.44873428 -0.3625598 0
-0.2631669 0.42884636 -0.361516 0
-0.13901854 0.44950581 -0.36403322 0
-0.032846928 0.46754932 -0.36278772 0
0.072907925 0.43515491 -0.36232066 0
0.18536043 0.43036079 -0.3611424 0
0.3140955 0.43451977 -0.36322951 0
0.72160339 -0.41525364 -0.36329222 0
0.87677383 -0.43125534 -0.36390734 0
0.98601627 -0.47695541 -0.35729277 0
0.55670118 -0.30922031 -0.35962081 0
0.67751598 -0.38491154 -0.35785007 0
0.7122941 -0.3182354 -0.3613292 0
0.84852219 -0.36653233 -0.35980582 0
0.69882536 -0.21372223 -0.35886335 0
0.72945356 -0.25683212 -0.36280787 0
0.8668251 -0.24644947 -0.36096048 0
0.9931531 -0.30553246 -0.35682821 0
0.57167339 -0.15207577 -0.36053801 0
0.69606781 -0.11886978 -0.35837364 0
0.72244978 -0.15282249 -0.36129999 0
0.86128569 -0.14092731 -0.35978198 0
0.99838781 -0.19329548 -0.35685086 0
0.56868219 -0.10523319 -0.36041212 0
0.72802639 -0.047930717 -0.36238742 0
0.84907913 -0.036081314 -0.35869455 0
0.9958806 -0.047704697 -0.35645509 0
0.58002138 0.042469025 -0.36274242 0
0.69406033 0.030742645 -0.35932207 0
0.75654268 0.035148621 -0.35774088 0
0.85278177 0.046632767 -0.35986185 0
0.97497177 0.091042519 -0.35545826 0
0.44195652 0.16587067 -0.36083245 0
0.5784235 0.16935349 -0.36374235 0
0.6810236 0.17882252 -0.35980535 0
0.72363806 0.12289619 -0.36363268 0
0.85100174 0.14864826 -0.36090255 0
0.98523951 0.15157127 -0.35736156 0
0.43465948 0.20917797 -0.36057901 0
0.5435605 0.25494766 -0.36104918 0
0.70137691 0.25268173 -0.36293864 0
0.83370781 0.22386169 -0.3601799 0
0.9833374 0.23635864 -0.35844374 0
0.2910018 0.37134361 -0.35974407 0
0.43434191 0.3312149 -0.36235285 0
0.52166843 0.3492527 -0.35976362 0
0.69466591 0.30153465 -0.36267066 0
0.70866346 0.36017418 -0.36483335 0
0.82880592 0.3342495 -0.36107516 0
0.95793867 0.33588791 -0.3572917 0
0.27344275 0.46286488 -0.35947204 0
0.3945713 0.48840141 -0.36036777 0
0.42718601 0.42685032 -0.36290717 0
0.53019953 0.45393562 -0.36211419 0
0.64580917 0.44019985 -0.35910821 0
0.79558706 0.39887905 -0.35823941 0
0.82208681 0.47267056 -0.36215186 0
0.94077635 0.45049477 -0.35695553 0
-0.58637905 -0.46731853 -0.36422181 0
-0.53119516 -0.43876839 -0.36410129 0
-0.437253 -0.46044445 -0.36338317 0
-0.31635332 -0.45023251 -0.36467171 0
-0.21312428 -0.45329666 -0.36514461 0
-0.14612532 -0.46177387 -0.36244619 0
-0.018786907 -0.45731831 -0.35964346 0
0.11270761 -0.43205547 -0.35705614 0
0.19846392 -0.4605484 -0.35310495 0
0.34773064 -0.4602766 -0.35602188 0
0.48610163 -0.46147823 -0.35831392 0
0.60309505 -0.45447063 -0.35463405 0
0.77833748 -0.44692039 -0.35638416 0
0.90547657 -0.48480988 -0.35084319 0
0.93387747 -0.41716766 -0.35405612 0
-0.57524061 -0.38607883 -0.36401486 0
-0.52691603 -0.33918762 -0.36511254 0
-0.42134333 -0.3599987 -0.36583662 0
-0.32342815 -0.34865761 -0.36544681 0
-0.22386217 -0.3641367 -0.36222601 0
-0.11831713 -0.34401703 -0.36136127 0
-0.017948151 -0.36127949 -0.35999715 0
0.18821859 -0.34339428 -0.35850132 0
0.34024 -0.37154484 -0.35478461 0
0.46989202 -0.37129498 -0.35605216 0
0.5925293 -0.35494709 -0.35321999 0
0.76802874 -0.36615753 -0.35497344 0
0.94739437 -0.35103321 -0.35539103 0
-0.57821274 -0.29394913 -0.36236989 0
-0.52261829 -0.2509985 -0.36422503 0
-0.4137764 -0.25358105 -0.36371112 0
-0.30809069 -0.26059532 -0.36290121 0
-0.21002388 -0.26317406 -0.36243713 0
-0.10597372 -0.24433899 -0.36070025 0
-0.014159679 -0.27890587 -0.35950112 0
0.065712929 -0.22554016 -0.35897553 0
0.1342926 -0.26845646 -0.35867465 0
0.2866168 -0.25340939 -0.35808468 0
0.37333059 -0.28555393 -0.35861945 0
0.47284746 -0.27592182 -0.35633969 0
0.6069541 -0.2407608 -0.35460114 0
0.74501371 -0.29443073 -0.35205197 0
-0.57540417 -0.14984035 -0.36079705 0
-0.51909161 -0.1371212 -0.36245251 0
-0.43721628 -0.16843224 -0.36110687 0
-0.31613398 -0.14768505 -0.36079955 0
-0.2207365 -0.15282726 -0.36016512 0
-0.12228727 -0.15569782 -0.36164379 0
-0.026090622 -0.14198685 -0.35886848 0
0.097540379 -0.15988159 -0.35806835 0
0.2239666 -0.15045643 -0.35524273 0
0.24674129 -0.13419819 -0.35766995 0
0.37360573 -0.14239311 -0.35874283 0
0.4904418 -0.16347599 -0.35858202 0
0.60002565 -0.13383579 -0.35409784 0
0.76013136 -0.17367744 -0.35374212 0
-0.53194284 -0.040457726 -0.36247838 0
-0.43474817 -0.04809761 -0.36066711 0
-0.34133148 -0.072275162 -0.36152995 0
-0.23038912 -0.032102585 -0.3610158 0
-0.12534142 -0.079312325 -0.35750914 0
-0.011703014 -0.022528648 -0.35873294 0
0.031352997 -0.084321022 -0.35867143 0
0.16014433 -0.044953346 -0.35692215 0
0.2319417 -0.053826332 -0.35650849 0
0.36547518 -0.025362968 -0.35863423 0
0.4614439 -0.076274872 -0.35599542 0
0.5745225 -0.039393425 -0.35242438 0
0.78566217 -0.067998886 -0.35718727 0
-0.5829277 0.029144287 -0.35908508 0
-0.52390003 0.042554855 -0.36077249 0
-0.41446447 0.049970627 -0.35966551 0
-0.31243181 0.0371418 -0.3588506 0
-0.25389719 0.043045998 -0.35612297 0
-0.13119364 0.044185638 -0.35795116 0
-0.054480553 0.032337189 -0.35889721 0
0.068940163 0.040988922 -0.35758114 0
0.13786602 0.046226501 -0.35941362 0
0.27124834 0.060693741 -0.35773373 0
0.33946943 0.086519241 -0.35705423 0
0.4473052 0.019507408 -0.35539412 0
0.57920122 0.045069695 -0.3541522 0
0.76794481 0.034519196 -0.35666084 0
-0.59489918 0.15499783 -0.35774624 0
-0.52472019 0.14460373 -0.35848546 0
-0.43651295 0.1748991 -0.35875738 0
-0.34410048 0.1477375 -0.35903502 0
-0.23701954 0.15021896 -0.35895145 0
-0.11469316 0.15219498 -0.35864258 0
-0.02443409 0.15898132 -0.35487652 0
0.070991516 0.15614128 -0.35823965 0
0.18716955 0.16030216 -0.35430288 0
0.37179041 0.17281914 -0.3576858 0
0.45273876 0.13115883 -0.35745192 0
0.60507822 0.13001442 -0.35827398 0
-0.59145021 0.25810814 -0.35807014 0
-0.49781704 0.25337315 -0.35856771 0
-0.41043186 0.24726772 -0.3578608 0
-0.31398535 0.24429226 -0.35880136 0
-0.22121191 0.27036858 -0.35843778 0
-0.12777328 0.24982929 -0.35893822 0
-0.030135632 0.27624512 -0.35929585 0
0.095429897 0.2617712 -0.35815573 0
0.16885281 0.2534256 -0.35402107 0
0.32774353 0.27654839 -0.35894418 0
0.39080429 0.25387764 -0.35705328 0
0.5866518 0.22812557 -0.35793924 0
-0.62880278 0.35524654 -0.35827708 0
-0.51712942 0.34875298 -0.35878944 0
-0.40877676 0.35402679 -0.35908413 0
-0.31241655 0.36414528 -0.35873294 0
-0.18626165 0.36269665 -0.35982203 0
-0.092573166 0.35608959 -0.36034822 0
-0.052247524 0.33989239 -0.35550284 0
0.087574482 0.34620857 -0.35913014 0
0.1892128 0.35468483 -0.35829449 0
0.28364611 0.35850525 -0.35608983 0
0.39518404 0.35860634 -0.3554976 0
0.56672716 0.30641079 -0.35709238 0
-0.61403894 0.46360683 -0.35851765 0
-0.51523638 0.42967987 -0.36182594 0
-0.40907335 0.4559536 -0.35908389 0
-0.31185913 0.45372009 -0.35790944 0
-0.2296586 0.44583797 -0.35759473 0
-0.11811829 0.45423794 -0.36020803 0
-0.050347328 0.43026447 -0.3579185 0
0.04678154 0.4429121 -0.3572948 0
0.1523447 0.45891571 -0.3570559 0
0.26382637 0.45350552 -0.35599327 0
0.37559557 0.43574429 -0.35483909 0
0.7170229 -0.23908424 -0.34878993 0
0.92342567 -0.26394463 -0.35252833 0
0.94209242 -0.13779449 -0.35485244 0
0.88489294 -0.014467239 -0.34955525 0
0.93836784 -0.050285339 -0.35482121 0
0.697649 0.087352753 -0.35004687 0
0.88617134 0.043729782 -0.35058022 0
0.73758602 0.16083813 -0.35561371 0
0.89757967 0.13721561 -0.35342431 0
0.70442963 0.26065731 -0.35405397 0
0.74310684 0.21654987 -0.35731792 0
0.86902618 0.24258709 -0.35257792 0
0.53797626 0.35551548 -0.35482931 0
0.70687056 0.34694672 -0.35568905 0
0.82542229 0.37905407 -0.35053611 0
0.87831068 0.33739662 -0.35541224 0
0.36744499 0.47812462 -0.35486317 0
0.52245188 0.45692158 -0.35509014 0
0.55443287 0.41709805 -0.3576684 0
0.67699671 0.44807816 -0.35439157 0
0.81112003 0.43208694 -0.35005188 0
0.99314737 0.44361782 -0.35167933 0
0.83590269 0.49949551 -0.35401893 0
-0.6849761 -0.44463158 -0.36355007 0
-0.59616137 -0.44982433 -0.36488032 0
-0.49254179 -0.43758392 -0.36406326 0
-0.41351318 -0.4538393 -0.36231184 0
-0.3198514 -0.41750813 -0.365206 0
-0.19908333 -0.43368912 -0.36300349 0
-0.078892708 -0.45436382 -0.3601408 0
0.042704582 -0.44664478 -0.36005592 0
0.1455121 -0.45511723 -0.35714006 0
0.25731993 -0.45168209 -0.35469735 0
0.28708792 -0.48557091 -0.35807157 0
0.37273407 -0.43913174 -0.35313821 0
0.54078817 -0.43337727 -0.3543365 0
0.58188725 -0.46553802 -0.3589586 0
0.72108507 -0.4516201 -0.35539663 0
0.88758278 -0.4225235 -0.35329604 0
0.99299908 -0.46557331 -0.34390616 0
-0.68892956 -0.33247471 -0.36500406 0
-0.59032011 -0.33549786 -0.36506629 0
-0.51414824 -0.34820366 -0.36348295 0
-0.37344217 -0.3398056 -0.36318493 0
-0.27829885 -0.35750771 -0.36215866 0
-0.14706135 -0.35373783 -0.36253023 0
-0.071005821 -0.31889915 -0.36025119 0
0.017963409 -0.34494591 -0.36170924 0
0.14121819 -0.3303833 -0.35692072 0
0.16913557 -0.37137699 -0.35988104 0
0.2873373 -0.34106445 -0.35841727 0
0.38603926 -0.3217659 -0.35493076 0
0.54235792 -0.3480463 -0.35479403 0
0.73851156 -0.35061169 -0.35771716 0
0.88159227 -0.36442089 -0.3527329 0
-0.69845629 -0.23843193 -0.36318219 0
-0.57277346 -0.24388123 -0.36466372 0
-0.47233772 -0.2504282 -0.36450851 0
-0.40885496 -0.26242828 -0.36078966 0
-0.28470898 -0.2519865 -0.36037326 0
-0.15526104 -0.23157692 -0.3606652 0
-0.091450691 -0.24759293 -0.36105788 0
0.03007412 -0.22541142 -0.3579967 0
0.10846186 -0.2441988 -0.35769069 0
0.21499443 -0.21359253 -0.35785031 0
0.28088188 -0.2473774 -0.35807097 0
0.39939404 -0.24220371 -0.35700464 0
0.52762222 -0.21172714 -0.35373306 0
0.57834005 -0.24704266 -0.35931802 0
0.7082572 -0.25018024 -0.35463762 0
0.88473082 -0.26414394 -0.35351419 0
-0.66964245 -0.13596725 -0.36340272 0
-0.58369255 -0.1483326 -0.36343503 0
-0.50448418 -0.15546799 -0.36007512 0
-0.41703415 -0.13852501 -0.36164653 0
-0.30047894 -0.14293861 -0.36086214 0
-0.19462061 -0.16577911 -0.35959661 0
-0.096666336 -0.14862061 -0.35672498 0
0.020650387 -0.15453625 -0.35690808 0
0.1293025 -0.11762047 -0.35552502 0
0.23606157 -0.11493587 -0.35349321 0
0.30293894 -0.12869835 -0.354002 0
0.37950563 -0.16953278 -0.35518861 0
0.51544857 -0.13661766 -0.35326219 0
0.63182831 -0.13301373 -0.34710836 0
0.6862669 -0.16604328 -0.3526361 0
0.833992 -0.16041946 -0.3486197 0
-0.69593954 -0.048309326 -0.35998166 0
-0.58467197 -0.033802032 -0.36089575 0
-0.49414873 -0.041611671 -0.35900474 0
-0.37185717 -0.056072235 -0.36007917 0
-0.27977991 -0.042331696 -0.35716271 0
-0.19138479 -0.050937653 -0.35913587 0
-0.092967987 -0.056404114 -0.3573283 0
0.030929089 -0.056781769 -0.35832107 0
0.10640764 -0.032241821 -0.3537401 0
0.250319 -0.051657677 -0.35575724 0
0.41011572 -0.0229702 -0.36012673 0
0.52161646 -0.048090935 -0.35529685 0
0.64633846 -0.068776131 -0.34970546 0
0.83502531 -0.036771774 -0.3503406 0
-0.68624401 0.081303596 -0.359285 0
-0.60830832 0.048437119 -0.35932469 0
-0.50847816 0.063619614 -0.35785019 0
-0.39717531 0.04518795 -0.35926032 0
-0.29408741 0.063911438 -0.35865676 0
-0.21522379 0.04326725 -0.35783684 0
-0.11675453 0.045118332 -0.35544443 0
0.0072789192 0.050238609 -0.35683417 0
0.094103336 0.057152748 -0.35371733 0
0.24347448 0.050293922 -0.35646319 0
0.26040554 0.0066576004 -0.35761571 0
0.3610096 0.03666687 -0.35577297 0
0.50268078 0.0548563 -0.35490131 0
0.63953447 0.045825958 -0.35119772 0
0.7028265 0.022241592 -0.35730696 0
0.80395985 0.073856354 -0.34935737 0
0.99925184 0.078751564 -0.35060215 0
-0.74810696 0.19608784 -0.35670769 0
-0.71226692 0.16387367 -0.35633874 0
-0.60521126 0.15474987 -0.35940528 0
-0.48229504 0.1594286 -0.35945511 0
-0.39367056 0.15678501 -0.35826838 0
-0.31481743 0.17179012 -0.35536325 0
-0.1856432 0.16245842 -0.35559988 0
-0.11813068 0.18272972 -0.35754299 0
-0.014473438 0.15946579 -0.35637832 0
0.11682844 0.17083836 -0.35811043 0
0.21190977 0.16347027 -0.35516453 0
0.31506395 0.13494682 -0.35904956 0
0.36404514 0.11274242 -0.35736513 0
0.48632669 0.15997696 -0.35511684 0
0.65383196 0.16993904 -0.35545516 0
0.66498947 0.11596489 -0.3553381 0
0.79310179 0.15943336 -0.35021591 0
0.9763217 0.16413879 -0.35023785 0
-0.76628304 0.25384426 -0.3561554 0
-0.69050598 0.26915169 -0.35908234 0
-0.59421968 0.25103951 -0.35813498 0
-0.48803282 0.24430847 -0.3599844 0
-0.40837479 0.26389503 -0.35650897 0
-0.27225065 0.25921345 -0.3569181 0
-0.16180277 0.27554417 -0.35505509 0
-0.051446438 0.21877861 -0.35373926 0
-0.022640705 0.27201843 -0.35788035 0
0.10228872 0.25598812 -0.35420322 0
0.19945431 0.23375893 -0.35533261 0
0.32023096 0.23107052 -0.35520458 0
0.47605562 0.24250793 -0.35582757 0
0.64223671 0.28919697 -0.35680485 0
0.6724 0.23856163 -0.35898161 0
0.79351568 0.25339031 -0.35260653 0
0.98461485 0.26750183 -0.35372066 0
-0.76957035 0.35411739 -0.35841548 0
-0.68576622 0.37037754 -0.35780084 0
-0.61116266 0.34893513 -0.35643911 0
-0.49386311 0.34263992 -0.35801959 0
-0.40094852 0.35330963 -0.35514688 0
-0.31129217 0.36590958 -0.35716081 0
-0.19816351 0.35308933 -0.35771084 0
-0.054515362 0.40019417 -0.35787964 0
-0.0032362938 0.36048794 -0.35611939 0
0.061487675 0.31985474 -0.35570192 0
0.18658161 0.35883427 -0.35702252 0
0.31014919 0.36037922 -0.35729074 0
0.42801094 0.36899376 -0.35373211 0
0.47044706 0.32727432 -0.35725284 0
0.61329889 0.36288071 -0.35532141 0
0.75161839 0.33324623 -0.3500731 0
0.76615191 0.40169239 -0.35311055 0
0.96427965 0.32306957 -0.35320997 0
-0.79417276 0.44616127 -0.3561666 0
-0.70635796 0.4561224 -0.35663724 0
-0.60247564 0.44734669 -0.35742283 0
-0.48630667 0.48264694 -0.35893559 0
-0.39375639 0.45193005 -0.35786414 0
-0.29709291 0.47065449 -0.35558629 0
-0.1891222 0.46729469 -0.35748959 0
-0.092606544 0.45234489 -0.35557985 0
0.11193562 0.44809341 -0.35808229 0
0.17059612 0.48165512 -0.35882092 0
0.27710629 0.48218155 -0.35710382 0
0.41359663 0.44324112 -0.35394931 0
0.54086351 0.48441505 -0.35075998 0
0.59516478 0.45102692 -0.35546637 0
0.91531515 0.36998272 -0.34926867 0
0.70035648 0.47394466 -0.34817219 0
0.89555788 0.46199608 -0.34949303 0
-0.88299751 -0.45344925 -0.36024642 0
-0.82386398 -0.4530983 -0.36141479 0
-0.7240777 -0.43374252 -0.36123514 0
-0.63150597 -0.44626999 -0.36318481 0
-0.52450657 -0.45502853 -0.36239469 0
-0.37892485 -0.44067574 -0.36172485 0
-0.2854147 -0.43865681 -0.36083615 0
-0.18851614 -0.44144249 -0.3605938 0
-0.11986494 -0.44954014 -0.36100149 0
-0.0391078 -0.44955349 -0.36269748 0
0.046613693 -0.44263935 -0.35704255 0
0.16429329 -0.44733143 -0.35427117 0
0.29589319 -0.44679928 -0.35317922 0
0.43287277 -0.46103954 -0.34935522 0
0.63643885 -0.44747639 -0.35170865 0
0.85872316 -0.43352222 -0.35426962 0
-0.88108683 -0.33606815 -0.35955703 0
-0.81994724 -0.35679054 -0.3616699 0
-0.7106967 -0.33969498 -0.362306 0
-0.62983656 -0.33393288 -0.36290848 0
-0.51481485 -0.34527969 -0.36212564 0
-0.42237616 -0.3569212 -0.35923672 0
-0.29924822 -0.33688927 -0.35884464 0
-0.19350147 -0.35209274 -0.35974693 0
-0.066204071 -0.3712759 -0.35999238 0
-0.052227974 -0.30481815 -0.36156666 0
0.080738068 -0.37091446 -0.35620022 0
0.1683073 -0.31351662 -0.35615396 0
0.28866529 -0.3395195 -0.35363555 0
0.47435284 -0.34970188 -0.35502183 0
0.6224966 -0.35761356 -0.35125899 0
0.79268265 -0.33460999 -0.34816718 0
0.84561539 -0.37347221 -0.3534869 0
-0.88283062 -0.27044201 -0.35884917 0
-0.8094945 -0.241889 -0.36306357 0
-0.74191046 -0.25230026 -0.36068106 0
-0.60492277 -0.24400902 -0.36133575 0
-0.51161242 -0.25646877 -0.35966969 0
-0.39272976 -0.22855759 -0.35961843 0
-0.290277 -0.23907185 -0.35978174 0
-0.19149446 -0.2300024 -0.35997427 0
-0.089137077 -0.25532818 -0.3575201 0
0.025747299 -0.24764252 -0.35584414 0
0.091807842 -0.22523975 -0.35574532 0
0.16014767 -0.26133728 -0.3555119 0
0.27216387 -0.2422781 -0.35303879 0
0.45337677 -0.24409294 -0.35413396 0
0.63780689 -0.21920776 -0.35455322 0
0.64583731 -0.28896427 -0.35463119 0
0.79221916 -0.25559998 -0.34913182 0
0.91766596 -0.2069788 -0.34220505 0
0.98600292 -0.25176716 -0.34875607 0
-0.87071323 -0.17677021 -0.35928226 0
-0.81996536 -0.13475418 -0.35892332 0
-0.73316288 -0.14781666 -0.35704172 0
-0.60103703 -0.15127373 -0.36082149 0
-0.49745464 -0.13677216 -0.3586936 0
-0.40706205 -0.1246357 -0.3583039 0
-0.31197453 -0.15661716 -0.35758269 0
-0.22014427 -0.14913845 -0.35711908 0
-0.10798216 -0.16222572 -0.35589099 0
0.026992321 -0.14177704 -0.35667396 0
0.13721466 -0.10095787 -0.35442483 0
0.20151424 -0.12440968 -0.35402298 0
0.28327799 -0.14146614 -0.35523903 0
0.46817636 -0.14660454 -0.35725522 0
0.62527514 -0.13291359 -0.35458517 0
0.79969835 -0.15308571 -0.351475 0
0.95682812 -0.11466312 -0.34803176 0
-0.88879967 -0.043286324 -0.35654736 0
-0.82627487 -0.044602394 -0.3579365 0
-0.70075989 -0.04692173 -0.35854006 0
-0.61296749 -0.032314301 -0.35848641 0
-0.50865984 -0.056430817 -0.35786438 0
-0.41629934 -0.019223213 -0.3580147 0
-0.3227005 -0.045215607 -0.35718429 0
-0.22119427 -0.049314499 -0.35778141 0
-0.11626959 -0.062855721 -0.35583806 0
-0.0022072792 -0.048374176 -0.35450089 0
0.11354542 -0.02752018 -0.35310459 0
0.26382446 -0.043154716 -0.35491323 0
0.39814806 -0.026333809 -0.35222554 0
0.45657587 -0.088933945 -0.35707331 0
0.58170509 -0.028339386 -0.35253835 0
0.77241564 -0.027552605 -0.35135484 0
0.8917985 -0.0054016113 -0.34386897 0
0.95333719 -0.043409348 -0.34906721 0
-0.89265442 0.048495293 -0.35481846 0
-0.79953623 0.06730938 -0.35549295 0
-0.68886614 0.042822838 -0.35878193 0
-0.60756063 0.066005707 -0.35758317 0
-0.50858402 0.051333427 -0.3588798 0
-0.39682722 0.058828354 -0.35564649 0
-0.27128458 0.042240143 -0.35341752 0
-0.2393899 0.061243057 -0.35714591 0
-0.12671566 0.05872345 -0.35633779 0
-0.029779434 0.074586868 -0.35377407 0
0.10268068 0.069584846 -0.35400748 0
0.24926805 0.037656784 -0.35507679 0
0.43673897 0.076792717 -0.35851383 0
0.54421329 0.048466682 -0.35073924 0
0.71372604 0.075131416 -0.34826565 0
0.9282198 0.089461327 -0.35028338 0
-0.92352486 0.1508131 -0.35280144 0
-0.79161787 0.14208508 -0.35609365 0
-0.7084136 0.15663338 -0.3571136 0
-0.63655376 0.15425014 -0.35529101 0
-0.51408243 0.15488911 -0.35460651 0
-0.30539846 0.15940952 -0.35678828 0
-0.13206291 0.17156887 -0.35396552 0
-0.026202679 0.14970493 -0.35586429 0
0.096590042 0.1746769 -0.35589004 0
0.23412609 0.17396164 -0.35675597 0
0.24819756 0.12061024 -0.35686612 0
0.36834192 0.14159298 -0.35312581 0
0.50659895 0.15960789 -0.34979844 0
0.54514599 0.10914898 -0.35235882 0
0.75207281 0.19704342 -0.35580611 0
0.87166643 0.15737534 -0.34676695 0
-0.9602747 0.29241371 -0.35448766 0
-0.89766026 0.25358295 -0.35619521 0
-0.80526686 0.23540401 -0.35627174 0
-0.70694065 0.25059986 -0.3546927 0
-0.5977087 0.2613802 -0.35579872 0
-0.48272848 0.28287983 -0.35607672 0
-0.41560602 0.25650978 -0.35735369 0
-0.30732918 0.25881672 -0.35671139 0
-0.18716335 0.25409031 -0.35469484 0
-0.074604988 0.28122711 -0.35445118 0
-0.0036668777 0.26596928 -0.35471511 0
0.051720142 0.2403698 -0.35309029 0
0.19162464 0.23913193 -0.3542285 0
0.35356188 0.25100136 -0.35463762 0
0.51119041 0.26021385 -0.35315657 0
0.70269156 0.26882648 -0.35308695 0
0.87800407 0.25977135 -0.3507688 0
-0.95955944 0.39380264 -0.35774791 0
-0.90983295 0.35340595 -0.35547411 0
-0.79791546 0.36673069 -0.35622644 0
-0.71201801 0.35689449 -0.35584593 0
-0.60678196 0.36147785 -0.35496306 0
-0.52737713 0.34585762 -0.35572362 0
-0.41546345 0.34763908 -0.35531378 0
-0.31966162 0.37897682 -0.3567338 0
-0.21735764 0.33867455 -0.35413957 0
-0.08088398 0.36017895 -0.35620522 0
0.019922256 0.38619995 -0.35432744 0
0.065402508 0.35718727 -0.3578999 0
0.17169428 0.34443569 -0.35535955 0
0.32932854 0.35765839 -0.35545969 0
0.48222542 0.36945343 -0.35332775 0
0.70465136 0.38106346 -0.35643363 0
0.8589797 0.36470509 -0.35217357 0
-0.99445295 0.44792652 -0.35630178 0
-0.92220116 0.46345234 -0.35708761 0
-0.82193518 0.46422863 -0.35650468 0
-0.70115328 0.47006512 -0.35788465 0
-0.60648537 0.4600668 -0.35482931 0
-0.54526854 0.47175694 -0.3559463 0
-0.41031075 0.457304 -0.35492945 0
-0.20152283 0.45426655 -0.35547709 0
-0.1235137 0.43876839 -0.35457373 0
0.0025458336 0.45702362 -0.35500312 0
0.13057852 0.46759224 -0.35536265 0
0.14783287 0.42156506 -0.35548449 0
0.2758193 0.45672798 -0.35323548 0
0.40722847 0.49234962 -0.3495779 0
0.47931528 0.4674139 -0.35594821 0
0.64019203 0.44554615 -0.351964 0
0.79886532 0.476264 -0.34970284 0
-0.9555068 -0.44382668 -0.35976207 0
-0.85330725 -0.45891953 -0.35781622 0
-0.74773407 -0.4363842 -0.35944462 0
-0.66314459 -0.45782471 -0.35946798 0
-0.56793213 -0.43419266 -0.3576529 0
-0.43858957 -0.40889263 -0.35728204 0
-0.3825736 -0.43703461 -0.35989761 0
-0.25272179 -0.4489603 -0.35758615 0
-0.084170341 -0.44820404 -0.35631859 0
0.020338535 -0.44963264 -0.35196686 0
0.17068386 -0.45159626 -0.35271263 0
0.3246069 -0.42178535 -0.35047483 0
0.49834108 -0.42084122 -0.34928858 0
0.65642691 -0.47173119 -0.3439039 0
0.88176918 -0.46734905 -0.34652376 0
-0.95567751 -0.36914253 -0.35996747 0
-0.86508846 -0.34106541 -0.3610605 0
-0.75023699 -0.34001446 -0.35902536 0
-0.65560341 -0.35625744 -0.3584621 0
-0.52734566 -0.33510685 -0.35883999 0
-0.47064495 -0.3612709 -0.35944319 0
-0.35652304 -0.31766319 -0.35919142 0
-0.22956514 -0.35666561 -0.355551 0
-0.1006279 -0.32114887 -0.35523224 0
0.025953293 -0.34265327 -0.35372758 0
0.18013382 -0.33427906 -0.35531139 0
0.28508902 -0.29212189 -0.34838724 0
0.32305527 -0.3317728 -0.35167277 0
0.48154783 -0.29611015 -0.34940457 0
0.49191141 -0.36042309 -0.34946454 0
0.65066385 -0.33083725 -0.34546471 0
0.70384216 -0.38253403 -0.35036612 0
0.85430241 -0.32175732 -0.3459034 0
0.9231329 -0.37732792 -0.35238004 0
-0.96286058 -0.2367506 -0.3585856 0
-0.86457968 -0.25061607 -0.35870063 0
-0.77771425 -0.23964882 -0.36018813 0
-0.67222929 -0.25043583 -0.36034632 0
-0.55293894 -0.24455738 -0.3587575 0
-0.44177818 -0.24441433 -0.35708308 0
-0.35062742 -0.23807812 -0.35634065 0
-0.24908113 -0.26433086 -0.35365868 0
-0.13565922 -0.21032143 -0.35205388 0
-0.073088169 -0.2286272 -0.35879409 0
0.04060173 -0.22752285 -0.35623288 0
0.13370514 -0.23944664 -0.35135436 0
0.32363987 -0.20584774 -0.35376787 0
0.47804594 -0.2339859 -0.35006404 0
0.70998907 -0.2402935 -0.35316205 0
0.83674765 -0.22412491 -0.34576392 0
-0.96345425 -0.14003563 -0.35460544 0
-0.84257793 -0.13499737 -0.35726941 0
-0.71567345 -0.14170837 -0.35872197 0
-0.62460518 -0.12806606 -0.35907507 0
-0.56732845 -0.15710068 -0.35826969 0
-0.44620132 -0.15150833 -0.35699749 0
-0.36686182 -0.14688587 -0.35507524 0
-0.23747301 -0.15498066 -0.35567963 0
-0.13657141 -0.12270927 -0.35282588 0
0.010982037 -0.12404919 -0.35410511 0
0.13732147 -0.12028599 -0.35317993 0
0.30027819 -0.13074875 -0.35242927 0
0.45065641 -0.15394211 -0.34879184 0
0.64845419 -0.15650272 -0.34813356 0
0.85898924 -0.10619354 -0.35040927 0
-0.98248434 -0.034544945 -0.35417819 0
-0.85987854 -0.038671494 -0.35444975 0
-0.77905273 -0.050117493 -0.35362077 0
-0.65057278 -0.053792 -0.35643744 0
-0.57040071 -0.041231155 -0.35526633 0
-0.45975542 -0.041146278 -0.35644531 0
-0.38478279 -0.03361702 -0.35424924 0
-0.27148914 -0.042699814 -0.35316825 0
-0.16450548 -0.033185959 -0.3556 0
-0.020145416 0.0038719177 -0.35259509 0
-0.0066142082 -0.044605255 -0.35328126 0
0.11504793 -0.0095129013 -0.35280085 0
0.25753641 -0.051884651 -0.34960985 0
0.44846678 -0.023528099 -0.35156679 0
0.61338949 -0.043315887 -0.34743166 0
0.78492641 -0.063954353 -0.34385061 0
0.80256653 0.0048055649 -0.34763932 0
-0.95784569 0.07816124 -0.35269773 0
-0.84938002 0.044986725 -0.35590971 0
-0.77795029 0.060316086 -0.35231614 0
-0.65413761 0.052962303 -0.35424626 0
-0.58202839 0.043719292 -0.35489297 0
-0.4701457 0.056661606 -0.35312712 0
-0.39213324 0.10798359 -0.35547853 0
-0.28262377 0.031621933 -0.35303247 0
-0.20066833 0.036223412 -0.34821391 0
-0.038452148 0.079076767 -0.35243106 0
0.067281246 0.047571182 -0.34920359 0
0.18569613 0.09057045 -0.34576058 0
0.26152563 0.036272049 -0.35209799 0
0.42762566 0.064346313 -0.35163951 0
0.61956835 0.057919502 -0.35099459 0
0.81477976 0.085812569 -0.35136008 0
-0.9788537 0.16144085 -0.3527323 0
-0.85906363 0.15253735 -0.35265136 0
-0.77737045 0.15242481 -0.35066581 0
-0.66524839 0.15089893 -0.35325933 0
-0.55204582 0.17146873 -0.35460591 0
-0.46847248 0.15063667 -0.354846 0
-0.34875631 0.17359447 -0.35292995 0
-0.26086712 0.11741638 -0.3567369 0
-0.18680811 0.1456213 -0.35216761 0
-0.087316513 0.16400433 -0.34964347 0
0.038442612 0.18102455 -0.34977961 0
0.13359833 0.16624355 -0.35084748 0
0.20224428 0.16328907 -0.34943295 0
0.38553286 0.16993427 -0.35033536 0
0.42891598 0.12472153 -0.35340691 0
0.58455133 0.18166924 -0.35134077 0
0.59263992 0.11493587 -0.35011363 0
0.75215483 0.1638937 -0.34776497 0
0.95241976 0.12470722 -0.34060168 0
-0.95994091 0.2526598 -0.35370266 0
-0.87629938 0.24924088 -0.35336685 0
-0.76638317 0.27746296 -0.35504532 0
-0.67240381 0.26137352 -0.35372019 0
-0.56947327 0.24710083 -0.35285354 0
-0.46357346 0.26635742 -0.35170269 0
-0.35438204 0.24855518 -0.35047841 0
-0.21824741 0.28560352 -0.35289454 0
-0.16827869 0.26133251 -0.35075235 0
-0.08438158 0.24971676 -0.35235143 0
0.032662868 0.29603577 -0.35261226 0
0.19522095 0.27694035 -0.35211754 0
0.39418554 0.27447033 -0.35437536 0
0.53588724 0.2593708 -0.34890699 0
0.70900631 0.25532722 -0.34672666 0
0.97041798 0.2873764 -0.34820461 0
0.99256516 0.2262373 -0.34809804 0
-0.94966698 0.37308121 -0.35458422 0
-0.88241148 0.34909439 -0.353338 0
-0.77414513 0.349967 -0.35501814 0
-0.66271591 0.35969734 -0.35323715 0
-0.58203077 0.36575985 -0.35207295 0
-0.46666193 0.38253975 -0.3549788 0
-0.36385298 0.36838436 -0.35324812 0
-0.24676085 0.3516531 -0.3521452 0
-0.11930943 0.36778259 -0.35259509 0
0.022990227 0.37554169 -0.3542161 0
0.17364216 0.35457611 -0.3525064 0
0.3332057 0.3733654 -0.35158849 0
0.52998829 0.36325741 -0.35145497 0
0.67863607 0.38918686 -0.34789753 0
0.71442699 0.32378578 -0.34935284 0
0.96718884 0.3495779 -0.35022569 0
-0.96065521 0.44541264 -0.35417581 0
-0.86251163 0.44824409 -0.35397243 0
-0.79064322 0.45695114 -0.35283589 0
-0.6613555 0.4545126 -0.35352159 0
-0.56034946 0.48705578 -0.35395288 0
-0.47012758 0.45358467 -0.35704732 0
-0.36747789 0.46699905 -0.35229826 0
-0.25270605 0.42827702 -0.3541255 0
-0.1707592 0.48622799 -0.35172987 0
-0.048695087 0.44312763 -0.35372424 0
0.12466908 0.45632458 -0.35128307 0
0.28904057 0.44602108 -0.34956694 0
0.46659279 0.47229862 -0.34873676 0
0.50774002 0.42542648 -0.35122275 0
0.64086008 0.47275829 -0.3470242 0
0.92140722 0.45109558 -0.34918833 0
-0.27211475 -0.49927807 -0.36249125 0
-0.91077852 -0.44075775 -0.36455333 0
-0.80864143 -0.44204235 -0.36292386 0
-0.7244482 -0.44818211 -0.36183131 0
-0.61044931 -0.44033813 -0.36349726 0
-0.54576206 -0.44035816 -0.36366665 0
-0.39885044 -0.44597721 -0.36292601 0
-0.32247734 -0.41913605 -0.35726106 0
-0.25770521 -0.43915558 -0.36442614 0
-0.13249731 -0.43477917 -0.36299396 0
-0.022377968 -0.44977665 -0.35959744 0
0.14369106 -0.44363689 -0.35878718 0
0.29887867 -0.44366837 -0.35530758 0
0.48747587 -0.444767 -0.35448623 0
0.67075014 -0.45802593 -0.35330081 0
0.90397072 -0.43089581 -0.35182464 0
0.93881559 -0.47464466 -0.35449088 0
-0.9207406 -0.34822178 -0.3638947 0
-0.79785109 -0.33535004 -0.36424208 0
-0.71454811 -0.33552837 -0.3632381 0
-0.6174016 -0.35420704 -0.36305976 0
-0.52178621 -0.32774734 -0.3633759 0
-0.38671446 -0.33811569 -0.36484218 0
-0.27165937 -0.34136677 -0.36318362 0
-0.1589942 -0.33918858 -0.36070037 0
-0.043413162 -0.34505939 -0.35855556 0
0.11824989 -0.33509541 -0.35785365 0
0.27836084 -0.32682228 -0.35528302 0
0.47767162 -0.34689713 -0.35510659 0
0.65899658 -0.35672855 -0.35395241 0
0.85446882 -0.32792473 -0.34853911 0
-0.93217516 -0.26514244 -0.36313868 0
-0.83224392 -0.23319149 -0.36293352 0
-0.71617746 -0.22456169 -0.36006808 0
-0.61264181 -0.23938084 -0.36430109 0
-0.54287195 -0.24574757 -0.36138606 0
-0.42011499 -0.25900459 -0.3614279 0
-0.30847979 -0.25067139 -0.35964179 0
-0.20996523 -0.25080109 -0.3607024 0
-0.061486721 -0.23387814 -0.35764098 0
0.10217714 -0.24748898 -0.35717356 0
0.25515699 -0.25044727 -0.3542248 0
0.4130187 -0.20040417 -0.35130596 0
0.45254469 -0.25457001 -0.35425532 0
0.66482496 -0.23415852 -0.35678482 0
0.84427881 -0.21171474 -0.34986472 0
-0.89412022 -0.13618565 -0.36291981 0
-0.82164145 -0.13301563 -0.36157799 0
-0.70755482 -0.13360023 -0.36464679 0
-0.64484501 -0.11742496 -0.36137152 0
-0.54761887 -0.14800644 -0.36148047 0
-0.4224391 -0.15554905 -0.36192083 0
-0.3173604 -0.14418316 -0.35967541 0
-0.21391916 -0.14010239 -0.35659719 0
-0.063810349 -0.14910316 -0.35842085 0
0.084655762 -0.13711739 -0.35685122 0
0.24020243 -0.15505981 -0.35417438 0
0.4630971 -0.11812115 -0.35832381 0
0.61028194 -0.15586567 -0.35276079 0
0.84278822 -0.12994003 -0.35155535 0
-0.91180611 -0.038328171 -0.36099339 0
-0.83002853 -0.059626579 -0.35758305 0
-0.73224974 -0.033033371 -0.35888767 0
-0.62146235 -0.025855064 -0.35963845 0
-0.52238703 -0.049628258 -0.36086237 0
-0.44756746 -0.040962219 -0.36048996 0
-0.33407974 -0.022857666 -0.35942638 0
-0.19511366 -0.043990135 -0.35993552 0
-0.10453844 -0.050402641 -0.35561168 0
0.018353462 -0.0098152161 -0.35229683 0
0.07956171 -0.038403511 -0.3579607 0
0.23974466 -0.05758667 -0.35618067 0
0.41261005 0.0008430481 -0.35614371 0
0.44255733 -0.050451279 -0.35785961 0
0.5696702 -0.036456108 -0.35201621 0
0.8010149 -0.035282135 -0.34996915 0
-0.91628456 0.059599876 -0.36109233 0
-0.83596849 0.053159714 -0.3584131 0
-0.70770693 0.053202629 -0.35891414 0
-0.60476303 0.068556786 -0.35759068 0
-0.4980216 0.064229965 -0.35670912 0
-0.37959433 0.087553978 -0.35648286 0
-0.37181664 0.042485237 -0.35648215 0
-0.2330699 0.048698425 -0.35751534 0
-0.10137653 0.067386627 -0.3580898 0
0.027097702 0.054718971 -0.35479236 0
0.19027758 0.046281815 -0.35376811 0
0.24524498 0.0067815781 -0.35830855 0
0.40306139 0.060685158 -0.35679269 0
0.58981705 0.077377319 -0.35751629 0
0.80989885 0.07886982 -0.35452962 0
-0.9282217 0.15692806 -0.35729516 0
-0.82753944 0.14406109 -0.35623097 0
-0.71432877 0.16062832 -0.35660481 0
-0.61214495 0.16297436 -0.35807323 0
-0.50264406 0.16333675 -0.35798824 0
-0.39909601 0.15906715 -0.35589671 0
-0.28101778 0.13470745 -0.35434413 0
-0.25782728 0.20175552 -0.35850024 0
-0.15749311 0.12733173 -0.35397935 0
0.03242588 0.14696789 -0.35781646 0
0.1891017 0.14532471 -0.35640717 0
0.38250256 0.14962101 -0.35731816 0
0.5111413 0.11252499 -0.35074377 0
0.74266958 0.15485477 -0.35062551 0
0.98321438 0.16889858 -0.34783626 0
-0.92119169 0.24511051 -0.35603523 0
-0.80995607 0.2631588 -0.35892856 0
-0.73923826 0.25959873 -0.35667574 0
-0.63155079 0.27082348 -0.35608923 0
-0.5262022 0.25250721 -0.35757637 0
-0.41724348 0.25451374 -0.35660219 0
-0.32138586 0.27709579 -0.35443115 0
-0.23937893 0.27747631 -0.3564117 0
-0.15360451 0.2387104 -0.35753703 0
-0.014014244 0.24512672 -0.35608006 0
0.15960026 0.25606728 -0.35684371 0
0.30636024 0.28090858 -0.3539536 0
0.32943773 0.22751141 -0.3544693 0
0.54143953 0.24105358 -0.35781336 0
0.75307894 0.28447628 -0.35626936 0
0.96252537 0.27903843 -0.3500247 0
-0.91611004 0.3495388 -0.35627127 0
-0.80718946 0.35507202 -0.35598087 0
-0.71916819 0.35289288 -0.35715723 0
-0.67256021 0.35079765 -0.35728431 0
-0.51410389 0.3838377 -0.35704136 0
-0.45418787 0.33826542 -0.35556936 0
-0.31851292 0.36139965 -0.35742164 0
-0.22186852 0.3513546 -0.35439396 0
-0.048336506 0.3464613 -0.35597682 0
0.099020004 0.35760212 -0.3542881 0
0.28362083 0.33988094 -0.35375381 0
0.4803009 0.34783173 -0.35533476 0
0.69658804 0.36142731 -0.35324574 0
0.97309494 0.36551094 -0.3543272 0
-0.93503857 0.45736313 -0.3573221 0
-0.78427505 0.44532585 -0.35827804 0
-0.72797394 0.47482681 -0.35837269 0
-0.5981822 0.46338272 -0.35744405 0
-0.51323938 0.45666599 -0.35777116 0
-0.34904051 0.45670891 -0.35776949 0
-0.21947289 0.43488216 -0.3575325 0
-0.098471642 0.44261265 -0.35450768 0
0.077375412 0.4695406 -0.35622954 0
0.28736734 0.4428463 -0.35770845 0
0.40394258 0.49125957 -0.3526969 0
0.46408224 0.44751072 -0.35702825 0
0.65568733 0.4679985 -0.35296106 0
0.87910795 0.48618793 -0.34962034 0
0.96476364 0.4460001 -0.35639405 0
-0.96790075 -0.49327469 -0.36816585 0
-0.7941637 -0.49607468 -0.36711216 0
-0.96871138 -0.40288925 -0.36680388 0
-0.83185482 -0.35856724 -0.36749804 0
-0.81013441 -0.41840935 -0.36780334 0
-0.68262911 -0.40729523 -0.36749053 0
-0.95711279 -0.27589798 -0.36764932 0
-0.8377161 -0.29957771 -0.36879253 0
-0.74021721 -0.27478027 -0.36632466 0
-0.70869493 -0.32445049 -0.36768174 0
-0.96174097 -0.18964195 -0.36889327 0
-0.85683346 -0.2179575 -0.36894488 0
-0.99084759 -0.13960934 -0.36696637 0
-0.8773694 -0.13704491 -0.36868 0
-0.51900864 -0.4629612 -0.36762023 0
-0.18876743 -0.49241638 -0.36854243 0
-0.076444626 -0.47979355 -0.36086369 0
0.32587242 -0.44990253 -0.35722375 0
0.57292223 -0.44146347 -0.35984755 0
-0.55235815 -0.41086864 -0.36617017 0
-0.38283205 -0.38836002 -0.36858165 0
-0.23461819 -0.39798832 -0.36792684 0
-0.085318565 -0.40476704 -0.36345696 0
0.13676023 -0.41763496 -0.363289 0
0.31620836 -0.36619186 -0.36056995 0
-0.57554722 -0.32028484 -0.36711156 0
-0.41889095 -0.29825115 -0.36828089 0
-0.25939512 -0.28795052 -0.36935234 0
-0.11732006 -0.25397205 -0.36618078 0
-0.091945171 -0.31347561 -0.36634386 0
0.076243877 -0.25842094 -0.36490619 0
0.13641644 -0.33402348 -0.36727452 0
0.29543638 -0.28355885 -0.3629477 0
-0.75937462 -0.18578815 -0.36694133 0
-0.6264987 -0.24296951 -0.36491287 0
-0.6109705 -0.16129398 -0.3690598 0
-0.44894838 -0.20142841 -0.36862695 0
-0.34838343 -0.1812706 -0.36463571 0
-0.30993223 -0.24019623 -0.36617947 0
-0.16222143 -0.18582439 -0.36455131 0
0.024623871 -0.2058773 -0.36222494 0
0.20742559 -0.19277382 -0.35902548 0
-0.86614895 -0.071045876 -0.36527133 0
-0.79980993 -0.10659695 -0.36486578 0
-0.66928005 -0.089291573 -0.36540258 0
-0.55662251 -0.079613686 -0.36255634 0
-0.47531462 -0.098367691 -0.36267984 0
-0.37435913 -0.11976624 -0.36444032 0
-0.18341541 -0.083854675 -0.36658287 0
-0.066583157 -0.083683968 -0.35886216 0
0.054985523 -0.086363792 -0.36005056 0
0.19002295 -0.066837311 -0.36305642 0
-0.96660709 0.0056257248 -0.36318302 0
-0.86566401 0.024224281 -0.36183369 0
-0.70272017 -0.004070282 -0.36453795 0
-0.54929066 -0.0089616776 -0.36584401 0
-0.42682219 -0.0037937164 -0.36389208 0
-0.25579691 0.0032920837 -0.36331832 0
-0.15680599 0.031159401 -0.35548925 0
-0.049220562 0.0090675354 -0.36447155 0
-0.96654654 0.12272644 -0.3612566 0
-0.89619875 0.094575882 -0.36093283 0
-0.74975014 0.073040962 -0.36222148 0
-0.64348888 0.1202774 -0.36092329 0
-0.56474686 0.05472374 -0.36644495 0
-0.4699564 0.088335991 -0.36347711 0
-0.35118008 0.10403347 -0.35865521 0
-0.28066778 0.059903145 -0.36334682 0
-0.1574173 0.10792255 -0.35899556 0
-0.96987867 0.19369698 -0.36197662 0
-0.83274508 0.24655628 -0.36127663 0
-0.79283094 0.17708492 -0.36191857 0
-0.65927267 0.20689583 -0.36276436 0
-0.58644295 0.20525837 -0.35696471 0
-0.51632643 0.16805172 -0.36213446 0
-0.36481333 0.20921326 -0.36202574 0
-0.18556452 0.21390438 -0.36166668 0
-0.95755529 0.29471684 -0.36368608 0
-0.84371567 0.29924107 -0.36262357 0
-0.72536945 0.30926323 -0.36139584 0
-0.6908493 0.26165199 -0.36234796 0
-0.57138968 0.31110764 -0.36330771 0
-0.42528439 0.35317135 -0.36351061 0
-0.38917065 0.28990555 -0.36364555 0
-0.26539803 0.32053185 -0.35987496 0
-0.97655535 0.37007523 -0.36531448 0
-0.8684001 0.41051483 -0.36246336 0
-0.75426817 0.38927555 -0.36256635 0
-0.63840055 0.40912819 -0.36200428 0
-0.45415306 0.40791798 -0.36366153 0
-0.49409723 0.48602772 -0.36407137 0
0.88121271 -0.48258591 -0.35987675 0
0.53125811 -0.38060093 -0.35903883 0
0.74410057 -0.33257198 -0.35523391 0
0.8259635 -0.39616203 -0.35941005 0
0.50808573 -0.29431343 -0.36117887 0
0.69675446 -0.24738789 -0.35518551 0
0.45262432 -0.21460724 -0.36016369 0
0.64104366 -0.17091084 -0.35401273 0
0.94240713 -0.17995739 -0.35257196 0
0.32141447 -0.094751358 -0.35444498 0
0.43921185 -0.13475037 -0.36294556 0
0.6383543 -0.075991631 -0.35906315 0
0.94834566 -0.072184563 -0.35890675 0
0.10716677 0.060265541 -0.36176515 0
0.2773428 0.049759865 -0.35795856 0
0.35885382 0.016910553 -0.36349821 0
0.51872396 0.04787159 -0.35585022 0
0.59144592 -0.005440712 -0.35913825 0
0.8013649 0.064406395 -0.35451889 0
0.88891459 -0.0033435822 -0.35777044 0
0.037744999 0.10626221 -0.35786295 0
0.21813583 0.12731552 -0.35677648 0
0.49939394 0.13284969 -0.35881948 0
0.77472639 0.14795876 -0.35741639 0
-0.021656513 0.24471951 -0.35966277 0
-0.00087213516 0.16975117 -0.35765243 0
0.1708169 0.18868065 -0.35585093 0
0.48115063 0.21840286 -0.36197186 0
0.71007586 0.21831608 -0.35636854 0
-0.034239292 0.31142044 -0.36201382 0
0.14442825 0.29903698 -0.35945845 0
0.3711257 0.34960079 -0.35978055 0
0.39458561 0.27502346 -0.35760427 0
0.63355446 0.32038593 -0.35570335 0
-0.35391665 0.45852184 -0.35915804 0
-0.31524372 0.40348816 -0.35970283 0
-0.11991787 0.42760658 -0.36062264 0
-0.076720715 0.37574768 -0.36165881 0
0.11795902 0.40628719 -0.36298394 0
0.33849049 0.43025303 -0.36149573 0
0.56370354 0.43120098 -0.35595012 0
0.089930058 0.48428345 -0.36485696 0
0.30410099 0.49566841 -0.36207795 0
0.50792503 0.4929266 -0.35468507 0
0.96956682 0.31190491 -0.35501647 0
0.84355736 0.4601717 -0.35337329 0
0.94957876 0.39313126 -0.35836172 0
-0.88190985 -0.48620987 -0.374295 0
-0.75660038 -0.48465443 -0.37235832 0
-0.60335732 -0.49543762 -0.3729918 0
-0.80607605 -0.44210148 -0.36845255 0
-0.64481926 -0.44966316 -0.37006748 0
-0.45673323 -0.47701073 -0.37009454 0
-0.27099895 -0.43389511 -0.37054908 0
-0.064339638 -0.47720051 -0.36742711 0
0.12982321 -0.47453117 -0.36501586 0
0.38739109 -0.41876793 -0.36492538 0
0.69549084 -0.46331978 -0.36370707 0
0.99945402 -0.40738487 -0.36282527 0
-0.94448709 -0.38811874 -0.37026381 0
-0.78282309 -0.37295437 -0.37263727 0
-0.65590858 -0.3898468 -0.37067485 0
-0.47897625 -0.37828922 -0.37094712 0
-0.30529833 -0.38436413 -0.36865771 0
-0.13541079 -0.33629513 -0.36580491 0
-0.089576721 -0.39847183 -0.36813927 0
0.094760418 -0.36847782 -0.36619604 0
0.32040167 -0.35851479 -0.36132193 0
