# .PCD v0.7 - Point Cloud Data file format
VERSION 0.7
FIELDS x y z intensity
SIZE 4 4 4 4
TYPE F F F F
COUNT 1 1 1 1
WIDTH 694
HEIGHT 1
VIEWPOINT 0 0 0 1 0 0 0
POINTS 694
DATA ascii
0.34867883 -0.45417547 -0.24727064 0
0.4194572 -0.48856401 -0.25315657 0
0.49461031 -0.45775509 -0.27850887 0
0.6482389 -0.49800086 -0.35970244 0
0.73190713 -0.45940256 -0.35987392 0
0.79316139 -0.42484283 -0.36115068 0
0.88270569 -0.48336458 -0.36537442 0
0.96435285 -0.49983096 -0.36809203 0
0.86304998 -0.34271526 -0.36613157 0
0.91486096 -0.39383888 -0.36652189 0
0.9096005 -0.24869847 -0.3721523 0
0.99783206 -0.19178557 -0.37361747 0
0.97090936 0.13064694 -0.32604364 0
0.99467754 0.24887395 -0.32424003 0
0.98753691 0.18235612 -0.32556933 0
0.13476014 -0.49119496 -0.26547974 0
0.17142463 -0.41859484 -0.25744104 0
0.22944713 -0.458848 -0.25664532 0
0.32730937 -0.4950788 -0.24805188 0
0.28886628 -0.4111762 -0.26762092 0
0.37637901 -0.45126534 -0.26558959 0
0.44026494 -0.46473384 -0.27106509 0
0.43547845 -0.3970499 -0.30159804 0
0.16851926 -0.38662124 -0.25001177 0
0.077539444 -0.45021677 -0.31090021 0
0.13128328 -0.47860861 -0.28048974 0
0.10626292 -0.29753494 -0.29699484 0
0.12157488 -0.35102868 -0.30116284 0
0.17024708 -0.28920007 -0.31793517 0
0.26001167 -0.35304856 -0.30670288 0
0.3515799 -0.3766377 -0.30688253 0
0.45445561 -0.43934226 -0.27516708 0
0.53161621 -0.48903966 -0.27237979 0
0.31239319 -0.25621367 -0.35047415 0
0.41928768 -0.34393692 -0.33078369 0
0.49514461 -0.3770287 -0.33141387 0
0.52935219 -0.42694139 -0.3314465 0
0.35621881 -0.16760898 -0.35196304 0
0.45040727 -0.25836158 -0.35200742 0
0.5419662 -0.29555416 -0.35566598 0
0.63199139 -0.36279106 -0.3586936 0
0.7257123 -0.48409677 -0.35907614 0
0.75304604 -0.45966434 -0.35770997 0
0.40349531 -0.022414446 -0.35533309 0
0.43360901 -0.11142397 -0.35465381 0
0.53417945 -0.15686679 -0.35654026 0
0.57128334 -0.20358872 -0.35771868 0
0.691957 -0.2683692 -0.3574841 0
0.77698827 -0.34981155 -0.36121523 0
0.92734766 -0.44967985 -0.3653588 0
0.43417692 0.03339982 -0.3548446 0
0.52148795 -0.022078991 -0.35709631 0
0.61005425 -0.073463917 -0.35992253 0
0.65887094 -0.14984632 -0.35883641 0
0.8194797 -0.24759865 -0.36249959 0
0.96162629 -0.35546684 -0.36669552 0
0.45886087 0.16853237 -0.35818711 0
0.46180606 0.1564374 -0.35722449 0
0.55989075 0.07114768 -0.35666311 0
0.63849807 -0.012763023 -0.35916644 0
0.7394073 -0.087483406 -0.36017105 0
0.84680533 -0.12442756 -0.36537865 0
0.8450532 -0.1927557 -0.36243051 0
0.97896433 -0.23210287 -0.37050757 0
0.48646379 0.2640729 -0.35801923 0
0.56831169 0.21362853 -0.3612332 0
0.67584491 0.14669156 -0.36030239 0
0.69611263 0.075905561 -0.36086181 0
0.76115918 -0.0091600418 -0.36041921 0
0.86701727 -0.029523611 -0.36679134 0
0.98654771 -0.12814665 -0.37401527 0
0.49636126 0.39373255 -0.35926485 0
0.50485277 0.3182466 -0.35613328 0
0.58984995 0.28936577 -0.36047256 0
0.68298125 0.23970199 -0.36210504 0
0.77285385 0.12551475 -0.36381623 0
0.87345672 0.086544037 -0.37028542 0
0.95511818 0.064190865 -0.35587716 0
0.49681377 0.4572413 -0.36000365 0
0.60093927 0.40576601 -0.36080164 0
0.69404697 0.34224868 -0.36278784 0
0.79073238 0.30052567 -0.36602536 0
0.78005838 0.22348475 -0.36591321 0
0.89077497 0.18755889 -0.37037534 0
0.97834945 0.15507722 -0.3486149 0
0.68980551 0.45013976 -0.36559168 0
0.79269099 0.39155865 -0.36722335 0
0.90685034 0.33102036 -0.36989307 0
0.97198534 0.26288652 -0.35937217 0
0.98989272 0.19236851 -0.36260316 0
0.79114199 0.49976254 -0.36760506 0
0.90079379 0.45880651 -0.36900866 0
0.93923879 0.39127636 -0.37000969 0
0.14748359 -0.44592214 -0.2618393 0
0.14815927 -0.38847041 -0.25661966 0
0.22245908 -0.39899206 -0.2559258 0
0.32238293 -0.47938704 -0.25493869 0
0.15753078 -0.31316972 -0.27129933 0
0.28299832 -0.37838697 -0.26758125 0
0.32884359 -0.42560673 -0.25167486 0
0.41367888 -0.47321057 -0.25381503 0
0.51097727 0.49676585 -0.35678715 0
0.18695426 -0.45237112 -0.27671275 0
0.24684381 -0.41122627 -0.27115253 0
0.32633567 -0.40357828 -0.28255448 0
0.44925642 -0.4427712 -0.29122403 0
0.59073281 -0.41688466 -0.36360493 0
0.4509325 -0.2707665 -0.3604677 0
0.68297935 -0.4089489 -0.36245653 0
0.58902574 -0.22684956 -0.36060017 0
0.74926877 -0.33306408 -0.36697096 0
0.82451558 -0.32846618 -0.36758655 0
0.45904374 -0.015292406 -0.36174938 0
0.64795828 -0.14296174 -0.36522779 0
0.864779 -0.24438882 -0.37467265 0
0.49899721 0.019343376 -0.36294827 0
0.55247712 0.015457869 -0.36076063 0
0.69387794 -0.099019289 -0.36703479 0
0.73373795 -0.061155796 -0.36845112 0
0.92968774 -0.2414124 -0.37480426 0
0.99751496 -0.23113322 -0.37535638 0
0.60560155 0.10726571 -0.36520356 0
0.81201816 -0.022619963 -0.37050462 0
0.66836143 0.14087296 -0.36483783 0
0.90493083 0.058633327 -0.37371776 0
0.5461576 0.32428455 -0.36312675 0
0.73341203 0.23912287 -0.36859602 0
0.92608047 0.17239642 -0.37531957 0
0.95230055 0.16587615 -0.34709701 0
0.59355402 0.44497657 -0.36778247 0
0.80365634 0.3434701 -0.37365696 0
0.97654128 0.24746776 -0.36018273 0
0.98294306 0.20305157 -0.34366804 0
0.85648942 0.40435743 -0.37573957 0
0.9944315 0.36249733 -0.35391238 0
-0.99411058 -0.45186114 -0.38005704 0
-0.90515637 -0.49645257 -0.37865388 0
-0.96289158 -0.37596464 -0.38074154 0
-0.85849619 -0.41401672 -0.37512261 0
-0.7896626 -0.43983507 -0.37430221 0
-0.70402288 -0.42404103 -0.37191796 0
-0.88046145 -0.28323269 -0.3786484 0
-0.83529186 -0.25014138 -0.36951137 0
-0.90936208 -0.12452006 -0.38112861 0
-0.84997797 -0.17656374 -0.37842089 0
-0.80011034 -0.19811845 -0.36313319 0
-0.22989917 -0.47311854 -0.35504633 0
-0.85170937 -0.057811737 -0.38048285 0
-0.77038646 -0.12466645 -0.36629766 0
-0.17440462 -0.41702056 -0.35452771 0
-0.11457491 -0.38440037 -0.35213423 0
-0.0011196136 -0.49049187 -0.34043661 0
-0.81276917 0.0038039684 -0.36936569 0
-0.16741061 -0.24521327 -0.35494018 0
-0.048320055 -0.35048461 -0.34915075 0
0.049939871 -0.39241576 -0.32976329 0
0.10600638 -0.45179677 -0.29649881 0
-0.68542647 0.079396248 -0.36768329 0
-0.60869455 0.053343058 -0.36205369 0
-0.20249009 -0.15049171 -0.35407752 0
-0.11622691 -0.21454072 -0.35277319 0
0.081973314 -0.32158971 -0.33112329 0
0.12901807 -0.33743095 -0.29385149 0
0.22307348 -0.36909437 -0.28863266 0
0.36161447 -0.41949463 -0.28948167 0
0.40591836 -0.46038747 -0.25481212 0
-0.56817293 0.13057876 -0.36986506 0
-0.51497388 0.14688849 -0.35797596 0
-0.36533284 0.06256628 -0.34431982 0
-0.25549197 0.0015192032 -0.35960722 0
-0.13898897 -0.07463479 -0.35303241 0
-0.045805693 -0.16023898 -0.35000151 0
0.015408754 -0.13300085 -0.34718299 0
0.12664127 -0.23971891 -0.35241139 0
0.2116468 -0.28901434 -0.34037745 0
0.31034517 -0.33678794 -0.33814296 0
0.37947798 -0.31538057 -0.33809465 0
0.4322288 -0.40617251 -0.30928051 0
-0.45842743 0.18450546 -0.36124092 0
-0.36954618 0.16825461 -0.3632592 0
-0.28610229 0.11197305 -0.36009192 0
-0.18783164 0.044644594 -0.35521609 0
-0.084817171 0.0051517487 -0.35148668 0
0.037967205 -0.059521198 -0.35269874 0
0.09761548 -0.071047783 -0.35076672 0
0.19177961 -0.17829299 -0.35611901 0
0.25583315 -0.13844776 -0.35789102 0
-0.39036441 0.28557801 -0.36462671 0
-0.31283188 0.20078254 -0.35888261 0
-0.21557236 0.17942786 -0.35592073 0
-0.12765241 0.14476299 -0.35373026 0
-0.042996168 0.081687212 -0.34757024 0
0.14089966 -0.031877041 -0.3529644 0
0.19182873 -0.040816784 -0.35111642 0
0.3281641 -0.11393642 -0.35807881 0
0.38645244 -0.10113764 -0.35753256 0
-0.32019186 0.36901402 -0.36126196 0
-0.24398994 0.30397511 -0.35651624 0
-0.15911674 0.27105379 -0.35402673 0
-0.066046476 0.23685813 -0.35119879 0
-0.0047380924 0.16975379 -0.34771621 0
0.077931166 0.15113068 -0.34987313 0
0.23937368 0.03920269 -0.3559137 0
0.41599274 -0.030156612 -0.3619794 0
-0.28035593 0.43808079 -0.36015737 0
-0.2330699 0.42773271 -0.35779566 0
-0.12274051 0.3663137 -0.35202527 0
-0.013875008 0.28968573 -0.34776217 0
0.016549349 0.31627345 -0.34854007 0
0.14791107 0.22370577 -0.35283959 0
0.30612731 0.13186383 -0.36065179 0
-0.20023179 0.49951887 -0.35613644 0
-0.099206924 0.4410305 -0.3503176 0
-0.05597806 0.40441537 -0.34772581 0
0.061802387 0.35834765 -0.34962791 0
0.18890953 0.28973842 -0.35597003 0
0.22977901 0.30061269 -0.35496205 0
0.36920214 0.16298556 -0.36056602 0
0.40363574 0.19782925 -0.3616547 0
0.13511753 0.44297075 -0.35187501 0
0.29117727 0.37085629 -0.3567251 0
0.43006945 0.26420212 -0.36514193 0
0.49324727 0.28506804 -0.36343879 0
0.36554265 0.44992399 -0.35765517 0
-0.66313529 -0.35950327 -0.33212465 0
-0.84352422 -0.2244575 -0.35161757 0
-0.77423906 -0.21843576 -0.33690077 0
-0.66126943 -0.27357984 -0.32031423 0
-0.61225748 -0.3010428 -0.29253423 0
-0.53400111 -0.31143808 -0.26493466 0
-0.77671266 -0.067442179 -0.3579914 0
-0.72635889 -0.1520834 -0.34382147 0
-0.64802885 -0.16687465 -0.29999977 0
-0.55459881 -0.17023301 -0.30406755 0
-0.81956148 0.064120531 -0.35044301 0
-0.76810789 0.0028789043 -0.32399362 0
-0.69791675 -0.048927546 -0.30738682 0
-0.58581471 -0.06206274 -0.31216943 0
-0.52848792 -0.13291454 -0.3135429 0
0.14992261 -0.44138384 -0.26472726 0
-0.8099432 0.12967849 -0.32334733 0
-0.76069999 0.11247396 -0.30830735 0
-0.59979868 0.061311007 -0.31747687 0
-0.56099463 0.010228157 -0.31484073 0
-0.4929328 0.00014781952 -0.28537351 0
0.13921618 -0.38348436 -0.25323063 0
0.27290654 -0.4443028 -0.26333165 0
-0.56804967 0.083390713 -0.34738559 0
-0.51450157 0.087607861 -0.32332873 0
-0.45467019 0.067368746 -0.31216145 0
-0.48133588 0.16723442 -0.33176094 0
0.90404177 -0.39650416 -0.37694064 0
0.026280642 -0.3027761 -0.35580856 0
0.081457853 -0.29140425 -0.35607219 0
0.16720963 -0.26692677 -0.356736 0
0.26465511 -0.27140927 -0.35407588 0
0.36150694 -0.37410498 -0.3294189 0
0.40305901 -0.34624577 -0.35952181 0
0.49475694 -0.39914703 -0.34293985 0
0.27911544 -0.16924071 -0.36221766 0
0.48263383 -0.33729243 -0.36481163 0
0.53133106 -0.2903862 -0.36742005 0
0.77439189 -0.46729445 -0.36999252 0
0.14900446 -0.0045552254 -0.3592357 0
0.35008621 -0.11255336 -0.36483464 0
0.60869384 -0.25785303 -0.36804408 0
0.84907579 -0.40394163 -0.3760218 0
0.20630193 0.060106277 -0.36264861 0
0.2735672 0.086536407 -0.36257648 0
0.44424462 -0.049051046 -0.36693013 0
0.68090606 -0.17675138 -0.37216148 0
0.30282068 0.16707587 -0.36743128 0
0.34626508 0.17464566 -0.36629504 0
0.52654457 0.024361134 -0.36954701 0
0.79140115 -0.11146975 -0.37481499 0
0.40610504 0.22960401 -0.36752874 0
0.59543824 0.071220636 -0.37027526 0
0.63659477 0.10168552 -0.37066716 0
0.89407063 -0.02178216 -0.38087723 0
0.95229077 -0.022183418 -0.37997803 0
0.23944354 0.41941524 -0.36282688 0
0.47147727 0.30847549 -0.36957788 0
0.68843222 0.19135404 -0.37443811 0
0.93586659 0.074366093 -0.37244377 0
0.291049 0.45435858 -0.3620609 0
0.52573037 0.35146427 -0.3692404 0
0.74837303 0.25141263 -0.37548479 0
0.9620316 0.16101575 -0.37200645 0
0.98451352 0.11144447 -0.3413924 0
0.56737399 0.42822552 -0.37128955 0
0.78940201 0.29998422 -0.37787145 0
0.83613276 0.29922557 -0.37624469 0
0.98908401 0.24636745 -0.34256104 0
0.87541986 0.40920162 -0.38196415 0
-0.98609638 -0.4359107 -0.38586366 0
-0.91205812 -0.39586544 -0.38437843 0
-0.72938085 -0.45019054 -0.377303 0
-0.82959628 -0.24494481 -0.37136185 0
-0.80729699 -0.35352492 -0.38096464 0
-0.85858464 -0.1093955 -0.38733649 0
-0.79718161 -0.182163 -0.36213636 0
-0.74331355 -0.20971417 -0.34911883 0
-0.6583097 -0.28564548 -0.33359963 0
-0.8670125 -0.045794964 -0.3855502 0
-0.79133034 -0.078302383 -0.37502134 0
-0.72362804 -0.13427067 -0.34759939 0
-0.50859165 -0.17987227 -0.31540602 0
-0.08963871 -0.40845108 -0.3560279 0
0.02970314 -0.49039745 -0.3343173 0
-0.79630446 0.01536274 -0.3549552 0
-0.79068208 -0.025286913 -0.36730307 0
-0.56882715 -0.10151744 -0.32790077 0
-0.026832581 -0.37921405 -0.3529149 0
0.070683241 -0.41218972 -0.32768613 0
0.12497163 -0.47267675 -0.29204729 0
-0.81710887 0.12794065 -0.35815853 0
-0.68840981 0.10762882 -0.38034797 0
-0.5979712 0.037354708 -0.34711826 0
-0.12670851 -0.22626138 -0.35872364 0
-0.089113712 -0.19908309 -0.35727996 0
0.12836146 -0.33522463 -0.30937862 0
0.22390223 -0.40513492 -0.26190615 0
0.26759911 -0.36861491 -0.30599952 0
0.32991338 -0.46415353 -0.26448628 0
0.44553947 -0.45263481 -0.27828684 0
-0.64259291 0.13662028 -0.37858152 0
-0.55249953 0.13187432 -0.36000127 0
-0.47305346 0.11207604 -0.3363151 0
-0.26646709 0.0074429512 -0.36444438 0
-0.18337345 -0.071026325 -0.36170429 0
-0.019974947 -0.12805462 -0.35542184 0
0.39620876 -0.38702369 -0.30619147 0
-0.52762389 0.23233104 -0.37490392 0
-0.41952014 0.17647719 -0.36530221 0
-0.32443357 0.11964035 -0.36664677 0
-0.22551656 0.06970191 -0.36354238 0
-0.14134336 0.031783581 -0.35946101 0
0.065658569 -0.074004412 -0.3555398 0
0.12064075 -0.078614712 -0.354128 0
-0.46058512 0.30425835 -0.37319094 0
-0.37947083 0.28835559 -0.37248737 0
-0.29153514 0.22923422 -0.36637574 0
-0.15568781 0.15802526 -0.36019689 0
-0.090495825 0.12376165 -0.35829955 0
-0.024062634 0.1167438 -0.35398203 0
-0.39833403 0.37147379 -0.37112987 0
-0.29605985 0.38606453 -0.36814547 0
-0.24186492 0.29274631 -0.36311519 0
-0.14306068 0.27524996 -0.35895658 0
0.028464317 0.16283894 -0.35353076 0
-0.34865212 0.46518254 -0.37018067 0
-0.24233222 0.4292028 -0.36400992 0
-0.1540184 0.36257935 -0.35879326 0
-0.080570221 0.31026864 -0.35850835 0
-0.024365664 0.34677315 -0.35312992 0
0.096687078 0.23821616 -0.35674155 0
-0.14353561 0.47243118 -0.3592087 0
0.010215282 0.42141223 -0.35465562 0
0.17064571 0.29662824 -0.35785741 0
0.054125071 0.46510649 -0.3554107 0
0.20652747 0.3910203 -0.36266416 0
-0.57907271 -0.38546515 -0.29410368 0
-0.62327385 -0.27259612 -0.30701357 0
-0.56036305 -0.29481292 -0.28041947 0
-0.67775226 -0.10446715 -0.30200773 0
-0.6378026 -0.19528675 -0.30263698 0
-0.73383474 0.0039594173 -0.30701178 0
-0.79370427 0.12105894 -0.32191706 0
-0.56986141 0.017576218 -0.31100005 0
-0.53100276 -0.00051140785 -0.29871148 0
-0.48599362 0.067664146 -0.30766827 0
0.67262411 -0.47066498 -0.36387575 0
0.73816323 -0.48039818 -0.36132514 0
0.82223248 -0.37818289 -0.36926919 0
0.90601325 -0.31395268 -0.37409249 0
0.97788453 -0.28730631 -0.37549359 0
0.79874086 -0.0064663887 -0.36720359 0
0.85225821 0.092955351 -0.37303111 0
0.93128514 0.11184978 -0.37157634 0
0.94689155 0.22664452 -0.3790023 0
0.97658014 0.23369789 -0.37087405 0
0.96205187 0.34661341 -0.37344462 0
-0.19527602 -0.48808336 -0.35123312 0
0.013545513 -0.46893954 -0.33741295 0
-0.086956739 -0.35499215 -0.35023624 0
0.051094532 -0.41735983 -0.32110959 0
-0.15923119 -0.17555642 -0.35391867 0
-0.024125338 -0.30047083 -0.34799922 0
0.073168993 -0.29698539 -0.33832484 0
0.33765864 -0.40502167 -0.29074553 0
-0.21723533 -0.035667419 -0.35445505 0
-0.086404324 -0.12374067 -0.3498162 0
0.1160593 -0.22076869 -0.35077935 0
0.19958949 -0.3045156 -0.33372635 0
0.31151652 -0.32776332 -0.33461219 0
0.41079092 -0.34543848 -0.34270626 0
0.45443201 -0.40738583 -0.30142301 0
-0.02845192 -0.047041655 -0.34696275 0
0.18454933 -0.15475845 -0.35398087 0
0.5045073 -0.29617476 -0.35723639 0
0.026671886 0.024674892 -0.34888756 0
0.089666128 0.051506042 -0.34873921 0
0.26598644 -0.068476439 -0.35786629 0
0.56444073 -0.18588376 -0.36331797 0
0.12029862 0.12678123 -0.35298097 0
0.15243268 0.14987612 -0.35322303 0
0.35686135 -0.024358988 -0.35770443 0
0.63707328 -0.13377428 -0.3642002 0
0.21369123 0.18090534 -0.3524099 0
0.43602633 0.064935446 -0.36055714 0
0.71526432 -0.10515213 -0.36276385 0
0.27634668 0.28308368 -0.35565525 0
0.51466918 0.12192655 -0.36045951 0
0.74609232 -0.027615309 -0.36685133 0
0.32900119 0.32087612 -0.35460854 0
0.57931709 0.22906852 -0.36367831 0
0.35833788 0.42808628 -0.35884607 0
0.62520695 0.28961635 -0.36448777 0
0.95137548 0.16896415 -0.34917912 0
0.66533899 0.36684656 -0.36619145 0
0.97747636 0.27890396 -0.34567735 0
0.99582243 0.21266866 -0.32422599 0
0.71016002 0.48493385 -0.36916938 0
0.99246335 0.38005519 -0.34957489 0
-0.91322732 -0.42561007 -0.37464571 0
-0.75265765 -0.4646368 -0.37022555 0
-0.85729909 -0.25234151 -0.35860914 0
-0.73170018 -0.39719343 -0.37311864 0
-0.82656264 -0.17613912 -0.37433547 0
-0.78179026 -0.20494509 -0.33762568 0
-0.63561964 -0.23612952 -0.29848439 0
-0.63580585 -0.30035067 -0.30324942 0
-0.9060576 -0.0029263496 -0.38018823 0
-0.83434463 -0.06712389 -0.37498415 0
-0.73753929 -0.1281538 -0.3396315 0
-0.61753273 -0.17181897 -0.28757566 0
-0.83920956 0.070658445 -0.35496604 0
-0.79379988 0.022022247 -0.33777821 0
-0.7454145 -0.027201891 -0.31358552 0
-0.58494258 -0.052791357 -0.31889516 0
-0.55096078 -0.15177941 -0.30931258 0
0.092268944 -0.39811182 -0.29473105 0
-0.81309104 0.15486169 -0.34197438 0
-0.61350918 0.05254364 -0.34273541 0
-0.55651116 0.031217337 -0.30496067 0
0.09778142 -0.34510303 -0.30188307 0
0.14911962 -0.32842183 -0.28623867 0
0.26971793 -0.41432476 -0.25615567 0
0.38432908 -0.45589852 -0.26329771 0
-0.79440999 0.20465255 -0.36450368 0
-0.69420671 0.20902467 -0.37366384 0
-0.5843451 0.13472295 -0.36240655 0
-0.5315671 0.10175729 -0.32784945 0
-0.4748683 0.061244011 -0.30372834 0
-0.30333257 0.025822163 -0.35596466 0
-0.63078833 0.28218555 -0.37237734 0
-0.52011299 0.24414635 -0.36904091 0
-0.48378754 0.15578032 -0.34178078 0
-0.40336657 0.16218543 -0.35942322 0
-0.27109265 0.10739756 -0.35618269 0
-0.16839576 0.055611849 -0.35350919 0
-0.57648826 0.34248686 -0.37082356 0
-0.50706482 0.3283031 -0.36802429 0
-0.43300653 0.30564618 -0.3642655 0
-0.3491931 0.24371505 -0.36074984 0
-0.22539806 0.18851709 -0.3544594 0
-0.11004066 0.12217045 -0.34949571 0
-0.52137041 0.42193222 -0.36988753 0
-0.44660711 0.40837884 -0.36626875 0
-0.383641 0.41563845 -0.36433876 0
-0.2898705 0.32159352 -0.35751241 0
-0.17083907 0.29386544 -0.35224098 0
-0.056958914 0.22904015 -0.34741747 0
-0.07570219 0.17444205 -0.34749383 0
-0.42926931 0.49480605 -0.36430728 0
-0.34481502 0.4418757 -0.36084813 0
-0.23317027 0.40679908 -0.35449928 0
-0.10991502 0.35664296 -0.34673971 0
-0.033653975 0.26061535 -0.3456521 0
-0.0075764656 0.30601883 -0.34498829 0
-0.19645143 0.49145603 -0.35353971 0
-0.085874319 0.48386097 -0.34876424 0
0.021063805 0.41047049 -0.35036302 0
0.086959362 0.45700622 -0.3491202 0
-0.59889054 -0.24167418 -0.26920223 0
-0.56768632 -0.32451797 -0.25705361 0
-0.74303842 0.030961752 -0.29484648 0
-0.72237396 -0.01174593 -0.28329235 0
-0.78865862 0.084362745 -0.30455178 0
-0.53229976 -0.027885437 -0.27755922 0
0.75202131 -0.49534678 -0.36889875 0
0.82253742 -0.48118067 -0.36980757 0
0.87308669 -0.42521119 -0.37415081 0
0.95501661 -0.42332244 -0.37361386 0
0.074366093 -0.47391558 -0.31124488 0
-0.029005289 -0.30730104 -0.35200596 0
0.073557615 -0.40064692 -0.32853091 0
-0.0080015659 -0.22377157 -0.35475594 0
0.084242344 -0.32826567 -0.34122011 0
0.17891741 -0.31165671 -0.3255547 0
-0.11642289 -0.07040906 -0.35758227 0
0.073039293 -0.19603705 -0.35475737 0
0.34168172 -0.33085251 -0.34732792 0
0.38229227 -0.3959682 -0.29909459 0
0.49627876 -0.42152357 -0.33681282 0
-0.06245327 0.028858185 -0.35548264 0
0.16605806 -0.13242674 -0.35660782 0
0.42594981 -0.26208186 -0.36255795 0
-0.023736 0.091501713 -0.3530702 0
0.25434208 -0.06031251 -0.35853302 0
0.49877238 -0.19674659 -0.36453956 0
0.042657375 0.17009497 -0.3532654 0
0.31331062 0.0013666153 -0.36036187 0
0.36442089 0.026268005 -0.3596403 0
0.567945 -0.14254999 -0.36543027 0
0.61212277 -0.085173845 -0.36728829 0
0.12074137 0.28477287 -0.35673487 0
0.10141754 0.21513891 -0.35329157 0
0.39659929 0.071239948 -0.36100861 0
0.63803887 -0.014212132 -0.37074476 0
0.17209983 0.32763243 -0.356116 0
0.43430114 0.18219852 -0.36615622 0
0.71172643 0.026724577 -0.36922595 0
0.22322059 0.42386842 -0.35807103 0
0.49836183 0.27835941 -0.36812323 0
0.7705133 0.096382618 -0.3703512 0
0.26488328 0.47773385 -0.35747701 0
0.53314686 0.37456059 -0.37079769 0
0.80708027 0.21183038 -0.37688982 0
0.96762729 0.15515924 -0.35490239 0
0.56180573 0.47564411 -0.37318116 0
0.86285615 0.2941525 -0.37969059 0
0.98091292 0.2749095 -0.35589352 0
0.90272164 0.38829923 -0.38255763 0
-0.9791584 -0.40596294 -0.38382459 0
-0.88291669 -0.49258375 -0.38244474 0
-0.74944806 -0.43376803 -0.37702328 0
-0.78741932 -0.25233531 -0.34059542 0
-0.63283157 -0.35253358 -0.32012641 0
-0.75747991 -0.19850135 -0.34414268 0
-0.65502548 -0.24976969 -0.33138293 0
-0.61090517 -0.3000443 -0.30037034 0
-0.85087156 -0.043193817 -0.38191384 0
-0.7941258 -0.045686483 -0.37827289 0
-0.70407844 -0.13689518 -0.3346501 0
-0.60263896 -0.18502808 -0.29650742 0
-0.9831214 0.1753099 -0.39184481 0
-0.89892006 0.10282564 -0.38694882 0
-0.82871318 0.063435793 -0.37133563 0
-0.76440048 0.010931492 -0.32901078 0
-0.71486783 -0.039167166 -0.30598348 0
-0.56651092 -0.038832903 -0.31300694 0
-0.53145003 -0.10598922 -0.3220908 0
-0.43530536 -0.19968748 -0.31772107 0
0.11817575 -0.39375162 -0.28484949 0
-0.94014072 0.26648593 -0.39241081 0
-0.81379557 0.15493035 -0.35370123 0
-0.69046211 0.135185 -0.37719083 0
-0.59404135 0.047380447 -0.35118878 0
-0.53000379 0.021782398 -0.30861229 0
-0.46122146 0.01047945 -0.28981316 0
0.12112641 -0.33436537 -0.29183036 0
0.27575755 -0.38271666 -0.27474985 0
0.44443512 -0.43732071 -0.27271849 0
-0.89000916 0.32759929 -0.39045757 0
-0.77283669 0.23212218 -0.38114935 0
-0.63805151 0.21523309 -0.377002 0
-0.55341387 0.13849163 -0.35699022 0
-0.49239922 0.10022306 -0.32348537 0
-0.38722658 0.090253353 -0.34103769 0
-0.82068944 0.37646675 -0.38556916 0
-0.70873308 0.31183863 -0.37977332 0
-0.58821321 0.29910398 -0.37693995 0
-0.47628498 0.21698236 -0.37165588 0
-0.47962832 0.16657472 -0.36325198 0
-0.36604691 0.14364219 -0.36704785 0
-0.23732877 0.079271555 -0.36334223 0
-0.18731403 0.1111567 -0.35850465 0
-0.74480224 0.45291114 -0.38195431 0
-0.6367507 0.41150522 -0.3782863 0
-0.53486609 0.35910082 -0.37493944 0
-0.45410514 0.26486135 -0.37204516 0
-0.40232682 0.27992535 -0.36762655 0
-0.31581044 0.21710205 -0.36416829 0
-0.16790247 0.1666677 -0.358374 0
-0.57716298 0.49074268 -0.37637138 0
-0.52145767 0.4707818 -0.37442851 0
-0.45913553 0.44731236 -0.37164879 0
-0.36669707 0.38371134 -0.3683058 0
-0.26232243 0.33143115 -0.36271 0
-0.15078592 0.23056483 -0.35878116 0
-0.11970949 0.24413967 -0.35512912 0
-0.3204608 0.44748878 -0.36526388 0
-0.22349381 0.41767979 -0.36149651 0
-0.084845066 0.34782219 -0.35422623 0
-0.16969824 0.49976373 -0.35768682 0
-0.042083263 0.46418548 -0.35208303 0
-0.53943753 -0.31798267 -0.26212543 0
-0.74279785 0.066191435 -0.29443818 0
0.56545854 -0.37870598 -0.35662058 0
0.65178394 -0.25951314 -0.36070859 0
0.71044254 -0.15994644 -0.36401397 0
0.76472449 -0.15871072 -0.3610363 0
0.81408787 -0.016623497 -0.36941567 0
0.88576293 0.021581411 -0.36878133 0
0.93483496 0.12403178 -0.3724286 0
0.97405362 0.20732307 -0.37206402 0
0.97616482 0.38622451 -0.37497857 0
0.96853423 0.30161262 -0.37312546 0
-0.93601847 -0.44062853 -0.37516105 0
-0.86665344 -0.44238782 -0.37006801 0
-0.12208533 -0.49814773 -0.34706712 0
-0.0040755272 -0.36914468 -0.34269238 0
0.093458176 -0.42982888 -0.30061314 0
-0.14136267 -0.17915297 -0.35032701 0
0.051079273 -0.2804687 -0.34730473 0
0.12077689 -0.34384966 -0.30691868 0
0.32029867 -0.41371465 -0.28356975 0
-0.26268625 -0.00023913383 -0.35589576 0
-0.090830088 -0.12506676 -0.34751487 0
0.14965677 -0.22540689 -0.34795669 0
0.23123145 -0.31889153 -0.327537 0
0.35869288 -0.33961797 -0.33942559 0
0.43415356 -0.41459203 -0.30887476 0
-0.2207222 0.061751366 -0.35344434 0
-0.046320438 -0.0091753006 -0.34634197 0
0.21604967 -0.15937376 -0.35000002 0
-0.17796445 0.16422725 -0.35164374 0
0.018639803 0.054986477 -0.34190583 0
0.27732706 -0.074584484 -0.35299709 0
-0.15251946 0.24794579 -0.35115784 0
0.052635908 0.15808129 -0.34678537 0
0.33114672 -0.0036568642 -0.35494384 0
0.10220718 0.22347212 -0.34762084 0
0.36200023 0.067140341 -0.35776848 0
0.41017103 0.063031197 -0.35448664 0
0.160326 0.31772375 -0.34865427 0
0.4518497 0.16913104 -0.3580932 0
0.20287871 0.41507101 -0.34994739 0
0.4855032 0.27002931 -0.36144596 0
0.53393984 0.37304974 -0.3614434 0
0.51769447 0.30815697 -0.36040825 0
0.96643949 0.11261487 -0.33527493 0
0.55452037 0.46971464 -0.36254257 0
0.99349236 0.21301913 -0.32084921 0
-0.8079586 -0.26801014 -0.32765019 0
-0.78589678 -0.20521092 -0.32763511 0
-0.73105001 -0.19118953 -0.34370023 0
-0.64242649 -0.27598548 -0.30652857 0
-0.58453107 -0.3003161 -0.27253771 0
-0.83655763 -0.058014393 -0.37108499 0
-0.7617116 -0.083441257 -0.34303015 0
-0.70389819 -0.12041211 -0.3123647 0
-0.61103439 -0.19900012 -0.28733367 0
-0.91858816 0.10466623 -0.37955564 0
-0.80778384 0.037654638 -0.34635746 0
-0.7312665 0.010817289 -0.2858932 0
-0.51864004 -0.15635061 -0.30999881 0
0.16789246 -0.44993281 -0.26078665 0
-0.96788001 0.23319864 -0.3832944 0
-0.83952928 0.17843843 -0.36499304 0
-0.80705857 0.1322186 -0.31706107 0
-0.59080529 0.046507835 -0.33212441 0
-0.50071144 -0.010283709 -0.28547227 0
0.16742897 -0.35530853 -0.25764871 0
-0.99201393 0.37140703 -0.38498324 0
-0.90819097 0.32112646 -0.38126826 0
-0.79937291 0.2181077 -0.37044603 0
-0.71500373 0.20045638 -0.37305158 0
-0.66316605 0.16423512 -0.36614692 0
-0.53233528 0.13295817 -0.34450763 0
-0.52051449 0.062717676 -0.31926876 0
-0.94469523 0.42513585 -0.38239706 0
-0.84700441 0.39842558 -0.37817663 0
-0.75645947 0.29951715 -0.37229961 0
-0.64714646 0.28379512 -0.37091458 0
-0.53417253 0.20372438 -0.36611825 0
-0.41218448 0.16351271 -0.35515589 0
-0.79298115 0.48695207 -0.37621248 0
-0.70305014 0.40755105 -0.37259197 0
-0.6002512 0.41838074 -0.37304699 0
-0.57712007 0.34894609 -0.36704218 0
-0.47150493 0.30048323 -0.36451274 0
-0.32358885 0.24238682 -0.35742176 0
-0.61503577 0.49767017 -0.36763799 0
-0.52307773 0.45449924 -0.36637574 0
-0.40775752 0.38455415 -0.36154026 0
-0.2861166 0.34277368 -0.35681266 0
-0.13019943 0.30127192 -0.34975064 0
-0.37592196 0.4907434 -0.36188966 0
-0.25581098 0.40675044 -0.35532588 0
-0.10497737 0.31382132 -0.34629107 0
-0.21836686 0.4928689 -0.35343724 0
-0.079549074 0.43676233 -0.34631193 0
