# .PCD v0.7 - Point Cloud Data file format
VERSION 0.7
FIELDS x y z intensity
SIZE 4 4 4 4
TYPE F F F F
COUNT 1 1 1 1
WIDTH 1294
HEIGHT 1
VIEWPOINT 0 0 0 1 0 0 0
POINTS 1294
DATA ascii
0.9549014 0.41519547 -0.33964074 0
0.46990663 -0.45142365 -0.38888788 0
0.52461189 -0.45778656 -0.39000237 0
0.6348452 -0.48204708 -0.38763654 0
0.74126559 -0.44591522 -0.38689673 0
0.85858619 -0.45422745 -0.38721621 0
0.95191103 -0.45721245 -0.3868947 0
0.44799989 -0.37752914 -0.38123906 0
0.55622333 -0.35298443 -0.38288212 0
0.64327848 -0.36743355 -0.38151586 0
0.74278104 -0.36306572 -0.38316405 0
0.84973639 -0.34088898 -0.38205314 0
0.96642506 -0.37265396 -0.38274264 0
0.44074714 -0.26335621 -0.38139331 0
0.51838309 -0.26884937 -0.37777781 0
0.63200355 -0.28529739 -0.37770855 0
0.69510043 -0.28765106 -0.37543917 0
0.8411659 -0.27069283 -0.37781131 0
0.98056662 -0.25084209 -0.37631202 0
0.44014692 -0.17873192 -0.37459171 0
0.53228533 -0.18075943 -0.37448668 0
0.6249097 -0.15509415 -0.37341762 0
0.72149605 -0.1778841 -0.37395084 0
0.82983303 -0.16059017 -0.37255478 0
0.93445802 -0.18569851 -0.37193573 0
0.44690043 -0.080423355 -0.3698585 0
0.53611922 -0.067406654 -0.36829698 0
0.63616252 -0.059854507 -0.36768782 0
0.7361415 -0.055953979 -0.3696897 0
0.80000055 -0.084769249 -0.36607695 0
0.92128795 -0.058958054 -0.36657619 0
0.43722862 0.005569458 -0.36320937 0
0.52847213 0.013313293 -0.36241114 0
0.62050062 0.048465729 -0.36282206 0
0.72660083 0.023511887 -0.36346781 0
0.81994921 0.033500671 -0.36442673 0
0.90052807 0.046000481 -0.36187518 0
0.4480294 0.13505077 -0.35742557 0
0.53735507 0.12625027 -0.35726714 0
0.65512252 0.1435318 -0.35873175 0
0.71852022 0.1334734 -0.35714698 0
0.80088562 0.13629532 -0.35603774 0
0.92212236 0.11115456 -0.35694158 0
0.42207026 0.23634148 -0.35216248 0
0.54000026 0.24211693 -0.35421455 0
0.62509888 0.22690964 -0.35007787 0
0.71257704 0.22654819 -0.34858119 0
0.83804232 0.2148695 -0.35173535 0
0.92427468 0.24852467 -0.3526088 0
0.41972542 0.32948399 -0.34657454 0
0.53137279 0.32671452 -0.34839118 0
0.62826526 0.33614731 -0.34796059 0
0.72921407 0.35775089 -0.34695899 0
0.79683441 0.3266716 -0.34939265 0
0.92961681 0.33974075 -0.34786189 0
0.43742549 0.41521072 -0.34411609 0
0.56092423 0.44758511 -0.34074366 0
0.63474828 0.43942261 -0.33902204 0
0.74050081 0.42086887 -0.34217072 0
0.83826077 0.4337244 -0.3375659 0
0.93482012 0.43549442 -0.3420285 0
0.11935019 -0.48601341 -0.30525887 0
0.16563702 -0.39330387 -0.31100368 0
0.20917434 -0.32416439 -0.31625414 0
0.041081727 -0.46082783 -0.34836066 0
0.4537437 -0.47373962 -0.39801204 0
0.53618515 -0.45956516 -0.40116572 0
0.6341086 -0.45243549 -0.39848506 0
0.77723569 -0.45629787 -0.39929402 0
0.86689401 -0.445714 -0.39750552 0
0.97838736 -0.44856548 -0.39610314 0
0.075773001 -0.39545059 -0.35096812 0
0.11061543 -0.33441544 -0.35487759 0
0.4521594 -0.35846996 -0.39617622 0
0.49866349 -0.39100742 -0.39190006 0
0.60503513 -0.37858391 -0.39576423 0
0.72105527 -0.35308743 -0.39181828 0
0.81966054 -0.36782551 -0.39418972 0
0.98354781 -0.38426685 -0.39172387 0
0.15084326 -0.28039074 -0.35205328 0
0.19925654 -0.23789215 -0.34307909 0
0.45451111 -0.28140545 -0.39006305 0
0.52785254 -0.26004219 -0.38853538 0
0.61208457 -0.28946781 -0.38995814 0
0.72410947 -0.24970722 -0.38648927 0
0.80914712 -0.2630291 -0.39081025 0
0.90015119 -0.25934315 -0.39039218 0
0.168365 -0.20756149 -0.3618629 0
0.22230887 -0.16832352 -0.35180306 0
0.43158257 -0.17095089 -0.38344586 0
0.51965851 -0.18620396 -0.38113058 0
0.61781353 -0.17787361 -0.3832581 0
0.70498121 -0.17061138 -0.38208985 0
0.8023656 -0.19201851 -0.38412619 0
0.89895689 -0.15818501 -0.38305879 0
0.24426079 -0.077923775 -0.36595273 0
0.38441694 -0.073739052 -0.37671137 0
0.43552536 -0.07005024 -0.37830007 0
0.53341669 -0.1002636 -0.37912273 0
0.62574178 -0.077008247 -0.37895215 0
0.70741779 -0.068118095 -0.37663424 0
0.80250025 -0.069568634 -0.37671733 0
0.89041829 -0.083199501 -0.37660968 0
0.25742012 0.028168678 -0.37478507 0
0.29932654 0.014358521 -0.36658454 0
0.42317808 0.023629189 -0.37510967 0
0.52406394 0.029272079 -0.37443113 0
0.63936085 0.036538124 -0.37623107 0
0.70707917 0.027261734 -0.37179327 0
0.79318261 0.044072151 -0.3691045 0
0.90463471 0.042411804 -0.37345719 0
0.25354636 0.14655399 -0.36944067 0
0.33417457 0.1272974 -0.36850607 0
0.43026519 0.11720371 -0.37023568 0
0.53135437 0.13029861 -0.36804402 0
0.6223253 0.13860512 -0.36841071 0
0.70399731 0.11087227 -0.3676312 0
0.79436827 0.15860748 -0.36480904 0
0.91857505 0.11936283 -0.36484945 0
0.24192446 0.24354172 -0.36447799 0
0.33957517 0.22611141 -0.36315775 0
0.45367992 0.22424793 -0.36418748 0
0.5293448 0.23443127 -0.36429119 0
0.60521215 0.22739887 -0.36206949 0
0.72749293 0.23729992 -0.36327446 0
0.80171478 0.23593521 -0.36371899 0
0.92048603 0.21736908 -0.36177051 0
0.24498242 0.33591652 -0.3588196 0
0.33559531 0.33699131 -0.36132276 0
0.43564647 0.32629967 -0.35837328 0
0.52268589 0.33294773 -0.36056352 0
0.59659278 0.33051109 -0.35772228 0
0.73032403 0.34944534 -0.35608709 0
0.80077213 0.33196068 -0.36077762 0
0.91088808 0.34754562 -0.35612512 0
0.98835367 0.33043766 -0.35632396 0
0.21917117 0.42350674 -0.35491514 0
0.32848275 0.41966534 -0.35430539 0
0.44392216 0.44513798 -0.35134947 0
0.53425455 0.41627026 -0.35286224 0
0.65772134 0.40927696 -0.35023022 0
0.74209201 0.44634342 -0.34713554 0
0.85083038 0.42091942 -0.35047221 0
0.95334941 0.45680809 -0.34671795 0
0.075193584 -0.46817589 -0.32984126 0
0.10189253 -0.49186707 -0.31491911 0
0.12856001 -0.38760853 -0.32803941 0
0.15965271 -0.31302261 -0.32957709 0
0.0134148 -0.49287033 -0.36805296 0
0.04164362 -0.43951511 -0.38355923 0
0.51315951 -0.45432949 -0.39836764 0
0.57308704 -0.47646427 -0.4038316 0
0.66947961 -0.43135643 -0.39961827 0
0.76803112 -0.45007896 -0.39943254 0
0.8245641 -0.46316624 -0.39981472 0
0.94718748 -0.46466827 -0.3992523 0
0.081666291 -0.35981941 -0.36853468 0
0.5306446 -0.3655405 -0.3948406 0
0.65294051 -0.38770485 -0.39536476 0
0.74017501 -0.31149292 -0.39558005 0
0.83530957 -0.35507774 -0.39319694 0
0.95487893 -0.3537569 -0.3918221 0
0.094995081 -0.264884 -0.3850801 0
0.15882063 -0.25001335 -0.35727847 0
0.46783495 -0.26825047 -0.39414787 0
0.54668266 -0.25916481 -0.39038134 0
0.65149325 -0.25767231 -0.39244366 0
0.73746133 -0.23903751 -0.38938284 0
0.85060436 -0.25509739 -0.38941348 0
0.97912574 -0.21740341 -0.38782835 0
0.10157639 -0.15146065 -0.3881439 0
0.18724018 -0.16186905 -0.36839867 0
0.23849177 -0.13279629 -0.35300279 0
0.45395124 -0.19723606 -0.3854636 0
0.56083971 -0.14766312 -0.38608766 0
0.63788837 -0.15555668 -0.38216972 0
0.73938018 -0.15874672 -0.38446975 0
0.85875183 -0.13993454 -0.38378966 0
0.97516286 -0.15490246 -0.38284719 0
0.096364498 -0.045608521 -0.38064301 0
0.18012869 -0.059977531 -0.38842928 0
0.26127392 -0.046761513 -0.36925066 0
0.48800308 -0.063214302 -0.38517189 0
0.56014729 -0.070697784 -0.38135445 0
0.64833951 -0.042757034 -0.37811828 0
0.73259449 -0.080756187 -0.37830698 0
0.8601926 -0.048660278 -0.37886107 0
0.98274738 -0.051738739 -0.37872756 0
0.10110247 0.04364109 -0.37736428 0
0.18841594 0.03285408 -0.37760806 0
0.28737533 0.024851799 -0.37056744 0
0.3303352 0.058484077 -0.36078119 0
0.48459345 0.048996925 -0.37868142 0
0.55862164 0.02911377 -0.37598634 0
0.64585197 0.064352989 -0.37251651 0
0.73743147 0.036520004 -0.3735522 0
0.85530585 0.041078568 -0.37341797 0
0.96539891 0.020072937 -0.37127793 0
0.097732484 0.14480782 -0.37282443 0
0.1639331 0.12143135 -0.3726449 0
0.25392991 0.15541172 -0.37030053 0
0.35474396 0.13909245 -0.37239957 0
0.46132135 0.14612103 -0.36984098 0
0.55555618 0.15728283 -0.37009382 0
0.67382687 0.12108612 -0.36635745 0
0.73042959 0.16539764 -0.36682296 0
0.85880458 0.16439724 -0.36900449 0
0.97765678 0.14031601 -0.36879277 0
0.081828415 0.25503254 -0.36657095 0
0.17369616 0.25644493 -0.365852 0
0.26670879 0.24222088 -0.36534345 0
0.36932689 0.23908901 -0.36619151 0
0.43997937 0.22932816 -0.36290526 0
0.55424392 0.24058056 -0.36702216 0
0.64091724 0.24411488 -0.36498356 0
0.73539525 0.24801159 -0.36510134 0
0.84778214 0.25312805 -0.36373997 0
0.97242248 0.2653141 -0.36328006 0
0.073415935 0.34438229 -0.36323297 0
0.16334957 0.35852814 -0.36179757 0
0.27749085 0.36057377 -0.36357093 0
0.36325324 0.34076691 -0.36257267 0
0.43851864 0.34137249 -0.35990536 0
0.55687952 0.34306145 -0.36012661 0
0.63471895 0.36052036 -0.36055696 0
0.73502159 0.3475771 -0.36218011 0
0.82455313 0.33476353 -0.3568325 0
0.9588204 0.35887241 -0.3578912 0
-0.0013435483 0.46190834 -0.34832358 0
0.074597538 0.42599869 -0.35716319 0
0.17134315 0.44404507 -0.35608995 0
0.28188348 0.45387268 -0.35951257 0
0.33685982 0.44940186 -0.3559792 0
0.43057621 0.44926739 -0.35652399 0
0.52470458 0.42580414 -0.35702312 0
0.67795765 0.44839478 -0.35349154 0
0.81328648 0.40203094 -0.35300374 0
0.85417682 0.47635841 -0.34734011 0
0.93420404 0.45020103 -0.35101533 0
0.07135427 -0.46687412 -0.3305527 0
0.1193462 -0.3681879 -0.33360934 0
0.15127397 -0.36381054 -0.32634282 0
-0.10031128 -0.48300648 -0.40388417 0
0.015586615 -0.47096539 -0.3804704 0
0.54969662 -0.49044609 -0.40218484 0
0.65622103 -0.46336269 -0.39656925 0
0.76336777 -0.48130226 -0.39381456 0
0.78355432 -0.4971714 -0.40085137 0
0.908957 -0.49809647 -0.39998543 0
-0.090774655 -0.3945961 -0.39659619 0
0.033157349 -0.38101864 -0.38111138 0
0.085755169 -0.39033699 -0.34482992 0
0.45473629 -0.37155628 -0.39027214 0
0.47347933 -0.40282345 -0.3979888 0
0.6211769 -0.37527657 -0.39493978 0
0.78992176 -0.38830757 -0.39278364 0
0.92227352 -0.37724495 -0.3929683 0
-0.072660029 -0.29323006 -0.39202428 0
0.010228336 -0.28952026 -0.39040196 0
0.11772692 -0.26888084 -0.36925781 0
0.18046296 -0.25147533 -0.3362956 0
0.5161739 -0.26699257 -0.38988256 0
0.57750332 -0.31117916 -0.39338088 0
0.69138551 -0.26815224 -0.38952315 0
0.81102198 -0.28370857 -0.3899585 0
0.9322238 -0.25341511 -0.38611245 0
-0.059846342 -0.16341877 -0.38543558 0
0.0024756193 -0.1769104 -0.39014244 0
0.10893053 -0.19392395 -0.38212824 0
0.21137267 -0.16793633 -0.35590625 0
0.48193485 -0.1860733 -0.38330722 0
0.58885652 -0.18104744 -0.38677037 0
0.68374145 -0.17499924 -0.38136637 0
0.80662948 -0.17965221 -0.38180292 0
0.93455267 -0.15856075 -0.38048673 0
-0.061839759 -0.085109711 -0.38017809 0
0.039765298 -0.098285675 -0.38282228 0
0.12065977 -0.062609673 -0.38032532 0
0.21103102 -0.097043037 -0.37624121 0
0.39601314 -0.093112946 -0.37973738 0
0.49153256 -0.098322868 -0.38020897 0
0.5806334 -0.06687355 -0.37799478 0
0.71182257 -0.054524422 -0.38073921 0
0.80480152 -0.065444946 -0.37471199 0
0.94622278 -0.072339058 -0.3781532 0
-0.0511989 0.026319504 -0.37698841 0
0.031278849 0.0060720444 -0.38063335 0
0.079780936 0.032306671 -0.37464476 0
0.20175219 0.020490646 -0.37645555 0
0.28611338 0.0091257095 -0.36908209 0
0.40716743 0.01926136 -0.3764075 0
0.48937482 0.0068426132 -0.37424195 0
0.57357705 0.036588669 -0.3712846 0
0.69251257 0.016756058 -0.37285519 0
0.80079317 0.025857925 -0.36931467 0
0.93818867 -0.0090465546 -0.37304759 0
-0.056323171 0.14353371 -0.37127984 0
0.0084883571 0.12549019 -0.368536 0
0.12668794 0.11945724 -0.37083662 0
0.20042163 0.10823727 -0.37021565 0
0.31184566 0.13342381 -0.37043905 0
0.39347148 0.12944126 -0.36885226 0
0.50790268 0.1130228 -0.36710608 0
0.61244529 0.15036011 -0.3746829 0
0.68658066 0.12989521 -0.36668503 0
0.81080115 0.14072037 -0.36654735 0
0.9446547 0.12913132 -0.36821032 0
-0.085526049 0.20003223 -0.36380708 0
0.029579461 0.24029636 -0.3645767 0
0.11520284 0.2105732 -0.36656749 0
0.20736504 0.23273754 -0.36390305 0
0.32011062 0.22770214 -0.35999846 0
0.39379513 0.22208405 -0.36571026 0
0.4925918 0.23205471 -0.36607265 0
0.5828439 0.23388958 -0.36562312 0
0.68498552 0.22678375 -0.36290109 0
0.80977029 0.24405384 -0.36263168 0
0.91467041 0.20109558 -0.35921693 0
-0.07551825 0.3113842 -0.36310828 0
0.0038027167 0.31838036 -0.36142838 0
0.10712767 0.32136059 -0.36231291 0
0.17443496 0.30348778 -0.35593355 0
0.30677199 0.32659912 -0.3593179 0
0.48649436 0.34681988 -0.36166847 0
0.59801668 0.32014942 -0.35836351 0
0.69066387 0.30882072 -0.36148965 0
0.79630977 0.33768082 -0.35711503 0
0.91843885 0.32079887 -0.35623145 0
-0.076660097 0.41330242 -0.35578048 0
0.021909893 0.41408253 -0.35645294 0
0.11828047 0.43591213 -0.35371447 0
0.20662254 0.411479 -0.3544668 0
0.32152838 0.41532326 -0.3532933 0
0.41250628 0.41493225 -0.35250175 0
0.51836812 0.42900753 -0.35416698 0
0.60763121 0.41187191 -0.35414481 0
0.69573796 0.43127728 -0.35918033 0
0.76826763 0.42271423 -0.34957409 0
0.87959468 0.42722511 -0.34597874 0
0.043384194 -0.49058247 -0.33616519 0
0.094554126 -0.4769659 -0.31904435 0
0.12391078 -0.39240646 -0.32905376 0
0.15086991 -0.3184433 -0.33414829 0
0.16902065 -0.27908134 -0.33548379 0
-0.26163328 -0.46189022 -0.40030491 0
-0.15935993 -0.46590996 -0.40178835 0
-0.078209281 -0.47238827 -0.40015101 0
0.019806862 -0.4489336 -0.3830415 0
0.53647071 -0.46836567 -0.39346576 0
0.67756104 -0.45828629 -0.39751375 0
0.80040312 -0.48186588 -0.39992297 0
0.93076235 -0.48815441 -0.39439726 0
-0.25550854 -0.36881638 -0.39314151 0
-0.15115356 -0.39199638 -0.39597857 0
-0.082382858 -0.37962151 -0.39426768 0
0.03327322 -0.36541653 -0.38524425 0
0.1035201 -0.3314209 -0.35403168 0
0.57091528 -0.36666012 -0.39362454 0
0.68241566 -0.37122726 -0.39119518 0
0.81831968 -0.35676384 -0.3936615 0
0.96539009 -0.35416031 -0.39209449 0
-0.27503783 -0.27950191 -0.38864636 0
-0.15311456 -0.2779274 -0.39098334 0
-0.060702562 -0.2827177 -0.39136624 0
0.048698008 -0.28041363 -0.39031589 0
0.11517227 -0.26521683 -0.3669554 0
0.45617247 -0.27258205 -0.38672268 0
0.56597406 -0.31633949 -0.38819313 0
0.63871384 -0.23925304 -0.3853519 0
0.74878889 -0.27887344 -0.38529527 0
0.97112215 -0.25284386 -0.38583982 0
-0.26075393 -0.17872047 -0.38429296 0
-0.16710639 -0.17614937 -0.38365424 0
-0.056526601 -0.16607094 -0.38366973 0
0.010110974 -0.17639351 -0.38347411 0
0.13262814 -0.17490196 -0.37832963 0
0.21629685 -0.14203739 -0.357301 0
0.47077477 -0.17305946 -0.38324881 0
0.57708365 -0.17414951 -0.38073063 0
0.59617645 -0.19758892 -0.38693964 0
0.69854283 -0.18085861 -0.38105023 0
0.82001424 -0.1704731 -0.38043535 0
0.96973938 -0.15502167 -0.37891555 0
-0.25067025 -0.061712265 -0.37913847 0
-0.14394128 -0.065554619 -0.37935448 0
-0.029295325 -0.045868874 -0.38249433 0
0.0063322783 -0.07793808 -0.37649775 0
0.13551545 -0.066509247 -0.37826097 0
0.23476952 -0.067393303 -0.36385238 0
0.29118913 -0.030750275 -0.35812461 0
0.47511828 -0.087601662 -0.37892246 0
0.56697077 -0.050066948 -0.37104797 0
0.59094 -0.089524269 -0.37875199 0
0.71421003 -0.089576721 -0.3790493 0
0.82853198 -0.063928604 -0.37589252 0
0.95993781 -0.065856934 -0.37134337 0
-0.25521874 0.03168869 -0.37320685 0
-0.16403896 0.02525425 -0.37411404 0
-0.042055905 0.025069237 -0.37602568 0
0.044882774 0.035873413 -0.37295723 0
0.16439533 0.031144142 -0.37441123 0
0.26996005 0.010854721 -0.36536396 0
0.47008169 0.020834923 -0.37197316 0
0.53440696 0.055981636 -0.37146127 0
0.5918355 0.024587631 -0.37271738 0
0.71964478 0.036131859 -0.3734417 0
0.82799196 0.0087022781 -0.37184417 0
0.96672666 0.052974701 -0.3666935 0
-0.25515372 0.1304884 -0.36914003 0
-0.1745038 0.11665344 -0.36796474 0
-0.077870488 0.12960911 -0.37112999 0
0.030900419 0.14221668 -0.37144589 0
0.12035954 0.14244175 -0.36796772 0
0.22340542 0.1137476 -0.37062144 0
0.32746226 0.12350464 -0.36489999 0
0.47356439 0.13879013 -0.36733294 0
0.57010102 0.12407112 -0.36350763 0
0.7083227 0.14912701 -0.36573708 0
0.82351637 0.13749409 -0.36482489 0
0.95318288 0.14796066 -0.35948908 0
-0.26375276 0.2225914 -0.36438191 0
-0.16300869 0.21612835 -0.36464632 0
-0.052875221 0.22607899 -0.36584568 0
0.010823488 0.24151325 -0.36405647 0
0.12859869 0.24570084 -0.36457121 0
0.25083804 0.22187424 -0.36433971 0
0.35189259 0.21540642 -0.36243069 0
0.48023194 0.24339581 -0.36472893 0
0.5830608 0.26209259 -0.36095452 0
0.5984664 0.22935963 -0.36525512 0
0.70483494 0.22754574 -0.36190248 0
0.82293236 0.27439022 -0.3593328 0
0.96242255 0.24273586 -0.35764396 0
-0.27862203 0.31158257 -0.35424328 0
-0.15733737 0.31263447 -0.35991049 0
-0.07494247 0.32612133 -0.35886216 0
0.042530239 0.33244038 -0.35953164 0
0.14890033 0.32752228 -0.36053216 0
0.24542928 0.28212357 -0.35681844 0
0.32511437 0.34489536 -0.35768139 0
0.45484805 0.31462955 -0.35738254 0
0.56813937 0.33054447 -0.35579395 0
0.71458596 0.31921768 -0.36070561 0
0.80530578 0.33707809 -0.35369277 0
0.9586308 0.33288193 -0.35381961 0
-0.32525218 0.41385078 -0.34862387 0
-0.26894599 0.43195248 -0.34926558 0
-0.1643095 0.42966366 -0.35600471 0
-0.069694281 0.43695259 -0.35206044 0
0.043576539 0.41518211 -0.35521734 0
0.16028851 0.42124176 -0.35508525 0
0.25093853 0.43704414 -0.3542217 0
0.34433413 0.42800426 -0.35507572 0
0.45366943 0.4397707 -0.35397732 0
0.56078547 0.42980862 -0.35166943 0
0.66639167 0.4388485 -0.34779966 0
0.73267651 0.43410873 -0.34886444 0
0.79484385 0.42367077 -0.34915698 0
0.93335474 0.42889023 -0.34601808 0
0.046704888 -0.47300434 -0.33525491 0
0.10627264 -0.47496986 -0.31459498 0
0.068019211 -0.39100456 -0.3504796 0
0.13941103 -0.3638401 -0.32855892 0
0.16011429 -0.28415585 -0.3393482 0
-0.53452444 -0.46832657 -0.39529049 0
-0.44855958 -0.47379017 -0.39392638 0
-0.36430913 -0.46039581 -0.39334929 0
-0.268327 -0.48022175 -0.39574552 0
-0.18400443 -0.46905899 -0.39518893 0
-0.060933411 -0.49772549 -0.39923418 0
0.028453648 -0.45353794 -0.38866925 0
0.66838455 -0.45729923 -0.39434838 0
0.80977231 -0.46912575 -0.39191258 0
-0.5291608 -0.3793602 -0.38687384 0
-0.45115453 -0.38061905 -0.3905462 0
-0.35840863 -0.35116482 -0.38897955 0
-0.26994699 -0.37486744 -0.3908534 0
-0.15350688 -0.35749149 -0.39280009 0
-0.078299105 -0.40091324 -0.39455712 0
0.026522338 -0.3650198 -0.3904835 0
0.090133131 -0.33136272 -0.38802457 0
0.53888988 -0.38419819 -0.39190412 0
0.66332024 -0.35428905 -0.38478196 0
0.8393805 -0.34302616 -0.38939917 0
-0.46398181 -0.26968193 -0.3843801 0
-0.36116546 -0.28091431 -0.38364816 0
-0.25167197 -0.28724766 -0.38658857 0
-0.15583384 -0.28066635 -0.38571882 0
-0.064881146 -0.28537273 -0.38827693 0
0.037160516 -0.26834488 -0.3835938 0
0.1180405 -0.27107143 -0.37759936 0
0.54276711 -0.27222919 -0.38440406 0
0.673253 -0.24718285 -0.3795675 0
0.84068072 -0.26683903 -0.38423634 0
-0.48993421 -0.18709373 -0.37544668 0
-0.35037279 -0.1694212 -0.37811553 0
-0.27130872 -0.20071125 -0.38337648 0
-0.16023016 -0.17283344 -0.38178778 0
-0.05388397 -0.16743374 -0.38246405 0
0.033587158 -0.17284203 -0.38287199 0
0.11920524 -0.18791866 -0.37599564 0
0.20863044 -0.14195633 -0.36503887 0
0.43763709 -0.13030529 -0.37737465 0
0.54027611 -0.17935371 -0.37755764 0
0.68055326 -0.16558743 -0.37612641 0
-0.51521748 -0.051829338 -0.36640835 0
-0.44810152 -0.079699516 -0.37446833 0
-0.33954138 -0.060856819 -0.37771261 0
-0.25919342 -0.070406914 -0.37409258 0
-0.16457719 -0.099209785 -0.37770998 0
-0.046504557 -0.064640045 -0.37799156 0
0.035000324 -0.072323799 -0.37713981 0
0.11483645 -0.064056396 -0.37582183 0
0.22393781 -0.099762917 -0.36599898 0
0.42899013 -0.09881115 -0.37355089 0
0.54829204 -0.096489906 -0.37449455 0
0.68679857 -0.080441475 -0.37258601 0
0.85424972 -0.066533089 -0.37499738 0
-0.45654166 0.027224541 -0.36750031 0
-0.35838544 0.0027360916 -0.37016416 0
-0.26457453 0.013581276 -0.36858046 0
-0.13412613 0.035974503 -0.37154245 0
-0.064568877 0.037015915 -0.36887395 0
0.044029176 0.040322304 -0.37331522 0
0.10580927 0.032093048 -0.3689512 0
0.23554075 0.0099506378 -0.36907792 0
0.31498504 0.03855896 -0.3666538 0
0.43780738 0.012320518 -0.36972308 0
0.55103916 0.00015258789 -0.36994624 0
0.70318967 0.019463539 -0.37100577 0
0.83963561 0.049843788 -0.36569262 0
-0.47037834 0.13153744 -0.36130464 0
-0.36358333 0.10943794 -0.36433268 0
-0.25422913 0.10614491 -0.36540079 0
-0.13992769 0.14880943 -0.36553311 0
-0.068135738 0.13476181 -0.36405432 0
0.033071935 0.11627579 -0.36331999 0
0.10222334 0.089720726 -0.36565149 0
0.21309817 0.12537003 -0.36517346 0
0.33096278 0.12124634 -0.3666445 0
0.45539421 0.13285255 -0.36795723 0
0.56139189 0.11989212 -0.3665998 0
0.68211251 0.1255827 -0.36160755 0
0.69610393 0.1359024 -0.36404896 0
0.84681886 0.145401 -0.36289465 0
-0.51759315 0.22155094 -0.35550404 0
-0.46916884 0.21951485 -0.35751367 0
-0.36611366 0.21546936 -0.35770404 0
-0.26694334 0.21449184 -0.3603549 0
-0.15925229 0.23074818 -0.35892558 0
-0.07576102 0.20863152 -0.35993266 0
0.031751394 0.24534607 -0.3627646 0
0.1130271 0.21721268 -0.36306727 0
0.20998812 0.21998501 -0.36100459 0
0.32685655 0.23068142 -0.36161494 0
0.43826675 0.21561146 -0.36116636 0
0.55087173 0.20581245 -0.36090851 0
0.69521224 0.25403309 -0.3591994 0
0.82570302 0.20405865 -0.356094 0
-0.52567172 0.30509758 -0.35196126 0
-0.44876736 0.32655621 -0.35092676 0
-0.35322058 0.33127403 -0.35340846 0
-0.26734853 0.31754112 -0.35532999 0
-0.1705147 0.32584667 -0.35415733 0
-0.081483781 0.31865501 -0.35565329 0
0.015708983 0.31741428 -0.35754681 0
0.10915273 0.3312521 -0.35885155 0
0.19861412 0.30176067 -0.35617816 0
0.29998767 0.31034279 -0.35374224 0
0.42594963 0.33387375 -0.35478568 0
0.53245461 0.2971096 -0.35400546 0
0.63808572 0.30022335 -0.34617901 0
0.69598532 0.30632973 -0.35754704 0
0.81410116 0.32091713 -0.34967721 0
-0.52975291 0.42905903 -0.34632921 0
-0.47867143 0.40348625 -0.34689963 0
-0.37528372 0.4144249 -0.34754097 0
-0.29402506 0.41169071 -0.34817123 0
-0.18273747 0.43062305 -0.34937191 0
-0.067730725 0.43485165 -0.3498497 0
0.038253725 0.43233776 -0.35100496 0
0.13888389 0.4121294 -0.34890163 0
0.21237016 0.38933754 -0.35646677 0
0.32684058 0.43170261 -0.34829021 0
0.40279019 0.41633606 -0.34812343 0
0.5141927 0.41741085 -0.34705269 0
0.64919877 0.41016102 -0.34521008 0
0.79981589 0.43172455 -0.34366584 0
0.9780134 0.43928719 -0.34541285 0
0.9950152 0.40233231 -0.34980643 0
0.30488038 0.49517536 -0.35015082 0
0.96018773 0.49086857 -0.34060562 0
0.037552774 -0.47829437 -0.34305584 0
0.11030591 -0.46632767 -0.30975771 0
0.96652323 -0.47767735 -0.38991594 0
0.059121966 -0.39666176 -0.352965 0
0.11781508 -0.36773872 -0.33415961 0
0.9804635 -0.38828278 -0.38640225 0
0.08838582 -0.31115341 -0.36060643 0
0.15676689 -0.28093624 -0.34234059 0
0.80969441 -0.22397614 -0.37392282 0
0.98652607 -0.22142315 -0.37630737 0
0.99325883 -0.27079487 -0.38116539 0
0.21555459 -0.20358849 -0.34026659 0
0.99839091 -0.092738152 -0.37137806 0
0.99381208 0.044366837 -0.36328065 0
0.97331256 0.17137527 -0.35330868 0
0.97534126 0.3036356 -0.34895313 0
-0.68878007 -0.46149158 -0.39206052 0
-0.63677293 -0.48918724 -0.39572179 0
-0.54349554 -0.47232533 -0.39603722 0
-0.42947155 -0.46978664 -0.39683318 0
-0.31949395 -0.47439861 -0.39594173 0
-0.23688376 -0.49848366 -0.39723063 0
-0.11572593 -0.47109413 -0.40265 0
-0.016879618 -0.47345161 -0.3961426 0
0.029994607 -0.47264194 -0.37132227 0
0.58265078 -0.44019604 -0.39688504 0
0.7416873 -0.46001816 -0.3977586 0
0.91986763 -0.43153858 -0.39613724 0
0.93746197 -0.45423698 -0.40258884 0
-0.63592654 -0.38596535 -0.38935375 0
-0.51504409 -0.35965443 -0.39223623 0
-0.42750895 -0.35376453 -0.38912988 0
-0.31841868 -0.37676716 -0.39250362 0
-0.20772195 -0.38607788 -0.39434016 0
-0.11695963 -0.38903999 -0.39445674 0
-0.029010057 -0.37192917 -0.39311028 0
0.073037386 -0.3645153 -0.37545776 0
0.57109416 -0.38391018 -0.38938689 0
0.76212615 -0.36275673 -0.39519823 0
0.90056628 -0.36894131 -0.3864944 0
-0.62387854 -0.27932358 -0.38283503 0
-0.50459927 -0.26287365 -0.38642466 0
-0.41361558 -0.29160881 -0.38560402 0
-0.36261827 -0.23749256 -0.38556314 0
-0.22431284 -0.26323128 -0.38866663 0
-0.099112689 -0.28032112 -0.39017904 0
-0.045483351 -0.27309036 -0.38846004 0
0.097048342 -0.28513813 -0.39022481 0
0.15217471 -0.24238873 -0.36104763 0
0.58304018 -0.27282429 -0.38425815 0
0.74411672 -0.28504658 -0.38505232 0
0.89364123 -0.29470158 -0.37957013 0
-0.61327457 -0.16337299 -0.37679446 0
-0.51886332 -0.17165661 -0.38020957 0
-0.43030113 -0.1733017 -0.38135147 0
-0.35174817 -0.18755913 -0.37969768 0
-0.2394473 -0.16542053 -0.38026071 0
-0.13056046 -0.17568493 -0.38244796 0
-0.023035884 -0.15612316 -0.38580751 0
0.097721279 -0.16577911 -0.38219357 0
0.17484564 -0.16839314 -0.36877322 0
0.43307161 -0.1448307 -0.37601769 0
0.59426785 -0.15943432 -0.37961626 0
0.75105488 -0.16822052 -0.37911022 0
0.90899384 -0.16811371 -0.3752048 0
0.94568944 -0.18234444 -0.38470173 0
-0.63018531 -0.078961372 -0.37524724 0
-0.54361492 -0.074670792 -0.37230372 0
-0.44429994 -0.059601784 -0.37625372 0
-0.37284112 -0.095795631 -0.37390625 0
-0.24145383 -0.063976288 -0.37696278 0
-0.13446879 -0.049415588 -0.37748289 0
-0.024101257 -0.067732811 -0.37866092 0
0.11107254 -0.062701225 -0.37912107 0
0.20675522 -0.084543228 -0.3758775 0
0.27812666 -0.045567513 -0.36359322 0
0.43869162 -0.062146187 -0.37270272 0
0.59020954 -0.087743759 -0.37449992 0
0.78187227 -0.051386833 -0.37940407 0
0.93442643 -0.050397873 -0.374385 0
-0.61996394 0.024191856 -0.36853039 0
-0.54109949 0.014344215 -0.3683449 0
-0.43361223 0.013446808 -0.3698554 0
-0.32716519 0.016967773 -0.37212741 0
-0.24070168 0.001534462 -0.37369025 0
-0.11331409 0.048487663 -0.37237561 0
-0.0094209313 0.03608036 -0.37187445 0
0.10606259 0.018707275 -0.37386882 0
0.26307106 0.039761543 -0.36873507 0
0.4355281 0.00639534 -0.36850655 0
0.59130222 -0.0045185089 -0.37038231 0
0.76391786 0.039297104 -0.37073886 0
0.9350878 0.036365509 -0.37004316 0
-0.63196981 0.1318779 -0.36233747 0
-0.53863919 0.1264658 -0.36414421 0
-0.43572885 0.10409355 -0.36551797 0
-0.35916871 0.091712952 -0.36778867 0
-0.25020283 0.12703514 -0.36621046 0
-0.14932024 0.1308279 -0.36910248 0
-0.0085894465 0.14786434 -0.36734319 0
0.066888392 0.12542439 -0.36860323 0
0.19723469 0.16384602 -0.36239541 0
0.22785813 0.12889576 -0.370103 0
0.34628075 0.13377094 -0.3693738 0
0.46195555 0.11974525 -0.36903429 0
0.59338081 0.13448238 -0.36453784 0
0.61787885 0.16317368 -0.3684057 0
0.73991805 0.129035 -0.36144912 0
0.91552061 0.13636875 -0.36123335 0
0.92253393 0.086492538 -0.36493444 0
-0.6289593 0.24098778 -0.35778713 0
-0.53816009 0.22718525 -0.358796 0
-0.44030434 0.21702576 -0.36065722 0
-0.33166081 0.21791744 -0.36056197 0
-0.22064239 0.21422672 -0.36338687 0
-0.094880641 0.22680092 -0.36460233 0
-0.010114849 0.21853256 -0.36451793 0
0.095281005 0.22162533 -0.36329699 0
0.20518273 0.25038147 -0.36095142 0
0.35750735 0.2210207 -0.3682611 0
0.44218099 0.2348299 -0.36044514 0
0.57292968 0.225214 -0.35668838 0
0.75229222 0.23159695 -0.3599788 0
0.91286659 0.26387978 -0.35564077 0
0.9209069 0.20463943 -0.35955644 0
-0.6840924 0.35534382 -0.34915829 0
-0.62897336 0.31938934 -0.35508287 0
-0.53346056 0.34283924 -0.34955263 0
-0.43359715 0.32361221 -0.35261464 0
-0.33412665 0.3065567 -0.35496795 0
-0.21066707 0.32553005 -0.35659981 0
-0.13753319 0.3191328 -0.3593111 0
-0.016233265 0.30834961 -0.36055136 0
0.081331789 0.30750942 -0.35787976 0
0.20467132 0.3320055 -0.35834992 0
0.33181173 0.29683876 -0.36043835 0
0.44511116 0.35478687 -0.35707855 0
0.57292509 0.31775665 -0.35362411 0
0.72971183 0.33454609 -0.35193455 0
0.88983023 0.33851624 -0.34865201 0
-0.71194214 0.42166328 -0.34337533 0
-0.63813114 0.41463757 -0.34858346 0
-0.55990243 0.42529964 -0.35049391 0
-0.45003176 0.43778229 -0.3472687 0
-0.32612616 0.43095493 -0.34843171 0
-0.24084359 0.41793442 -0.34872425 0
-0.13043445 0.42954922 -0.35217428 0
-0.043221056 0.40850067 -0.35271859 0
0.074947178 0.43280506 -0.35351217 0
0.18804139 0.4430809 -0.35241032 0
0.3108148 0.47763157 -0.35153985 0
0.35449493 0.43044853 -0.35325718 0
0.42681837 0.41818142 -0.35181224 0
0.56543261 0.43403435 -0.34884167 0
0.69403702 0.46640396 -0.34136677 0
0.71735317 0.41921425 -0.34705269 0
0.88460755 0.43352795 -0.34490407 0
0.077693939 -0.47211361 -0.32691002 0
0.13578743 -0.44411373 -0.31127226 0
0.1049813 -0.37916183 -0.34118927 0
0.14533687 -0.345294 -0.33176851 0
0.17186022 -0.27330303 -0.34370577 0
0.22598529 -0.19640541 -0.33769107 0
-0.79982954 -0.4905653 -0.38857579 0
-0.69537181 -0.4796133 -0.39322162 0
-0.57396805 -0.47415638 -0.39444172 0
-0.49549073 -0.48955631 -0.39141798 0
-0.41696209 -0.46034336 -0.39199078 0
-0.28939545 -0.48349667 -0.39424336 0
-0.14248502 -0.47961903 -0.39324379 0
-0.1218282 -0.45328331 -0.39627028 0
0.0045365691 -0.47608757 -0.37409627 0
0.67076713 -0.49578667 -0.39270627 0
0.8597033 -0.48723507 -0.39302325 0
-0.77454406 -0.38779831 -0.38339126 0
-0.65179157 -0.36962605 -0.38586843 0
-0.56585103 -0.37936401 -0.38691139 0
-0.50892854 -0.40042686 -0.38473547 0
-0.40606791 -0.38229847 -0.38750386 0
-0.3017146 -0.35378933 -0.38899481 0
-0.21127236 -0.37460423 -0.38973689 0
-0.12025344 -0.36365891 -0.38872957 0
0.036310256 -0.38513565 -0.3734287 0
0.080390215 -0.34355545 -0.35317063 0
0.68553281 -0.37718964 -0.38705039 0
0.85863566 -0.38172245 -0.38445783 0
-0.77614993 -0.29211521 -0.37871599 0
-0.70000207 -0.28262043 -0.37995923 0
-0.58648157 -0.26630878 -0.37915981 0
-0.48353612 -0.29205322 -0.38206279 0
-0.38312399 -0.27429676 -0.38432765 0
-0.29990107 -0.2636137 -0.3821944 0
-0.20556164 -0.29259491 -0.3844713 0
-0.098994017 -0.26202965 -0.38616955 0
-0.0014810562 -0.29357719 -0.38413835 0
0.11264944 -0.27336121 -0.36839235 0
0.17205459 -0.2569952 -0.34288573 0
0.53059864 -0.27142239 -0.38302195 0
0.72183889 -0.22650528 -0.38517773 0
0.8679744 -0.2872324 -0.38004243 0
-0.75049108 -0.1771822 -0.37622583 0
-0.6678831 -0.19302654 -0.37535191 0
-0.59689111 -0.17142773 -0.37435448 0
-0.47048414 -0.19769096 -0.37821972 0
-0.38438135 -0.18787479 -0.37777281 0
-0.29158902 -0.17763042 -0.3782146 0
-0.19462347 -0.20474911 -0.38089621 0
-0.090310097 -0.1700182 -0.38193345 0
0.013386548 -0.19115353 -0.38067722 0
0.13495064 -0.18753433 -0.38077104 0
0.18400389 -0.19058514 -0.35230947 0
0.52240407 -0.20412731 -0.37660563 0
0.70117259 -0.17356491 -0.37687516 0
0.89366823 -0.1684103 -0.3785336 0
-0.75359035 -0.089660645 -0.36984277 0
-0.69500089 -0.075325012 -0.36710024 0
-0.58495897 -0.079183578 -0.37040448 0
-0.47541094 -0.086086273 -0.37338972 0
-0.37621921 -0.067375183 -0.37232542 0
-0.29345953 -0.081988335 -0.37205148 0
-0.18758649 -0.075368881 -0.3745898 0
-0.090359867 -0.083304405 -0.37667751 0
0.024033725 -0.071490288 -0.37599945 0
0.14123356 -0.076551437 -0.37545276 0
0.24008346 -0.098420143 -0.35419047 0
0.5388096 -0.078765869 -0.37306714 0
0.7011829 -0.059605598 -0.37033451 0
0.88397795 -0.063667297 -0.37026644 0
-0.75598335 0.023929596 -0.36343932 0
-0.68576515 0.037075043 -0.36340296 0
-0.58339751 0.04654026 -0.36441672 0
-0.49663234 0.014442444 -0.36798584 0
-0.37821835 0.031170845 -0.366871 0
-0.28894144 0.02589798 -0.36751246 0
-0.20685214 0.0046606064 -0.36619759 0
-0.10251796 0.0094213486 -0.36916924 0
0.018687308 0.014597893 -0.3703171 0
0.13151211 0.034779549 -0.36760414 0
0.24967951 0.055745125 -0.36486256 0
0.28609449 0.0051078796 -0.3624326 0
0.52153409 0.0098438263 -0.36458182 0
0.69243455 0.045952797 -0.36310267 0
0.88084757 0.028759956 -0.36479008 0
-0.76584518 0.11562061 -0.35758102 0
-0.68569601 0.12327385 -0.35721374 0
-0.58547759 0.14205074 -0.36106801 0
-0.49063194 0.1193676 -0.36102784 0
-0.38637024 0.12520981 -0.36122906 0
-0.27593547 0.11052895 -0.36015415 0
-0.19828159 0.10795403 -0.36350799 0
-0.10091513 0.12883282 -0.36427546 0
0.01921165 0.11244965 -0.36611354 0
0.12576324 0.12614727 -0.36243248 0
0.25093871 0.13486099 -0.36177862 0
0.34790331 0.12109566 -0.35661876 0
0.39077008 0.14785576 -0.36411488 0
0.54294711 0.14984035 -0.36289513 0
0.56985807 0.11993027 -0.36992061 0
0.71104103 0.15299416 -0.36231995 0
0.88570058 0.1286993 -0.36126053 0
-0.77166378 0.2001009 -0.35370183 0
-0.67234713 0.21862411 -0.35272539 0
-0.55358112 0.24053288 -0.3549397 0
-0.48199385 0.22179985 -0.35503125 0
-0.39012396 0.22733688 -0.35693133 0
-0.30385906 0.2061758 -0.35736871 0
-0.20620477 0.23443031 -0.35736525 0
-0.10908484 0.21595383 -0.3594383 0
0.0061365962 0.22417641 -0.35924852 0
0.12445116 0.22775555 -0.35841191 0
0.23231417 0.24388599 -0.35398483 0
0.3105197 0.25167847 -0.3567313 0
0.38048619 0.24808979 -0.35817766 0
0.52218932 0.21508312 -0.35604918 0
0.68128449 0.21531487 -0.35365391 0
0.86444068 0.26788807 -0.35126257 0
0.86900169 0.19980621 -0.35475719 0
-0.78203225 0.30093384 -0.34920287 0
-0.68018663 0.31048584 -0.34897935 0
-0.58791834 0.30560017 -0.34681427 0
-0.49621391 0.30919647 -0.35064316 0
-0.41216165 0.33669281 -0.34975684 0
-0.30712807 0.31884575 -0.35343397 0
-0.19671315 0.32870007 -0.35071027 0
-0.099058211 0.32936954 -0.35794044 0
0.0016602874 0.32026672 -0.35543203 0
0.10390544 0.34074402 -0.35097587 0
0.23683429 0.33582687 -0.35206771 0
0.35814238 0.33164501 -0.35102785 0
0.49466431 0.30119991 -0.34758794 0
0.67107856 0.30117798 -0.34862864 0
0.85037124 0.31781006 -0.34686697 0
-0.77434838 0.4166317 -0.34254944 0
-0.67479336 0.4310894 -0.34167671 0
-0.60536599 0.42488956 -0.34464061 0
-0.50362515 0.425457 -0.34296322 0
-0.3880012 0.41663361 -0.34418285 0
-0.28437227 0.40477562 -0.34388745 0
-0.2314676 0.37907219 -0.348526 0
-0.12847888 0.42815876 -0.34972179 0
-0.017776966 0.40751362 -0.349383 0
0.085460603 0.43137741 -0.34525466 0
0.22846782 0.40933609 -0.34849381 0
0.33837885 0.43176651 -0.34459567 0
0.49453527 0.42544365 -0.34404433 0
0.65861571 0.42490101 -0.34264886 0
0.67191267 0.37521267 -0.34657681 0
0.84962302 0.4260397 -0.3436271 0
-0.83802974 0.4793644 -0.33685732 0
-0.090689123 0.49497318 -0.3445698 0
-0.032755911 0.47522449 -0.34500551 0
0.041883707 -0.47745228 -0.33298147 0
0.076573193 -0.48961353 -0.31365144 0
0.12834054 -0.38170624 -0.3245455 0
0.13626474 -0.31457043 -0.3393178 0
0.17609298 -0.3248415 -0.32028639 0
-0.81967664 -0.48284149 -0.39528406 0
-0.70266569 -0.4749136 -0.3962208 0
-0.62197387 -0.47453308 -0.39771879 0
-0.52785856 -0.48997784 -0.4004519 0
-0.43111902 -0.49188995 -0.40165472 0
-0.33064193 -0.47841835 -0.40067315 0
-0.2276355 -0.46076488 -0.40098143 0
-0.098293364 -0.47646236 -0.40454865 0
0.0031950474 -0.48812962 -0.37773812 0
0.027792633 -0.47863102 -0.37974036 0
0.62509805 -0.45561028 -0.3990742 0
0.7942571 -0.49721432 -0.3958416 0
-0.90571135 -0.39314175 -0.39170945 0
-0.83767104 -0.38836479 -0.39031374 0
-0.72159451 -0.37454987 -0.39102125 0
-0.60276592 -0.37407875 -0.39306891 0
-0.51023006 -0.39070225 -0.39542949 0
-0.41291291 -0.38798618 -0.39644396 0
-0.31042856 -0.36821365 -0.39585185 0
-0.20520765 -0.35743523 -0.39767385 0
-0.098514616 -0.37826729 -0.39577794 0
0.056494355 -0.37071133 -0.3716439 0
0.62154073 -0.41328526 -0.39471567 0
0.83929408 -0.36664486 -0.3970418 0
0.99965149 -0.40440178 -0.39194584 0
-0.89591849 -0.2877779 -0.384516 0
-0.81402612 -0.27474403 -0.38634419 0
-0.73938298 -0.29996109 -0.3893621 0
-0.62793988 -0.28245068 -0.38824403 0
-0.50440437 -0.28440094 -0.38791907 0
-0.39299542 -0.278018 -0.39239907 0
-0.30191702 -0.26574802 -0.3898766 0
-0.19608498 -0.2706728 -0.3931005 0
-0.064273894 -0.25491333 -0.39478743 0
0.061173201 -0.27404499 -0.38644862 0
0.14457941 -0.29913998 -0.34809232 0
0.6489743 -0.29347229 -0.39264703 0
0.83507341 -0.2894392 -0.39033651 0
-0.89182055 -0.14874935 -0.37527454 0
-0.82995635 -0.17153645 -0.38156247 0
-0.73328948 -0.19967175 -0.38314116 0
-0.62467134 -0.19419765 -0.38253295 0
-0.48298496 -0.18760586 -0.38608623 0
-0.39483196 -0.18581486 -0.38523865 0
-0.29006153 -0.16868401 -0.38597345 0
-0.19723815 -0.21536636 -0.38884449 0
-0.1728242 -0.1403656 -0.38971245 0
-0.061293662 -0.18568897 -0.39073396 0
0.062115848 -0.15134144 -0.38787329 0
0.16766417 -0.19822121 -0.36779761 0
0.47234285 -0.17556858 -0.38517523 0
0.64984399 -0.18268871 -0.38541293 0
0.83049667 -0.20445919 -0.38360178 0
-0.88348252 -0.076888084 -0.3729223 0
-0.83335888 -0.078325272 -0.37389052 0
-0.7469725 -0.080929756 -0.37644637 0
-0.63347465 -0.06901741 -0.37700808 0
-0.56891811 -0.084540367 -0.38009357 0
-0.43362415 -0.092094421 -0.38102376 0
-0.2982918 -0.058836937 -0.37760973 0
-0.23291296 -0.083818436 -0.38326418 0
-0.16997916 -0.053571701 -0.38518584 0
-0.065839946 -0.10468578 -0.38464367 0
0.061749876 -0.059052467 -0.38237369 0
0.18735987 -0.065001488 -0.38128555 0
0.24019134 -0.092141151 -0.36800945 0
0.46768945 -0.070818901 -0.37797034 0
0.66355717 -0.052202225 -0.380916 0
0.84447372 -0.066667557 -0.37868226 0
-0.89503795 -0.0070877075 -0.36684787 0
-0.83174688 -0.0066337585 -0.3705169 0
-0.73013097 0.028840065 -0.37067819 0
-0.62702698 0.0031042099 -0.37068403 0
-0.48650557 0.0020074844 -0.3742671 0
-0.43261904 0.020324707 -0.37528956 0
-0.2986958 0.0086612701 -0.374125 0
-0.20287246 0.047150612 -0.3728652 0
-0.17867869 0.025696754 -0.37909257 0
-0.056100786 -0.0015106201 -0.38120961 0
0.054752946 0.030041695 -0.37628508 0
0.20248789 0.051586151 -0.37864721 0
0.27398258 -0.0072908401 -0.36934793 0
0.47546625 0.022744179 -0.37482369 0
0.64546025 0.013419151 -0.37335896 0
0.86022466 0.050866127 -0.37600005 0
-0.88797265 0.12717915 -0.36284792 0
-0.83222765 0.096516609 -0.36688268 0
-0.73022091 0.12630653 -0.36659515 0
-0.62806541 0.1177845 -0.36711287 0
-0.51511514 0.097914696 -0.3701179 0
-0.40358192 0.1385746 -0.36679935 0
-0.32622701 0.11493683 -0.37045813 0
-0.19060802 0.13257885 -0.37184012 0
-0.058627903 0.12002563 -0.37506306 0
0.055475116 0.13436317 -0.37181902 0
0.18995386 0.12739182 -0.37252653 0
0.30650884 0.098070145 -0.37056565 0
0.46891934 0.072591782 -0.37103474 0
0.6535176 0.11117935 -0.3705169 0
0.83344024 0.069469452 -0.36921608 0
-0.90630913 0.2582798 -0.35546005 0
-0.8475787 0.20859623 -0.36137354 0
-0.74274862 0.20981312 -0.36131501 0
-0.64175081 0.22607517 -0.36072111 0
-0.537624 0.20591068 -0.364537 0
-0.42885602 0.21099663 -0.36526835 0
-0.31805807 0.22191334 -0.36171794 0
-0.23590404 0.18676472 -0.36691809 0
-0.082400143 0.19227982 -0.36729741 0
0.037558854 0.1903429 -0.36594796 0
0.17971545 0.18765926 -0.36800432 0
0.30118304 0.20582008 -0.36505449 0
0.48217988 0.21019363 -0.36805761 0
0.65216219 0.23798275 -0.3649801 0
0.84684122 0.19121361 -0.36672294 0
-0.90450919 0.3135643 -0.35459387 0
-0.83152717 0.30679035 -0.35531306 0
-0.73176867 0.32234192 -0.35498595 0
-0.63577145 0.30805588 -0.35594821 0
-0.50746042 0.3051939 -0.35905576 0
-0.42189741 0.30361938 -0.35796773 0
-0.31603205 0.32148647 -0.35923016 0
-0.20147711 0.31874084 -0.36332667 0
-0.089547157 0.31596661 -0.3619206 0
-0.064507306 0.26816463 -0.36829925 0
0.044122517 0.3130312 -0.36327267 0
0.16700816 0.28555012 -0.36200857 0
0.28996861 0.27686691 -0.36027789 0
0.45791864 0.33470154 -0.35870504 0
0.63071978 0.32046223 -0.35772002 0
0.84131515 0.32532406 -0.36056602 0
0.98594046 0.36321545 -0.34977746 0
-0.93042725 0.41035557 -0.34843493 0
-0.84284627 0.41303253 -0.34823108 0
-0.73143917 0.41788673 -0.35192609 0
-0.62328941 0.40614223 -0.3517437 0
-0.52743852 0.42342758 -0.35272098 0
-0.43068403 0.4207716 -0.35350645 0
-0.33545345 0.40368557 -0.35344744 0
-0.2361483 0.41440392 -0.35420907 0
-0.11037475 0.40800858 -0.35542011 0
0.013790488 0.41862965 -0.35456169 0
0.16688401 0.40537834 -0.35852551 0
0.27212483 0.41181087 -0.35288131 0
0.32620937 0.38628292 -0.36404192 0
0.45377016 0.42283821 -0.35527539 0
0.60551435 0.4240303 -0.34977639 0
0.63227767 0.39556122 -0.35578048 0
0.79041117 0.41477966 -0.34789407 0
0.99090046 0.43144226 -0.34880149 0
-0.82576913 0.49484348 -0.34510291 0
-0.56740975 0.49879074 -0.34453571 0
-0.356139 0.49204922 -0.34775054 0
0.6026727 0.49840641 -0.34724772 0
0.06772995 -0.49653435 -0.3250109 0
0.094074607 -0.41609192 -0.33209169 0
0.14434832 -0.31911755 -0.33320975 0
-0.98272759 -0.464571 -0.38912201 0
-0.86128736 -0.49167156 -0.39216983 0
-0.78429884 -0.48235989 -0.39171207 0
-0.68554026 -0.46347237 -0.39214909 0
-0.589257 -0.47958279 -0.39502811 0
-0.49894881 -0.49450302 -0.39427054 0
-0.39866024 -0.49708366 -0.39606893 0
-0.13842165 -0.47934914 -0.39715397 0
0.013620555 -0.48791981 -0.37425733 0
0.65208775 -0.48576355 -0.3943969 0
0.84812951 -0.48094749 -0.39533603 0
-0.9692294 -0.38261986 -0.38542151 0
-0.86842036 -0.39981556 -0.38679242 0
-0.76503545 -0.37490749 -0.38548756 0
-0.66522968 -0.36656952 -0.3876034 0
-0.5818882 -0.37683678 -0.38627279 0
-0.47914153 -0.40649891 -0.39056098 0
-0.38132757 -0.3897686 -0.38987541 0
-0.26543903 -0.40230083 -0.38977671 0
-0.14298779 -0.36518288 -0.38496673 0
-0.12021482 -0.38275433 -0.39261615 0
0.035577297 -0.40828705 -0.37743878 0
0.096027315 -0.34677124 -0.3653698 0
0.66291493 -0.39075661 -0.38863993 0
0.83951634 -0.3810091 -0.38395321 0
-0.99834836 -0.27059555 -0.37902296 0
-0.89027441 -0.29985046 -0.38027275 0
-0.79736084 -0.30971622 -0.3804673 0
-0.65632826 -0.27210522 -0.38139141 0
-0.5489881 -0.25101662 -0.38373792 0
-0.46492308 -0.30205059 -0.3847096 0
-0.35948014 -0.26922226 -0.38490427 0
-0.24347484 -0.31618214 -0.38781106 0
-0.23041773 -0.26154709 -0.38663006 0
-0.10784775 -0.28723526 -0.38754296 0
0.013899267 -0.29255772 -0.38525319 0
0.12476915 -0.280509 -0.36536551 0
0.19762051 -0.27518749 -0.33459079 0
0.65828443 -0.31773663 -0.38128257 0
0.86673653 -0.29002571 -0.38354611 0
-0.9787038 -0.16817856 -0.37306023 0
-0.88962841 -0.18164539 -0.37439537 0
-0.7975713 -0.20133591 -0.37618232 0
-0.68981284 -0.17364597 -0.37855005 0
-0.55398649 -0.18634129 -0.37745857 0
-0.46535951 -0.21095085 -0.37727594 0
-0.36929852 -0.20555305 -0.37748861 0
-0.24279636 -0.19191074 -0.37828171 0
-0.093669474 -0.18201637 -0.38305521 0
0.039382041 -0.1912756 -0.38385952 0
0.15955585 -0.16606998 -0.37963223 0
0.21646309 -0.18327045 -0.35057652 0
0.48723722 -0.17576885 -0.37631547 0
0.69091547 -0.19155979 -0.37992072 0
0.87890589 -0.19050598 -0.37904835 0
-0.97642523 -0.085553169 -0.36934614 0
-0.88071555 -0.071913719 -0.3691051 0
-0.77623421 -0.084119797 -0.36893654 0
-0.68677437 -0.079756737 -0.37415195 0
-0.5663532 -0.054644585 -0.37290955 0
-0.47082514 -0.095280647 -0.37384188 0
-0.35014266 -0.10117817 -0.37496543 0
-0.21490878 -0.073584557 -0.37695265 0
-0.096024632 -0.070502281 -0.3750056 0
0.050579607 -0.10729122 -0.38074541 0
0.20348907 -0.098638535 -0.36781061 0
0.27112406 -0.055257797 -0.3622793 0
0.48892856 -0.088521957 -0.37090528 0
0.69074994 -0.081664085 -0.37230992 0
0.88695544 -0.090815544 -0.37405682 0
-0.97129756 0.016835213 -0.36343956 0
-0.89184934 0.040710449 -0.3642776 0
-0.77523512 0.0023374557 -0.365412 0
-0.63978451 0.0026273727 -0.36671567 0
-0.55050778 0.016588211 -0.36562836 0
-0.45500761 0.0068588257 -0.3659544 0
-0.34014148 0.018979073 -0.37017941 0
-0.24474972 0.028201103 -0.36435771 0
-0.21995711 -0.00877285 -0.37193322 0
-0.079003155 0.026967049 -0.37319016 0
0.044712543 0.0095787048 -0.37224042 0
0.18734872 0.011400223 -0.37456381 0
0.28872538 -0.00086212158 -0.36176777 0
0.49697226 0.038022995 -0.3652184 0
0.70875257 0.043894768 -0.36880004 0
0.88718677 0.0066099167 -0.36793375 0
-0.99450332 0.099251747 -0.35827577 0
-0.88374221 0.12186337 -0.35856068 0
-0.78418219 0.11110973 -0.36093724 0
-0.64459848 0.11790657 -0.36006999 0
-0.55288488 0.097126007 -0.36117053 0
-0.43916839 0.11340332 -0.36412549 0
-0.36081332 0.10909176 -0.36113048 0
-0.20436597 0.12698936 -0.36828458 0
-0.087545276 0.085165977 -0.36822033 0
0.042708218 0.11313057 -0.36627865 0
0.15096116 0.10228825 -0.36155152 0
0.17079717 0.068367004 -0.36764812 0
0.34528202 0.12016678 -0.36700284 0
0.49963462 0.13315678 -0.36075044 0
0.70799202 0.12550163 -0.36415005 0
0.88186216 0.12995148 -0.3597281 0
-0.98371744 0.2232132 -0.35172343 0
-0.89123797 0.20782948 -0.35381877 0
-0.78167129 0.21960545 -0.35351515 0
-0.69209135 0.18311596 -0.35367358 0
-0.55825543 0.20114136 -0.35578334 0
-0.45610815 0.20948696 -0.35651779 0
-0.39637434 0.20856667 -0.35925233 0
-0.33271146 0.21661091 -0.36240184 0
-0.21763843 0.20980549 -0.36185253 0
-0.098812521 0.1769743 -0.36152148 0
0.054549456 0.20368576 -0.36464012 0
0.15670693 0.21724415 -0.35752857 0
0.18500531 0.19736862 -0.36443675 0
0.34676051 0.20573044 -0.36310196 0
0.50437135 0.2283659 -0.35728276 0
0.68904209 0.23066139 -0.35476136 0
0.89866292 0.24924374 -0.35743415 0
-0.97540808 0.33063889 -0.34436285 0
-0.91006559 0.28883362 -0.34767473 0
-0.79056549 0.31556797 -0.34883678 0
-0.65959299 0.30300522 -0.35031569 0
-0.55855554 0.31792164 -0.35175598 0
-0.44647038 0.31466579 -0.35483909 0
-0.36045295 0.30304337 -0.35362995 0
-0.22285682 0.30703068 -0.35703373 0
-0.091364264 0.31727123 -0.35758686 0
0.044525504 0.30598068 -0.35839844 0
0.17129248 0.32488251 -0.35631061 0
0.33971542 0.28991699 -0.35796249 0
0.49733263 0.30398655 -0.35257328 0
0.68754894 0.33496761 -0.35013258 0
0.87279457 0.32706738 -0.34874487 0
-0.99056 0.43943596 -0.33959877 0
-0.8837834 0.38828278 -0.34210098 0
-0.76771903 0.42420197 -0.34370947 0
-0.66659921 0.40535831 -0.34633446 0
-0.56915826 0.42097378 -0.34701276 0
-0.47349781 0.4354353 -0.34619963 0
-0.36656916 0.40434837 -0.34930468 0
-0.25234908 0.43661308 -0.34714973 0
-0.1984821 0.3988781 -0.35049725 0
-0.12804335 0.38439178 -0.34800696 0
0.041998029 0.41628742 -0.35411489 0
0.16562879 0.4084568 -0.35222256 0
0.33818966 0.40928173 -0.35312259 0
0.51216447 0.42488194 -0.35099387 0
0.65530986 0.43815899 -0.34000731 0
0.69472492 0.42389488 -0.34841454 0
0.85411614 0.42721462 -0.34129727 0
-0.70049489 0.48518181 -0.3385483 0
0.17856258 0.48617172 -0.35235369 0
0.30800855 0.49966908 -0.34423769 0
0.11547595 -0.49064827 -0.30562663 0
0.12365025 -0.39280415 -0.32931983 0
-0.93209672 -0.48741341 -0.39931095 0
-0.83853358 -0.48864937 -0.40030551 0
-0.74490613 -0.47427559 -0.40011013 0
-0.62622064 -0.48761368 -0.40426564 0
-0.50590068 -0.48949623 -0.40529609 0
-0.39440298 -0.4934206 -0.40188372 0
0.027093351 -0.47381496 -0.3992976 0
0.87491471 -0.46210384 -0.40083396 0
-0.99634969 -0.38119221 -0.39183855 0
-0.90896165 -0.39248562 -0.39381456 0
-0.81725413 -0.39622307 -0.39455855 0
-0.72998816 -0.38721657 -0.39342988 0
-0.60802037 -0.39037704 -0.39710736 0
-0.48262006 -0.3856678 -0.39885509 0
-0.34754634 -0.35414791 -0.39863694 0
-0.21815789 -0.37622356 -0.40324295 0
-0.080089808 -0.39478397 -0.40033579 0
0.040504217 -0.42810917 -0.39660227 0
0.063709974 -0.37110424 -0.39566863 0
0.64281899 -0.40508556 -0.3978157 0
0.89530104 -0.38439846 -0.39713156 0
-0.9847033 -0.26887894 -0.38843465 0
-0.88843071 -0.28513145 -0.387398 0
-0.79729658 -0.28028393 -0.38719463 0
-0.70134968 -0.27157784 -0.38869667 0
-0.61496121 -0.33447266 -0.38840854 0
-0.46966547 -0.30139732 -0.39287949 0
-0.34862053 -0.30037975 -0.39215779 0
-0.21079898 -0.27101707 -0.39325047 0
-0.073150277 -0.33008575 -0.39483619 0
-0.048546016 -0.258564 -0.39416814 0
0.091907263 -0.29224014 -0.39336002 0
0.68202615 -0.26254463 -0.39264417 0
0.9183495 -0.2876091 -0.39241576 0
-0.90963852 -0.17742157 -0.3825835 0
-0.77433443 -0.17429447 -0.38297272 0
-0.67595196 -0.17680359 -0.38628638 0
-0.56472915 -0.20750046 -0.38941765 0
-0.44545251 -0.18196583 -0.38748825 0
-0.31251585 -0.20354939 -0.39229536 0
-0.19462204 -0.19352341 -0.38981891 0
-0.027938485 -0.17004108 -0.39102316 0
0.1164605 -0.1941328 -0.38823855 0
0.18550211 -0.17257977 -0.36734593 0
0.69714355 -0.1651144 -0.38637531 0
0.93625849 -0.19026375 -0.38658261 0
-0.99994367 -0.10949802 -0.37501895 0
-0.79618746 -0.090493202 -0.37945521 0
-0.6098156 -0.09617424 -0.38193703 0
-0.54943198 -0.040196419 -0.37859881 0
-0.42663223 -0.062795639 -0.3817997 0
-0.31135345 -0.099891663 -0.38294768 0
-0.17631328 -0.10669041 -0.38664007 0
-0.014852285 -0.065346718 -0.3848834 0
0.18669301 -0.098847389 -0.378214 0
0.25757706 -0.051560402 -0.3704828 0
0.47519404 -0.11631203 -0.38257718 0
0.72125912 -0.085669518 -0.38507938 0
0.96023846 -0.072845459 -0.38113844 0
-0.94091886 -0.0053663254 -0.37166023 0
-0.82360971 0.015989304 -0.37248945 0
-0.70498466 0.023442268 -0.37366188 0
-0.60436958 -0.014948845 -0.37680507 0
-0.4289102 -0.0065937042 -0.37674761 0
-0.29870492 0.023060799 -0.37621117 0
-0.16622984 -0.0081996918 -0.38088655 0
-0.0076317787 0.013959885 -0.38010299 0
0.13964713 -0.0049028397 -0.37714446 0
0.15130317 0.012682915 -0.37881303 0
0.27906924 -0.0011281967 -0.3700875 0
0.49292362 -0.0098371506 -0.37752616 0
0.72322524 -0.0025224686 -0.37765813 0
0.9738158 0.026112556 -0.3751905 0
