# .PCD v0.7 - Point Cloud Data file format
VERSION 0.7
FIELDS x y z intensity
SIZE 4 4 4 4
TYPE F F F F
COUNT 1 1 1 1
WIDTH 1290
HEIGHT 1
VIEWPOINT 0 0 0 1 0 0 0
POINTS 1290
DATA ascii
0.56463504 -0.21636868 -0.3546592 0
0.66532135 -0.22914982 -0.3556025 0
0.76326561 -0.24615574 -0.3582592 0
0.87652087 -0.25345802 -0.35559785 0
0.99060965 -0.26377201 -0.34797299 0
0.67148733 -0.17035484 -0.35447967 0
0.77320933 -0.15667439 -0.35774422 0
0.88562012 -0.16653442 -0.35443056 0
0.68477273 -0.066303253 -0.35739112 0
0.78308725 -0.037964821 -0.35748768 0
0.89103603 -0.074878693 -0.35198557 0
0.68917274 0.063918114 -0.3561362 0
0.79158425 0.083170891 -0.35877621 0
0.90669823 0.068777084 -0.35653579 0
0.90931153 0.16261005 -0.3561182 0
0.78946614 0.26174545 -0.35663223 0
0.91351557 0.246171 -0.35809624 0
0.78131175 0.36699009 -0.35442507 0
0.90792799 0.3312645 -0.35573351 0
0.77623343 0.46232319 -0.35517645 0
0.90877461 0.4427166 -0.35846126 0
0.58896685 -0.49394035 -0.36614084 0
-0.37304163 -0.43237019 -0.36818254 0
-0.29528999 -0.44617558 -0.37004864 0
-0.20129371 -0.4138689 -0.36849618 0
-0.098977089 -0.45698738 -0.37034631 0
0.026631594 -0.42303181 -0.36980498 0
0.12646246 -0.43259239 -0.36738336 0
0.20564508 -0.44535542 -0.36995173 0
0.30164456 -0.44049835 -0.36838591 0
0.39311004 -0.45892906 -0.36369967 0
0.49914646 -0.4510107 -0.36714625 0
-0.35867429 -0.36611462 -0.36617672 0
-0.28746772 -0.33658314 -0.36855793 0
-0.19597507 -0.33420086 -0.37025285 0
-0.097220659 -0.35260201 -0.36839747 0
-0.0061893463 -0.35294247 -0.36622715 0
0.12402081 -0.33548069 -0.36762083 0
0.22798586 -0.33310223 -0.37087512 0
0.31657219 -0.36606693 -0.36710882 0
0.42229986 -0.33107567 -0.36725628 0
0.52458525 -0.33404541 -0.36835909 0
0.62592554 -0.31703758 -0.36579132 0
-0.30880809 -0.23709869 -0.37158513 0
-0.17868638 -0.22775173 -0.36932135 0
-0.087824821 -0.22931671 -0.37318897 0
0.0014269352 -0.21954441 -0.36854589 0
0.099594355 -0.23317528 -0.36897349 0
0.22439194 -0.22258949 -0.37063563 0
0.33794188 -0.25334167 -0.36897898 0
0.43389726 -0.24080563 -0.36379468 0
0.53999376 -0.23344231 -0.3664465 0
0.63970256 -0.22760963 -0.36457121 0
-0.28408456 -0.14183331 -0.36889648 0
-0.19887543 -0.16027927 -0.3667773 0
-0.094190359 -0.12934589 -0.37076879 0
0.018140793 -0.10998726 -0.37190259 0
0.086815596 -0.15925407 -0.36808097 0
0.20688629 -0.12282848 -0.36989117 0
0.34345174 -0.1670332 -0.36486995 0
0.45412564 -0.18601513 -0.37495863 0
0.51106954 -0.10176086 -0.37025464 0
0.64900327 -0.1738739 -0.3659867 0
-0.28730369 -0.026961327 -0.37049901 0
-0.180336 -0.042593002 -0.37275815 0
-0.086471081 -0.029408455 -0.37058508 0
0.022676945 -0.02223587 -0.37061882 0
0.097816944 -0.04065609 -0.36938822 0
0.23502111 -0.047083855 -0.36623156 0
0.35869503 -0.037145615 -0.36839342 0
0.42801595 -0.066182137 -0.36960614 0
0.57411575 -0.021975517 -0.37282825 0
0.66841269 -0.044647217 -0.36930227 0
-0.26885009 0.072576523 -0.369573 0
-0.19233489 0.04944706 -0.37229025 0
-0.080348253 0.052801132 -0.37230194 0
0.026849747 0.074050903 -0.37091982 0
0.098531723 0.061010361 -0.36729145 0
0.20671034 0.050839424 -0.37059236 0
0.35647988 0.052651405 -0.36476612 0
0.41200876 0.038207054 -0.36695373 0
0.47615457 0.049294472 -0.37385225 0
0.57864451 0.062259674 -0.37135756 0
0.67775464 0.054420471 -0.37017429 0
0.79531527 0.062003136 -0.36796689 0
-0.27975774 0.17304897 -0.37042701 0
-0.18538642 0.15258217 -0.36774433 0
-0.084804773 0.15302658 -0.36963618 0
0.025988817 0.16888332 -0.37060881 0
0.094419956 0.15988731 -0.3650142 0
0.20235515 0.1632719 -0.36769891 0
0.27383614 0.14118004 -0.37409115 0
0.40187979 0.17427731 -0.37009335 0
0.46515417 0.12057114 -0.3662734 0
0.58038878 0.14342785 -0.36965871 0
0.68128991 0.16841125 -0.36936712 0
0.79665756 0.12721729 -0.36648679 0
-0.27899241 0.26514244 -0.36836815 0
-0.18903136 0.26256371 -0.36870861 0
-0.093259096 0.2576952 -0.37082815 0
0.022367716 0.28638554 -0.37134767 0
0.091388702 0.26218987 -0.36577618 0
0.20385718 0.26905727 -0.36700094 0
0.26512527 0.25289059 -0.37054503 0
0.41450167 0.27562618 -0.36888099 0
0.4806149 0.25899029 -0.37531567 0
0.58008623 0.24170017 -0.37000668 0
0.6772387 0.24826622 -0.3663398 0
0.80732369 0.29604721 -0.37044322 0
-0.29955339 0.3616848 -0.36885309 0
-0.18490553 0.34808254 -0.36711264 0
-0.087676525 0.3500185 -0.37093866 0
0.017196178 0.38834095 -0.37289238 0
0.097515345 0.40015125 -0.37354708 0
0.21648192 0.36003876 -0.36959207 0
0.36241579 0.32207489 -0.37038827 0
0.36564541 0.38157749 -0.37372243 0
0.46927238 0.38763618 -0.3727113 0
0.57372522 0.35373592 -0.36900985 0
0.68209839 0.37147522 -0.37093186 0
0.80196714 0.33501244 -0.36755455 0
-0.34987879 0.49704456 -0.36893809 0
-0.294945 0.46331215 -0.36875725 0
-0.18736649 0.4600811 -0.3678565 0
-0.072809696 0.46765327 -0.3723042 0
0.010247707 0.47272587 -0.36636555 0
0.11989355 0.46038437 -0.36817646 0
0.22231936 0.44746494 -0.37002003 0
0.35266399 0.45775509 -0.37109053 0
0.4582994 0.44433403 -0.36985934 0
0.57734394 0.48336124 -0.37513578 0
0.67948937 0.48769569 -0.3735311 0
0.7951057 0.44493675 -0.36560655 0
0.5936811 -0.45675468 -0.36045408 0
0.7231698 -0.42728519 -0.35981739 0
0.84992313 -0.4282217 -0.35959315 0
0.97312403 -0.4429388 -0.35173595 0
0.60913634 -0.38533497 -0.36122417 0
0.7264297 -0.38700008 -0.35379028 0
0.85773921 -0.37071228 -0.35691679 0
0.86583829 -0.31685448 -0.35639381 0
0.99504375 -0.32264042 -0.35379469 0
0.62858224 -0.28695679 -0.36292636 0
0.7591939 -0.23713493 -0.36333251 0
0.88110018 -0.227952 -0.35884535 0
0.54026628 -0.17785358 -0.35940313 0
0.64633107 -0.15559673 -0.3615092 0
0.75904846 -0.1738224 -0.35630906 0
0.77272654 -0.097366333 -0.36083102 0
0.89287257 -0.12580299 -0.35837924 0
0.77958512 -0.044656754 -0.36238694 0
0.89289379 -0.052399635 -0.35306656 0
0.91309547 0.066520691 -0.36116004 0
0.79022384 0.14595127 -0.3620069 0
0.91495633 0.1378088 -0.35999751 0
0.79609442 0.21605587 -0.36450005 0
0.92611432 0.26774788 -0.36445212 0
0.77881575 0.32086563 -0.35514128 0
0.91925001 0.35124874 -0.36048448 0
0.91818595 0.46360779 -0.36139727 0
-0.55118608 -0.43385887 -0.36684072 0
-0.45070815 -0.42873955 -0.36560166 0
-0.36867213 -0.45806313 -0.36696827 0
-0.26127028 -0.45628262 -0.36411607 0
-0.14632583 -0.43079376 -0.36714971 0
-0.067000389 -0.44176006 -0.36842275 0
0.0063607693 -0.45391273 -0.36688197 0
0.11084604 -0.42466068 -0.36895692 0
0.20202899 -0.46320248 -0.3658601 0
0.29419947 -0.49424648 -0.36633885 0
-0.53621006 -0.35312748 -0.36161196 0
-0.45953012 -0.34828472 -0.36377144 0
-0.36742806 -0.33803654 -0.36256623 0
-0.28548026 -0.36224174 -0.36582661 0
-0.15950847 -0.33750057 -0.3665148 0
-0.053848982 -0.35945034 -0.36531305 0
0.027926445 -0.34517193 -0.36823022 0
0.1232245 -0.33430099 -0.36541855 0
0.21451855 -0.37065125 -0.36153066 0
-0.5188067 -0.26507759 -0.36326039 0
-0.47054768 -0.23562527 -0.36139691 0
-0.36681318 -0.23355484 -0.36332321 0
-0.27329087 -0.26163006 -0.36115432 0
-0.16527462 -0.25270748 -0.36311328 0
-0.055507183 -0.23705959 -0.36510897 0
0.040594101 -0.23800659 -0.36530209 0
0.13703036 -0.2335577 -0.36517334 0
0.23441792 -0.27733612 -0.36745465 0
0.33872533 -0.27077675 -0.3675462 0
-0.46898293 -0.13260078 -0.36527133 0
-0.35475922 -0.14407635 -0.36469781 0
-0.26799774 -0.13160896 -0.36576426 0
-0.16099501 -0.15065002 -0.36152399 0
-0.064376593 -0.13946056 -0.36527956 0
0.053321123 -0.13256454 -0.36630547 0
0.13387871 -0.17842293 -0.35813725 0
0.2489996 -0.14916801 -0.36728525 0
0.34970617 -0.17882729 -0.36722267 0
-0.46462584 -0.059587479 -0.36417651 0
-0.34730244 -0.03182888 -0.36401677 0
-0.26173878 -0.036265373 -0.36531818 0
-0.16892338 -0.055221558 -0.36826527 0
-0.041667223 -0.052191734 -0.36290431 0
0.057242393 -0.05266571 -0.36491203 0
0.15086913 -0.067939758 -0.36413348 0
0.25219584 -0.068770409 -0.36503887 0
0.36161923 -0.043310165 -0.36781681 0
-0.46582294 0.045754433 -0.3658179 0
-0.35754728 0.055805206 -0.36211371 0
-0.25839543 0.070321083 -0.36538947 0
-0.17045116 0.040024757 -0.36471736 0
-0.060261726 0.064007759 -0.36475027 0
0.059665203 0.042342186 -0.364061 0
0.15214419 0.011221886 -0.36253393 0
0.25757599 0.043716431 -0.36520422 0
0.35919571 0.038655281 -0.36388469 0
0.47252369 0.030076981 -0.3708061 0
-0.45601082 0.16143131 -0.36538148 0
-0.34334564 0.16048145 -0.36237931 0
-0.27778435 0.12221241 -0.36338043 0
-0.16815662 0.1609745 -0.36605597 0
-0.054460049 0.17563248 -0.36508226 0
0.057254553 0.16236687 -0.36264682 0
0.1546762 0.12251759 -0.36311722 0
0.26030469 0.16086864 -0.36598063 0
0.36632848 0.1457901 -0.36701763 0
0.46958351 0.16054249 -0.36730778 0
-0.51032782 0.27531338 -0.36037731 0
-0.45907378 0.26834965 -0.36626554 0
-0.34901452 0.24330711 -0.36194575 0
-0.25003076 0.24034977 -0.364236 0
-0.1751585 0.24415016 -0.36431623 0
-0.057472229 0.25489426 -0.36521077 0
0.058146954 0.25532913 -0.36468232 0
0.15155983 0.24942398 -0.36309624 0
0.26140666 0.28565311 -0.36815035 0
0.36212325 0.25662994 -0.36572683 0
0.47249269 0.24781036 -0.36935091 0
-0.51654196 0.33998966 -0.36118269 0
-0.44670725 0.3717947 -0.36593366 0
-0.34591198 0.36205196 -0.36829627 0
-0.26500845 0.35228825 -0.36200333 0
-0.13936901 0.35597038 -0.36716139 0
-0.040211678 0.35833645 -0.36739016 0
0.050672054 0.35925293 -0.36467481 0
0.14281416 0.32715225 -0.36107814 0
0.25202179 0.36205387 -0.36587393 0
0.35643721 0.37351799 -0.36592281 0
0.46764922 0.31155014 -0.36785257 0
-0.53247356 0.41389465 -0.35962951 0
-0.44595242 0.46603966 -0.36248362 0
-0.35236359 0.4582634 -0.36841595 0
-0.27535176 0.45179081 -0.3632226 0
-0.15281081 0.44474697 -0.36586928 0
-0.043008089 0.44006348 -0.36135864 0
0.0350492 0.47246265 -0.36312687 0
0.14575219 0.4429388 -0.36704206 0
0.23630357 0.45962048 -0.36275208 0
0.4585371 0.4230051 -0.36664414 0
0.59783483 0.43880177 -0.37218249 0
0.20486784 -0.42367363 -0.36062491 0
0.30064416 -0.45170689 -0.36222768 0
0.39497328 -0.4550848 -0.36036086 0
0.51177073 -0.45414829 -0.35767269 0
0.64083314 -0.45059299 -0.36083066 0
0.76161289 -0.47159958 -0.34930396 0
0.89197421 -0.43874264 -0.35181487 0
0.3211627 -0.35531044 -0.36428666 0
0.41704082 -0.3513813 -0.36290312 0
0.52567315 -0.38346291 -0.35810614 0
0.65504169 -0.36471844 -0.35831416 0
0.78245211 -0.35199833 -0.35153532 0
0.80058599 -0.30214214 -0.36151028 0
0.9094522 -0.34610844 -0.3546375 0
0.2282908 -0.252882 -0.35953438 0
0.33264279 -0.25950527 -0.36059594 0
0.44037199 -0.22451115 -0.36593235 0
0.54732847 -0.2584095 -0.35934615 0
0.67805529 -0.23413372 -0.36012161 0
0.78639913 -0.27317524 -0.34534681 0
0.91406775 -0.2660284 -0.3485465 0
0.34709597 -0.13594246 -0.36237788 0
0.43600249 -0.17545319 -0.35643995 0
0.55988526 -0.15125942 -0.35793889 0
0.68259597 -0.17512226 -0.35697865 0
0.80936861 -0.15672493 -0.35351646 0
0.9339869 -0.13491535 -0.35262907 0
0.3532207 -0.019721985 -0.3615334 0
0.4595015 -0.063649178 -0.36595666 0
0.57385182 -0.040074348 -0.36016536 0
0.70667124 -0.055924416 -0.36605847 0
0.81491089 -0.08224678 -0.35239601 0
0.95058274 -0.031809807 -0.35780311 0
0.35156655 0.059947014 -0.35906816 0
0.46641946 0.056097984 -0.36641562 0
0.58022738 0.054800987 -0.3598913 0
0.70143819 0.015439987 -0.35864604 0
0.83370566 0.055009842 -0.35878766 0
0.95210099 0.062874794 -0.35413241 0
0.24196792 0.17954731 -0.35644066 0
0.35350943 0.15831184 -0.36005592 0
0.46952558 0.11740685 -0.36744726 0
0.58695912 0.15983391 -0.36176741 0
0.71007943 0.14859962 -0.36043191 0
0.84630489 0.18009567 -0.362957 0
0.58419824 0.28421783 -0.36148 0
0.60206676 0.28144646 -0.37060583 0
0.71914434 0.26743317 -0.36443698 0
0.84931779 0.27014351 -0.36345601 0
0.96525574 0.25014591 -0.35755634 0
0.45457983 0.32609367 -0.36176932 0
0.58881736 0.36167717 -0.365587 0
0.71808314 0.34570312 -0.36423445 0
0.83414769 0.30459499 -0.35472727 0
0.95707631 0.3575964 -0.35229671 0
0.33420873 0.42719173 -0.35782695 0
0.57040572 0.43520832 -0.3595258 0
0.71136141 0.45629406 -0.36399043 0
0.84732127 0.4254427 -0.3627429 0
0.97263122 0.49232578 -0.36180246 0
-0.73619771 -0.43888378 -0.36907661 0
-0.64950466 -0.44020081 -0.36972213 0
-0.51651406 -0.46166325 -0.37073672 0
-0.4256978 -0.46927547 -0.36880112 0
-0.34545612 -0.45298767 -0.37187803 0
-0.24558425 -0.46197414 -0.37055039 0
-0.10425067 -0.46983242 -0.37002349 0
-0.0042982101 -0.47294903 -0.37384903 0
-0.71351814 -0.34145927 -0.37048447 0
-0.62773323 -0.35643196 -0.36866081 0
-0.52013946 -0.35941601 -0.37077725 0
-0.42770338 -0.356637 -0.36848962 0
-0.33746624 -0.38983059 -0.36618769 0
-0.22504783 -0.36112881 -0.37184489 0
-0.17559314 -0.34943962 -0.3699373 0
-0.08028388 -0.36338806 -0.37474155 0
-0.70247245 -0.26242924 -0.36744094 0
-0.61199045 -0.27043724 -0.36950934 0
-0.53223753 -0.24377441 -0.36993301 0
-0.44106507 -0.25725174 -0.36927402 0
-0.32335758 -0.24160671 -0.37180483 0
-0.23152471 -0.24219799 -0.37183928 0
-0.16763568 -0.26625347 -0.36624908 0
-0.068292141 -0.24245071 -0.36947024 0
-0.68885446 -0.15315628 -0.36742103 0
-0.62525654 -0.14791584 -0.37019289 0
-0.52547097 -0.14240074 -0.36986148 0
-0.4167676 -0.17531395 -0.36645579 0
-0.32009435 -0.13282967 -0.37216902 0
-0.22882843 -0.16670895 -0.36711538 0
-0.14864516 -0.14212418 -0.37049007 0
-0.05624795 -0.14944649 -0.37108314 0
0.044085026 -0.16257572 -0.37505579 0
-0.64497137 -0.043229103 -0.37118709 0
-0.53239799 -0.050537109 -0.37126172 0
-0.44387126 -0.068580627 -0.36680186 0
-0.33268309 -0.055656433 -0.36806631 0
-0.21882629 -0.062495232 -0.36861384 0
-0.13952518 -0.054261208 -0.37216675 0
-0.054788351 -0.080889702 -0.36829793 0
0.057401896 -0.022595406 -0.37642825 0
-0.6838131 0.035470009 -0.36446416 0
-0.63269401 0.046739578 -0.37085927 0
-0.53444791 0.02277565 -0.36813569 0
-0.43911791 0.05566597 -0.36714745 0
-0.32533145 0.048148155 -0.37013042 0
-0.21808505 0.050661087 -0.36651838 0
-0.14324331 0.0058021545 -0.36796308 0
-0.040584564 0.051935196 -0.37338138 0
0.052198172 0.081860542 -0.37069297 0
-0.68239355 0.1381464 -0.36626565 0
-0.63993645 0.12556362 -0.36724806 0
-0.53513241 0.14284229 -0.36904716 0
-0.44124198 0.14392662 -0.36649799 0
-0.32326007 0.14941025 -0.37128735 0
-0.21777081 0.1478548 -0.36678767 0
-0.1437993 0.12223148 -0.3667655 0
-0.046043396 0.16117382 -0.36966777 0
-0.69363236 0.27594185 -0.36624396 0
-0.6373632 0.24046707 -0.3716687 0
-0.5275681 0.24172592 -0.36843324 0
-0.43615031 0.25540257 -0.37158453 0
-0.32284355 0.24940109 -0.36968839 0
-0.21712828 0.23681259 -0.36863184 0
-0.14415431 0.23010635 -0.36806202 0
-0.047436476 0.24753284 -0.37022519 0
0.054027557 0.26868057 -0.37267005 0
-0.70830965 0.35193634 -0.36419868 0
-0.61696196 0.3587389 -0.36692393 0
-0.52228928 0.34929657 -0.36980307 0
-0.4283154 0.35134792 -0.36803043 0
-0.34503794 0.33370018 -0.36926603 0
-0.2229867 0.31733608 -0.36831939 0
-0.13919783 0.36975956 -0.37439954 0
-0.051702023 0.36280441 -0.37134361 0
0.042353392 0.33564472 -0.36879396 0
0.15670919 0.38292503 -0.37641096 0
-0.71804905 0.44317245 -0.36621046 0
-0.63112044 0.44813728 -0.36689711 0
-0.50917482 0.47050667 -0.36876273 0
-0.42512393 0.45119667 -0.36961031 0
-0.31331062 0.44386387 -0.36896336 0
-0.23652196 0.43043804 -0.36750412 0
-0.14990115 0.44005966 -0.37263465 0
-0.062516212 0.43974686 -0.36964571 0
0.03429842 0.45401001 -0.36954081 0
-0.10787892 -0.4596262 -0.36335182 0
-0.0081248283 -0.45208454 -0.36477089 0
0.095262766 -0.4571228 -0.36915731 0
0.19462848 -0.45740223 -0.36964536 0
0.30226254 -0.47614574 -0.36401844 0
0.43132782 -0.44880962 -0.36732733 0
0.55171466 -0.47272301 -0.36297596 0
0.67670774 -0.47044754 -0.36388803 0
0.82918859 -0.45053196 -0.35814476 0
0.97472024 -0.46757221 -0.3477602 0
-0.084837437 -0.33938885 -0.36645079 0
0.011982203 -0.35027027 -0.36809385 0
0.10752964 -0.37334919 -0.36720693 0
0.2121172 -0.3455534 -0.36914265 0
0.32656336 -0.37645626 -0.37025118 0
0.43979931 -0.37538719 -0.36137414 0
0.570755 -0.37114906 -0.36303055 0
0.69319773 -0.37425232 -0.3619138 0
0.84053254 -0.35186386 -0.35429728 0
0.019831419 -0.28757763 -0.3670938 0
0.07171011 -0.27229404 -0.36729658 0
0.12676764 -0.23252583 -0.36771321 0
0.22299361 -0.25374794 -0.36801136 0
0.3445642 -0.2761631 -0.37139094 0
0.46490335 -0.26646137 -0.36892152 0
0.58237982 -0.28624725 -0.36080897 0
0.71167088 -0.26461983 -0.36262822 0
0.8544271 -0.25966454 -0.35563958 0
0.034042597 -0.16197014 -0.36742294 0
0.14070916 -0.14493275 -0.37159109 0
0.22808576 -0.18901157 -0.36669075 0
0.35770273 -0.17636871 -0.37202406 0
0.48113799 -0.1585083 -0.37030244 0
0.60304689 -0.16538906 -0.36456096 0
0.72242332 -0.17848396 -0.36259437 0
0.86295962 -0.19837284 -0.3566196 0
0.042210817 -0.065327644 -0.36824477 0
0.14362264 -0.045631409 -0.36882401 0
0.24160409 -0.059810638 -0.36919737 0
0.37246156 -0.05996418 -0.37558699 0
0.49293995 -0.059841156 -0.37075305 0
0.62103391 -0.027788162 -0.36699259 0
0.6268971 -0.046928406 -0.37293077 0
0.7362206 -0.063344002 -0.36468196 0
0.88086796 -0.065719604 -0.36021364 0
-0.15494704 0.026521683 -0.36069763 0
0.040898323 0.0061769485 -0.36510086 0
0.1493144 0.076903343 -0.36923373 0
0.24682426 0.040328026 -0.3693676 0
0.3700819 0.042585373 -0.37050843 0
0.49781036 0.033078194 -0.36963594 0
0.62989616 0.060902596 -0.36823308 0
0.73809862 0.029755592 -0.36090696 0
0.88787818 0.042328835 -0.35895061 0
-0.054863453 0.09237957 -0.36467159 0
0.049256325 0.1386013 -0.36882627 0
0.14492512 0.15053177 -0.36661494 0
0.24280334 0.11848354 -0.36623538 0
0.3699522 0.15805721 -0.36901689 0
0.48828626 0.10246372 -0.3625952 0
0.63842893 0.15151405 -0.37057161 0
0.74269748 0.10934258 -0.36115289 0
0.89511156 0.13007832 -0.36034369 0
0.047406435 0.20041561 -0.36824727 0
0.14399672 0.24778938 -0.36706209 0
0.24303222 0.21358204 -0.36660016 0
0.3652575 0.24977493 -0.36701214 0
0.50534701 0.22781849 -0.37198615 0
0.63741183 0.22724724 -0.36899948 0
0.74413157 0.19105911 -0.36016297 0
0.89529824 0.23934174 -0.3578043 0
0.14992571 0.31234932 -0.37130547 0
0.24655366 0.32912827 -0.37049103 0
0.35697007 0.30248737 -0.36368942 0
0.49791431 0.35147285 -0.36970496 0
0.62385583 0.3235445 -0.36315668 0
0.63996911 0.31435013 -0.37111759 0
0.76201248 0.31739521 -0.36933088 0
0.90867233 0.3521204 -0.36439717 0
0.16587257 0.44185352 -0.36750472 0
0.23583007 0.44598198 -0.36903274 0
0.36806512 0.4270668 -0.37231421 0
0.63166428 0.4214716 -0.36933839 0
0.75549388 0.41476536 -0.36619711 0
0.89511037 0.40365028 -0.35683644 0
-0.91499996 -0.44915104 -0.36164486 0
-0.82731867 -0.42778969 -0.3623811 0
-0.70378304 -0.4549036 -0.36217022 0
-0.60643506 -0.45151329 -0.36134732 0
-0.53115702 -0.4467411 -0.36194885 0
-0.44173789 -0.46351814 -0.36363459 0
-0.27823925 -0.41054916 -0.36492133 0
-0.17944145 -0.41581535 -0.36924934 0
-0.90014839 -0.34576511 -0.36311328 0
-0.80435824 -0.3373642 -0.3648746 0
-0.71572733 -0.34742069 -0.36405683 0
-0.61483431 -0.34954453 -0.36368036 0
-0.50722766 -0.33980179 -0.3653425 0
-0.44019198 -0.36308861 -0.35919154 0
-0.36326647 -0.37396526 -0.36528218 0
-0.26402044 -0.34343529 -0.36714327 0
-0.87816072 -0.23710918 -0.36410391 0
-0.81668115 -0.23816872 -0.36445761 0
-0.73295546 -0.24014091 -0.36235511 0
-0.62826633 -0.24954796 -0.36040187 0
-0.51697087 -0.21443272 -0.36512208 0
-0.42291379 -0.26020527 -0.36043823 0
-0.34885001 -0.26874638 -0.36244333 0
-0.25952959 -0.29603481 -0.36387634 0
-0.15621233 -0.27203465 -0.36782563 0
-0.87179327 -0.1388979 -0.35867941 0
-0.8065629 -0.1248312 -0.36101627 0
-0.70637631 -0.13701057 -0.36236835 0
-0.62792683 -0.13217926 -0.36082935 0
-0.50540614 -0.14328098 -0.36361122 0
-0.40621209 -0.14959812 -0.3630991 0
-0.33004856 -0.15066719 -0.36591756 0
-0.23948097 -0.15802479 -0.3658253 0
-0.14029837 -0.1564846 -0.36854398 0
-0.83614159 -0.024425507 -0.36114287 0
-0.7121799 -0.048916817 -0.36330855 0
-0.61907864 -0.039340973 -0.36206055 0
-0.51498079 -0.049427986 -0.36357987 0
-0.39370394 -0.037462234 -0.36528897 0
-0.33179212 -0.076613426 -0.35972333 0
-0.22414756 -0.018565178 -0.3680712 0
-0.024248838 -0.015036583 -0.37194669 0
-0.82104325 0.065341949 -0.36179781 0
-0.7054863 0.069238663 -0.362131 0
-0.62954211 0.057728767 -0.36527002 0
-0.51761746 0.06129837 -0.3629458 0
-0.41781306 0.043682098 -0.36342418 0
-0.31524277 0.055279732 -0.36584282 0
-0.22650552 0.063012123 -0.36387694 0
-0.13057971 0.046409607 -0.36447656 0
-0.87195873 0.18384552 -0.35589778 0
-0.83183575 0.15406895 -0.36308205 0
-0.70916557 0.15913391 -0.36324942 0
-0.61561608 0.13891792 -0.36161029 0
-0.51726604 0.16712093 -0.36300945 0
-0.41562176 0.12713051 -0.36374855 0
-0.31747627 0.14516068 -0.36350191 0
-0.22866416 0.16170025 -0.36182678 0
-0.12670803 0.13836098 -0.36534417 0
-0.83066702 0.25341892 -0.35754192 0
-0.72350407 0.25875092 -0.35983849 0
-0.6207931 0.24710464 -0.36124027 0
-0.49129105 0.25889874 -0.36215949 0
-0.39170647 0.23344135 -0.3636961 0
-0.32175612 0.25674057 -0.36247408 0
-0.21737099 0.28526783 -0.36872327 0
-0.12536359 0.25288486 -0.36613393 0
-0.88847494 0.32483673 -0.35435593 0
-0.79221582 0.36733055 -0.35860622 0
-0.70142937 0.36208153 -0.36420321 0
-0.62939692 0.3420763 -0.36101973 0
-0.51938725 0.35296345 -0.36413717 0
-0.39077926 0.3753109 -0.36773503 0
-0.32692266 0.35569763 -0.36256051 0
-0.22988033 0.34203053 -0.36393082 0
-0.1316421 0.30807686 -0.36375916 0
-0.90272069 0.45364761 -0.35612583 0
-0.81363225 0.45426655 -0.35696006 0
-0.7253859 0.43364334 -0.35826778 0
-0.61220598 0.45145702 -0.36146271 0
-0.50961566 0.43722725 -0.36355495 0
-0.41146111 0.44486237 -0.36153257 0
-0.33826232 0.46895885 -0.36202693 0
-0.24134874 0.44364357 -0.36212552 0
-0.13883352 0.44257164 -0.36419284 0
-0.39544201 -0.49106979 -0.35423517 0
-0.294873 -0.47787952 -0.36109507 0
-0.20226765 -0.49954128 -0.3619864 0
-0.091549873 -0.45591164 -0.36527896 0
-0.0025811195 -0.47267056 -0.35854447 0
0.12859869 -0.44666672 -0.36507142 0
0.25365019 -0.45833588 -0.36643481 0
0.37703061 -0.46134567 -0.36216009 0
0.49858713 -0.46199036 -0.36114454 0
0.65441632 -0.44020081 -0.35601711 0
0.80840302 -0.4609623 -0.34902561 0
0.98697543 -0.42763519 -0.35401142 0
-0.36955523 -0.36081314 -0.35610497 0
-0.17657042 -0.3738842 -0.36381721 0
-0.074311256 -0.35284519 -0.3636694 0
0.022775412 -0.3556509 -0.36387181 0
0.14458418 -0.34818172 -0.36448181 0
0.27305031 -0.35613441 -0.36647296 0
0.40216041 -0.34528255 -0.36486554 0
0.51241183 -0.37726498 -0.35745442 0
0.65895915 -0.39047432 -0.34992254 0
0.82801604 -0.35748005 -0.35172355 0
0.98908639 -0.37258625 -0.34665561 0
-0.26985884 -0.29900932 -0.35486019 0
-0.1574502 -0.23292923 -0.36192501 0
-0.056624651 -0.24958229 -0.36584496 0
0.038788319 -0.25426102 -0.36490512 0
0.15474749 -0.25869942 -0.36198914 0
0.28258729 -0.25188541 -0.36143994 0
0.41583705 -0.25418472 -0.36274457 0
0.53225589 -0.28517914 -0.36128926 0
0.5373323 -0.23725224 -0.35864592 0
0.68515038 -0.27745914 -0.35703504 0
0.85010576 -0.24314022 -0.35656202 0
-0.14817142 -0.13114834 -0.36062455 0
-0.044183493 -0.13776875 -0.36537874 0
0.053456783 -0.13245487 -0.36555207 0
0.17236757 -0.16093159 -0.36702728 0
0.29411793 -0.14880943 -0.36149216 0
0.44200087 -0.1357317 -0.37076283 0
0.55600548 -0.14966011 -0.36413312 0
0.70942974 -0.14345264 -0.36079443 0
0.86179209 -0.15462112 -0.35658252 0
-0.13847923 -0.034653664 -0.36220872 0
-0.042770624 -0.027006149 -0.35998774 0
0.047037363 -0.077734947 -0.35737336 0
0.17754793 -0.073369026 -0.3646847 0
0.30747247 -0.054924965 -0.3651861 0
0.44368124 -0.079372406 -0.36658061 0
0.56174874 -0.067311287 -0.36015284 0
0.71265244 -0.052859306 -0.35522091 0
0.87340331 -0.038412094 -0.35527956 0
-0.039990664 0.038814545 -0.35976243 0
0.057024717 0.030426025 -0.35995579 0
0.1760006 0.023464203 -0.35951877 0
0.30826426 0.013262749 -0.36260188 0
0.45213318 0.025370598 -0.36690676 0
0.57934737 0.05557251 -0.36374557 0
0.72994781 0.083135605 -0.35943425 0
0.87640071 0.04108429 -0.35189426 0
-0.031286001 0.14454937 -0.36325634 0
0.069373131 0.17463779 -0.36486578 0
0.18242359 0.13514614 -0.36091673 0
0.31597328 0.12757492 -0.36426032 0
0.45470881 0.13410759 -0.36515486 0
0.58464384 0.13868618 -0.36324883 0
0.73035336 0.15432358 -0.35651159 0
0.88788128 0.14283276 -0.35461938 0
-0.031619549 0.24061584 -0.36312675 0
0.062476873 0.25117683 -0.36119413 0
0.19372439 0.23537731 -0.36675167 0
0.31691456 0.22818756 -0.36371493 0
0.45755291 0.24313545 -0.36537683 0
0.59059525 0.26380444 -0.36502445 0
0.74273968 0.23926544 -0.36175048 0
0.89074016 0.22430038 -0.35315919 0
-0.14685893 0.33724785 -0.3571347 0
-0.033952713 0.34120846 -0.36343837 0
0.069020033 0.37333584 -0.36634839 0
0.18677688 0.32249641 -0.3635956 0
0.31712246 0.36524582 -0.36472511 0
0.45233679 0.33811474 -0.36268902 0
0.60511184 0.38591099 -0.37297475 0
0.75036907 0.33751583 -0.36425757 0
0.90064669 0.33111572 -0.35651636 0
-0.042340279 0.42158318 -0.3616339 0
0.055464983 0.44734859 -0.36186457 0
0.17963719 0.44372082 -0.36265659 0
0.318681 0.48526478 -0.36781132 0
0.44660425 0.44208813 -0.36128366 0
0.58362389 0.42089844 -0.36233163 0
0.73276496 0.44365692 -0.35508573 0
0.7536509 0.43759823 -0.36564004 0
0.90568542 0.43165302 -0.3578943 0
-0.999547 -0.44156265 -0.361287 0
-0.88556576 -0.44247532 -0.36119199 0
-0.78742123 -0.45582581 -0.36134326 0
-0.68289661 -0.44566345 -0.36614871 0
-0.58401585 -0.45301628 -0.36378515 0
-0.46993446 -0.43391418 -0.36268592 0
-0.34076333 -0.43540096 -0.36568534 0
-0.97002959 -0.3406601 -0.3601644 0
-0.88771582 -0.32558537 -0.35959601 0
-0.77554703 -0.35365772 -0.3634485 0
-0.66624188 -0.34299946 -0.36045122 0
-0.58601308 -0.35121441 -0.36572933 0
-0.50950241 -0.32369614 -0.36375964 0
-0.4177866 -0.34387875 -0.36716771 0
-0.31122589 -0.31092262 -0.37227345 0
-0.98124266 -0.23193741 -0.36060405 0
-0.8776679 -0.24450874 -0.36024368 0
-0.79106641 -0.24926567 -0.36514604 0
-0.68743777 -0.22615337 -0.36225235 0
-0.5624907 -0.23507881 -0.3692131 0
-0.49315023 -0.22089005 -0.36397159 0
-0.40182972 -0.24233437 -0.36647248 0
-0.31286407 -0.2961874 -0.36793518 0
-0.21176815 -0.2941103 -0.37000167 0
-0.98386693 -0.13554287 -0.36079288 0
-0.8754518 -0.16092682 -0.36148512 0
-0.77695203 -0.14977646 -0.36499691 0
-0.70556688 -0.13232517 -0.36323667 0
-0.57629704 -0.14974213 -0.36399233 0
-0.48644376 -0.13229275 -0.36083269 0
-0.38953876 -0.13785553 -0.36527717 0
-0.29843664 -0.15745068 -0.36354601 0
-0.18992519 -0.12103748 -0.36819601 0
-0.99547219 -0.054236412 -0.35821784 0
-0.88730621 -0.059749603 -0.36022413 0
-0.77938604 -0.03948307 -0.36480689 0
-0.69365573 -0.02768898 -0.36515105 0
-0.5805583 -0.044489861 -0.3672787 0
-0.48267198 -0.057386398 -0.35866392 0
-0.37554049 -0.040593147 -0.36865771 0
-0.98100352 0.048902512 -0.35789919 0
-0.90084338 0.051497459 -0.35676754 0
-0.80238318 0.064210892 -0.36239707 0
-0.69409156 0.070401192 -0.36199963 0
-0.58302188 0.030109406 -0.3625524 0
-0.4643271 0.058268547 -0.36630118 0
-0.37949729 0.039113045 -0.36247993 0
-0.28290415 0.019824982 -0.36367869 0
-0.17611241 0.059038162 -0.36744368 0
-0.99844122 0.15750599 -0.35737109 0
-0.8895092 0.17462444 -0.36317146 0
-0.8051002 0.17149448 -0.36420679 0
-0.69547367 0.1860342 -0.36179769 0
-0.58051634 0.14792442 -0.36226571 0
-0.46107125 0.16450596 -0.36639225 0
-0.37217689 0.15324116 -0.364627 0
-0.27921724 0.17013836 -0.36273491 0
-0.17748308 0.17484379 -0.36402822 0
-0.97820258 0.25605202 -0.35756433 0
-0.89492369 0.26099396 -0.35441768 0
-0.79493427 0.23328114 -0.36222899 0
-0.70362306 0.2766428 -0.35995305 0
-0.57901502 0.25475597 -0.36400187 0
-0.46731448 0.2300539 -0.36312592 0
-0.37068462 0.24653912 -0.36537361 0
-0.28174114 0.2536478 -0.36134064 0
-0.17123485 0.29032707 -0.36733353 0
-0.071299553 0.26467705 -0.3682642 0
-0.98422432 0.35450745 -0.35363376 0
-0.87665153 0.35914516 -0.35592759 0
-0.78104615 0.36160088 -0.36161304 0
-0.6852119 0.36764812 -0.36022341 0
-0.5748632 0.35518456 -0.36500406 0
-0.47141147 0.33356762 -0.36292541 0
-0.37418962 0.35716629 -0.36538994 0
-0.27638149 0.36723137 -0.36589289 0
-0.17632699 0.37288475 -0.3658998 0
-0.98794746 0.46764088 -0.35237288 0
-0.88492537 0.46566868 -0.35358179 0
-0.7970674 0.47248745 -0.36029768 0
-0.67587805 0.44887257 -0.35943496 0
-0.5600543 0.45941257 -0.36204755 0
-0.47478533 0.45142841 -0.36527061 0
-0.36497283 0.48552704 -0.37338352 0
-0.29328823 0.44926548 -0.36023319 0
-0.18695498 0.45576668 -0.36275482 0
-0.078201771 0.45353889 -0.36721933 0
-0.34022975 -0.41435051 -0.36121094 0
-0.24990201 -0.46590519 -0.36325657 0
-0.14692855 -0.4561348 -0.36744142 0
-0.032291174 -0.44894886 -0.35854757 0
0.099567175 -0.44926071 -0.36309075 0
0.23428869 -0.46198559 -0.36490381 0
0.35175681 -0.46258736 -0.35787106 0
0.67440748 -0.45750809 -0.35868502 0
0.83530354 -0.48348713 -0.34702182 0
0.9992013 -0.46167183 -0.34146655 0
-0.23273396 -0.37626457 -0.36278415 0
-0.1255796 -0.34027195 -0.36669743 0
-0.010964394 -0.35253048 -0.36312294 0
0.11685109 -0.34803867 -0.3625201 0
0.25204682 -0.34827137 -0.3614583 0
0.37805533 -0.34357262 -0.36085534 0
0.53208208 -0.35003853 -0.3605293 0
0.68894267 -0.38023186 -0.35612977 0
0.85537481 -0.38224888 -0.34922004 0
-0.312819 -0.25413609 -0.3618747 0
-0.21610665 -0.255023 -0.36040807 0
-0.11187267 -0.25057411 -0.36624384 0
0.0026428699 -0.25646687 -0.36225045 0
0.13088131 -0.24774742 -0.36169589 0
0.39162374 -0.25515079 -0.35813534 0
0.54931831 -0.2330513 -0.35594368 0
0.70669055 -0.28852367 -0.35636759 0
0.87752056 -0.25075245 -0.35011578 0
-0.29657936 -0.1041708 -0.36065423 0
-0.20353341 -0.12637043 -0.3581717 0
-0.10053349 -0.1421442 -0.364205 0
0.019373655 -0.15033245 -0.36487675 0
0.13956332 -0.15695381 -0.35966122 0
0.28104544 -0.16572189 -0.36478162 0
0.41918969 -0.12706661 -0.36631441 0
0.56660223 -0.13644409 -0.35807717 0
0.73352003 -0.14822197 -0.36047709 0
0.89818573 -0.13689995 -0.35412741 0
-0.29426098 -0.066456795 -0.3599695 0
-0.18871474 -0.033754349 -0.36314726 0
-0.094992638 -0.059735298 -0.36215603 0
0.031479597 -0.059246063 -0.36703479 0
0.1603241 -0.024508476 -0.36567748 0
0.29587007 -0.029999733 -0.3653959 0
0.41349077 -0.083807945 -0.35803008 0
0.58496499 -0.034534454 -0.36206281 0
0.73191786 -0.094214439 -0.35297239 0
0.91534162 -0.043652534 -0.35860348 0
-0.28740072 0.06204319 -0.35944235 0
-0.18978524 0.056184769 -0.35878348 0
-0.080732107 0.041040421 -0.36698043 0
0.040014505 0.041625977 -0.36741233 0
0.16146207 0.066299438 -0.36211395 0
0.3052237 0.060471535 -0.36697638 0
0.43195724 0.030125618 -0.3645438 0
0.58275938 0.016644478 -0.35495162 0
0.75591731 0.055152893 -0.35947561 0
0.91779137 0.027284622 -0.35387802 0
-0.18501782 0.11486626 -0.3603996 0
-0.082347631 0.14249611 -0.36309469 0
0.03398633 0.11225605 -0.36112916 0
0.16561937 0.16542625 -0.36198151 0
0.30442166 0.12678528 -0.36395192 0
0.43801188 0.14317226 -0.36391056 0
0.60124302 0.11246586 -0.36168385 0
0.76651406 0.18374538 -0.35892916 0
0.92898774 0.14867878 -0.3532902 0
-0.18066788 0.21515369 -0.36199963 0
-0.084812641 0.27414322 -0.36093152 0
0.048098803 0.24366856 -0.36750352 0
0.16794324 0.24700546 -0.36226737 0
0.30965495 0.23977852 -0.36471379 0
0.43380022 0.2052803 -0.35968196 0
0.60945153 0.20365715 -0.36300993 0
0.76721668 0.25539112 -0.35615456 0
0.93411207 0.23303986 -0.35201657 0
-0.075547934 0.35449314 -0.36654758 0
0.041294813 0.32338428 -0.36375916 0
0.17624855 0.34954453 -0.36683285 0
0.31233692 0.35519218 -0.36560583 0
0.44769549 0.35448647 -0.36637878 0
0.61273479 0.32465935 -0.3634007 0
0.77509189 0.35887527 -0.35782063 0
0.95675802 0.35415363 -0.36199605 0
0.032696486 0.44025707 -0.36121368 0
0.16617823 0.40682507 -0.36204457 0
0.17179203 0.48350525 -0.3662529 0
0.30401182 0.45172977 -0.36204433 0
0.44675779 0.47691441 -0.36626279 0
0.62391329 0.44987392 -0.36979342 0
0.7772963 0.45107937 -0.35784173 0
0.95522141 0.43283272 -0.35832286 0
-0.94775748 -0.42969704 -0.36409152 0
-0.82998109 -0.42842388 -0.36791849 0
-0.75512385 -0.44119072 -0.36639035 0
-0.67845941 -0.4349966 -0.36878872 0
-0.58401942 -0.42004871 -0.36756146 0
-0.49461913 -0.45781136 -0.3687681 0
-0.96631932 -0.33431339 -0.36042082 0
-0.83942199 -0.3331871 -0.36839807 0
-0.73277545 -0.33543491 -0.36798954 0
-0.65365171 -0.31831264 -0.3711592 0
-0.56476593 -0.31461143 -0.36751676 0
-0.47457981 -0.3487587 -0.3678273 0
-0.3776474 -0.38752747 -0.37369251 0
-0.95243073 -0.25712204 -0.3617214 0
-0.85415912 -0.2407589 -0.36725342 0
-0.73528957 -0.23257732 -0.3680917 0
-0.64564776 -0.23790836 -0.36683249 0
-0.55333996 -0.23594284 -0.36709642 0
-0.44931388 -0.21953964 -0.37284005 0
-0.35927439 -0.26572323 -0.37135434 0
-0.93524146 -0.13596535 -0.36370754 0
-0.85148191 -0.11644936 -0.36804032 0
-0.75583243 -0.12932968 -0.37185633 0
-0.64556885 -0.13556385 -0.37138414 0
-0.54096961 -0.14314365 -0.36787438 0
-0.44767165 -0.15426731 -0.36740017 0
-0.34007335 -0.12072277 -0.37190616 0
-0.96172118 -0.039672852 -0.36626446 0
-0.84570098 -0.040763855 -0.36830437 0
-0.73328447 -0.062591553 -0.36415315 0
-0.62360525 -0.048048019 -0.36778462 0
-0.53245687 -0.03809166 -0.3672055 0
-0.42841434 -0.03737545 -0.37332547 0
-0.33174253 -0.045138359 -0.37274384 0
-0.9479382 0.057772636 -0.36416769 0
-0.84435439 0.05371666 -0.36694276 0
-0.74999738 0.060348511 -0.36669433 0
-0.63800836 0.08098793 -0.37249124 0
-0.52315521 0.077012062 -0.36893177 0
-0.4289782 0.05179882 -0.36898243 0
-0.33107996 0.088788986 -0.36757779 0
-0.2212894 0.093502045 -0.37562835 0
-0.94346809 0.16083431 -0.36147237 0
-0.85234427 0.15174484 -0.36252952 0
-0.76707578 0.17420292 -0.36809564 0
-0.63609624 0.16785812 -0.36624098 0
-0.52132463 0.16624832 -0.36871934 0
-0.42023921 0.17938805 -0.3716979 0
-0.32585502 0.17071152 -0.3693192 0
-0.94315648 0.26017857 -0.35645485 0
-0.86279273 0.25617504 -0.3595016 0
-0.75164866 0.26053715 -0.36416698 0
-0.66229391 0.25078773 -0.36954284 0
-0.52239943 0.27083015 -0.36853385 0
-0.42760873 0.27278805 -0.36782444 0
-0.32560802 0.29026318 -0.36934149 0
-0.94719458 0.39320374 -0.35984755 0
-0.84929609 0.37094593 -0.35853171 0
-0.73343229 0.36358833 -0.36613524 0
-0.61938071 0.36019993 -0.36904097 0
-0.52878714 0.3736887 -0.36733079 0
-0.42599821 0.37181759 -0.37014782 0
-0.94876361 0.47169018 -0.35587323 0
-0.82833147 0.46166039 -0.3631835 0
-0.7225194 0.47775555 -0.36236286 0
-0.64511991 0.45448494 -0.36172581 0
-0.53370667 0.47280407 -0.36898947 0
-0.43583584 0.42479229 -0.3668952 0
-0.3336165 0.47613621 -0.36958063 0
-0.23559976 0.47592068 -0.36891496 0
-0.48959064 -0.41359615 -0.36410594 0
-0.34889293 -0.47379875 -0.37034929 0
-0.28835464 -0.42225742 -0.37231791 0
-0.17852211 -0.44002342 -0.36455572 0
-0.048674822 -0.44224072 -0.36777067 0
0.092964172 -0.42728138 -0.37101555 0
0.21840763 -0.44162941 -0.36848438 0
0.3704567 -0.44341373 -0.36524904 0
0.53608918 -0.44689178 -0.36682343 0
0.70973396 -0.45132542 -0.36190856 0
0.87370849 -0.42249489 -0.35181069 0
-0.47747803 -0.3353529 -0.36261261 0
-0.38014436 -0.35853004 -0.36537933 0
-0.28473401 -0.36547661 -0.36504149 0
-0.16028118 -0.35129166 -0.3675735 0
-0.031659126 -0.341506 -0.36763847 0
0.098650455 -0.3664608 -0.36627603 0
0.23354053 -0.36172962 -0.36909235 0
0.39273643 -0.34384441 -0.36833 0
0.5526576 -0.35092449 -0.36324692 0
0.72866106 -0.35830975 -0.36223328 0
0.89166021 -0.33422756 -0.35523319 0
-0.35681987 -0.213974 -0.36722922 0
-0.26487088 -0.24012947 -0.36622155 0
-0.14186192 -0.23655319 -0.3691144 0
-0.0061798096 -0.20664024 -0.37327373 0
0.1040318 -0.2726202 -0.35872138 0
0.11844516 -0.2644825 -0.37057638 0
0.25674605 -0.22883797 -0.3726995 0
0.41129661 -0.24970627 -0.37020421 0
0.56800056 -0.2626152 -0.36243427 0
0.73888326 -0.26044559 -0.35631585 0
0.89959788 -0.27678108 -0.35417068 0
-0.24518561 -0.1054821 -0.36948502 0
-0.13182783 -0.12860584 -0.36680639 0
-0.0036940575 -0.12999439 -0.36793673 0
0.1270113 -0.15415573 -0.36623502 0
0.26120567 -0.14175415 -0.36765552 0
0.43603969 -0.11844254 -0.37396741 0
0.5907011 -0.14905739 -0.36691546 0
0.76208186 -0.13896751 -0.36219323 0
0.91895771 -0.16251564 -0.35696232 0
-0.33950448 -0.011534691 -0.36552536 0
-0.23110175 -0.01334095 -0.37371027 0
-0.12752366 -0.040494919 -0.3642571 0
0.0048620701 -0.031238556 -0.36756754 0
0.13585138 -0.050906181 -0.36545122 0
0.27653384 -0.041809082 -0.37174046 0
0.44005609 -0.053902626 -0.36950374 0
0.5998404 -0.05420208 -0.3628757 0
0.77533531 -0.035562515 -0.36275268 0
0.9358027 -0.048336983 -0.358711 0
-0.33709621 0.031511307 -0.36542082 0
-0.23186946 0.023713112 -0.37132716 0
-0.12144136 0.056947708 -0.36425221 0
0.010348082 0.071667671 -0.36673141 0
0.14702272 0.070019722 -0.36732078 0
0.27414083 0.022783279 -0.3664031 0
0.44955659 0.065734863 -0.36957073 0
0.61722851 0.053373337 -0.3664341 0
0.78386593 0.056212425 -0.3617233 0
0.94088316 0.032151222 -0.355443 0
-0.23423028 0.12215328 -0.36681712 0
-0.10850525 0.18697071 -0.36931109 0
0.017535925 0.15886211 -0.36884058 0
0.16217947 0.18686008 -0.37342834 0
0.28508735 0.14823723 -0.36889565 0
0.45157218 0.17289066 -0.36679065 0
0.62968612 0.15983295 -0.36834097 0
0.78849173 0.13930321 -0.3595891 0
0.95569062 0.14404297 -0.35823834 0
-0.33725977 0.256217 -0.36308193 0
-0.23681664 0.23331356 -0.36444056 0
-0.1206243 0.22639465 -0.36204636 0
0.02073431 0.26883221 -0.36951959 0
0.15036559 0.22448826 -0.36570787 0
0.28970003 0.26735878 -0.36932755 0
0.45826125 0.24512005 -0.36931121 0
0.63616228 0.2487154 -0.36861229 0
0.80142045 0.28110218 -0.36145639 0
0.96893144 0.2589035 -0.36092985 0
-0.34283352 0.33817291 -0.3612473 0
-0.24060941 0.34637547 -0.363464 0
-0.10557461 0.34792423 -0.37072384 0
0.01309824 0.3530674 -0.36545289 0
0.15151811 0.3374033 -0.36595559 0
0.29674101 0.3683157 -0.37271941 0
0.46355772 0.34585476 -0.37120008 0
0.64249659 0.36017513 -0.37111652 0
0.81163526 0.39036751 -0.36428118 0
0.96874189 0.34267139 -0.35669303 0
-0.34811401 0.42752838 -0.36104333 0
-0.10502553 0.45736504 -0.37269127 0
0.017092466 0.45367336 -0.36903512 0
0.16014004 0.4817791 -0.37192941 0
0.28345156 0.42335415 -0.36577201 0
0.4561131 0.44823265 -0.36704803 0
0.62409568 0.40677643 -0.36092865 0
0.81385779 0.45244408 -0.36405528 0
0.97225475 0.44008636 -0.35564911 0
-0.91052842 -0.44058132 -0.36317146 0
-0.79011178 -0.43523216 -0.36496949 0
-0.9871161 -0.34723282 -0.36328971 0
-0.90983558 -0.33494377 -0.35962796 0
-0.83455896 -0.35145283 -0.36476958 0
-0.71175456 -0.35737228 -0.36705184 0
-0.97130799 -0.25231361 -0.36370599 0
-0.88712955 -0.22012234 -0.36331928 0
-0.81572413 -0.23803234 -0.36441088 0
-0.72755766 -0.23593616 -0.3634584 0
-0.63302684 -0.25278091 -0.36740553 0
-0.9902792 -0.14073086 -0.36175692 0
-0.87459803 -0.12940025 -0.3651278 0
-0.80510664 -0.14072895 -0.36336589 0
-0.71641564 -0.16234303 -0.36517251 0
-0.61580753 -0.12893486 -0.36897135 0
-0.89351177 -0.044067383 -0.36559594 0
-0.79137015 -0.019685745 -0.36646688 0
-0.70196056 -0.058932304 -0.36852717 0
-0.60401487 -0.014121056 -0.37017095 0
-0.99670339 0.067199707 -0.35480678 0
-0.86970592 0.040210724 -0.36196804 0
-0.78978372 0.08624649 -0.36540854 0
-0.69543076 0.067062378 -0.36751807 0
-0.60131383 0.088412285 -0.3679924 0
-0.99130011 0.18153858 -0.35790992 0
-0.87581253 0.14814568 -0.35838842 0
-0.79386091 0.16333103 -0.36317515 0
-0.70238805 0.15194225 -0.3628726 0
-0.60076189 0.14982891 -0.36717117 0
-0.9806807 0.25741386 -0.35836709 0
-0.87141919 0.27917671 -0.36268115 0
-0.80317903 0.25683308 -0.35996139 0
-0.70685458 0.27914143 -0.36269152 0
-0.60326958 0.25561714 -0.36606073 0
-0.49979854 0.25446606 -0.36973095 0
-0.97914219 0.36841583 -0.35811496 0
-0.87869787 0.38229465 -0.36254466 0
-0.80428815 0.37821293 -0.36293519 0
-0.71208477 0.3576622 -0.36234319 0
-0.6075933 0.38141537 -0.36671889 0
-0.98201847 0.46534729 -0.35484242 0
-0.90305734 0.47604084 -0.35626984 0
-0.82596612 0.45772552 -0.35688102 0
-0.72506356 0.45791245 -0.36037159 0
-0.61553383 0.44182491 -0.36529529 0
-0.5144279 0.44952393 -0.36612308 0
-0.40336323 0.46038246 -0.37345541 0
-0.67400742 -0.46658325 -0.36307788 0
-0.56903863 -0.42869473 -0.36536884 0
-0.47345328 -0.42758369 -0.36713398 0
-0.36194754 -0.4495182 -0.36731219 0
-0.23869824 -0.43321609 -0.36493552 0
-0.11303949 -0.44786358 -0.36305046 0
0.013710737 -0.4480114 -0.36383665 0
0.1714921 -0.45144463 -0.36221981 0
0.33838749 -0.43121719 -0.36328506 0
0.50372863 -0.44612789 -0.36080062 0
0.66792035 -0.44112682 -0.35590053 0
-0.74216342 -0.31277943 -0.36010885 0
-0.61970735 -0.34487152 -0.36339438 0
-0.48358893 -0.32937908 -0.36356843 0
-0.3496685 -0.37968731 -0.36701417 0
-0.34269857 -0.31986713 -0.36455226 0
-0.22387624 -0.3397398 -0.36442018 0
-0.093562365 -0.36149216 -0.36828363 0
0.029498816 -0.35820961 -0.3651619 0
0.1946497 -0.32131195 -0.36514544 0
0.35613227 -0.33889675 -0.36373675 0
0.52565408 -0.34341145 -0.36346114 0
0.69168139 -0.32949066 -0.35876966 0
-0.63069701 -0.21856213 -0.36541665 0
-0.54524708 -0.26396847 -0.36246109 0
-0.39585686 -0.25756264 -0.36052895 0
-0.20237947 -0.23113346 -0.36984444 0
-0.079330683 -0.24375057 -0.36553538 0
0.03870368 -0.28264332 -0.36357856 0
0.19571328 -0.26390743 -0.35923684 0
0.37453675 -0.24433041 -0.3659662 0
0.53225398 -0.26140976 -0.35506463 0
0.70218086 -0.26666641 -0.35802352 0
-0.52481985 -0.13093567 -0.36628389 0
-0.43484139 -0.13713741 -0.36432159 0
-0.31943059 -0.15807343 -0.36651194 0
-0.19942474 -0.17255402 -0.36640441 0
-0.062724829 -0.1216898 -0.36757982 0
0.059504509 -0.14834213 -0.36748219 0
0.22136784 -0.13092422 -0.36775577 0
0.38616419 -0.15856838 -0.36514187 0
0.55695081 -0.14359951 -0.36131012 0
0.72390985 -0.14907837 -0.36178422 0
-0.61371541 -0.040787697 -0.36467838 0
-0.51914477 -0.027621269 -0.3638593 0
-0.43989563 -0.079606056 -0.35683143 0
-0.31530595 -0.075305939 -0.36355293 0
-0.18080163 -0.045700073 -0.37085235 0
-0.065181494 -0.046764374 -0.36080682 0
0.069787025 -0.017305374 -0.36590493 0
0.22043276 -0.069860458 -0.36249292 0
0.39703083 -0.065728188 -0.36592185 0
0.57664609 -0.034422874 -0.3655057 0
0.7336092 -0.059212685 -0.36054289 0
-0.51059127 0.072414398 -0.36574399 0
-0.41865826 0.057448387 -0.36533415 0
-0.29903531 0.047818184 -0.36862814 0
-0.17965722 0.037181854 -0.36733139 0
-0.044970989 0.077967644 -0.36875141 0
0.075553179 0.09335804 -0.36485016 0
0.23528504 0.037771225 -0.36699057 0
0.40471196 0.028920174 -0.36575484 0
0.58672047 0.064457893 -0.36370969 0
0.74185252 0.037157059 -0.35882819 0
-0.50933766 0.15739632 -0.36489475 0
-0.41497993 0.17910957 -0.36503577 0
-0.29777908 0.14028549 -0.36670256 0
-0.17852378 0.13335228 -0.36496103 0
-0.04416275 0.14089108 -0.3672874 0
0.080262661 0.1736517 -0.36548054 0
0.23643351 0.14054394 -0.363693 0
0.41638446 0.16626358 -0.36772561 0
0.60846901 0.16505527 -0.37238801 0
0.75406885 0.14229584 -0.36050904 0
-0.51252198 0.26460171 -0.36297715 0
-0.41789889 0.26557636 -0.36325884 0
-0.29827523 0.25830269 -0.3653146 0
-0.17878675 0.23075676 -0.36343265 0
-0.049108744 0.23338413 -0.36271071 0
0.081204891 0.22549629 -0.36505985 0
0.24367285 0.27188396 -0.36530197 0
0.41821885 0.24678898 -0.36664903 0
0.60738158 0.23260689 -0.36809599 0
0.76339364 0.21582603 -0.36294341 0
-0.51343822 0.33979702 -0.36349165 0
-0.41068459 0.36090469 -0.36788011 0
-0.30338192 0.37302589 -0.3634156 0
-0.17399049 0.34826374 -0.36609972 0
-0.040071249 0.36148262 -0.36747932 0
0.085292101 0.32850075 -0.36654079 0
0.24435139 0.36436939 -0.36491752 0
0.41984677 0.34420204 -0.366135 0
0.60568285 0.3611412 -0.36530292 0
0.77037692 0.35136127 -0.36159647 0
-0.64127827 0.45573711 -0.35473955 0
-0.42877412 0.47708797 -0.36210346 0
-0.30961728 0.44349003 -0.36168957 0
-0.18025899 0.4369545 -0.36404383 0
-0.045992136 0.49073219 -0.36589766 0
-0.037759066 0.45860767 -0.36950803 0
0.08572197 0.44380188 -0.36720562 0
0.24246907 0.44454956 -0.36413527 0
0.41725945 0.43029976 -0.3641665 0
0.59650922 0.43063068 -0.36009812 0
0.76982284 0.46971512 -0.35824561 0
0.86642909 -0.44754601 -0.35385072 0
0.86988521 -0.38372612 -0.34622514 0
0.89380145 -0.25544262 -0.35064399 0
0.90882444 -0.15454865 -0.35156453 0
0.91887212 -0.074178696 -0.35142541 0
0.93750095 0.045810699 -0.3555516 0
0.94221354 0.13670635 -0.35203481 0
0.95305705 0.24630547 -0.353091 0
0.95675611 0.34273338 -0.35074461 0
0.96423602 0.41744423 -0.35270619 0
-0.98655844 -0.42573643 -0.36699116 0
-0.85395932 -0.4660759 -0.36631191 0
-0.79767251 -0.44246769 -0.36969006 0
-0.97646642 -0.35534096 -0.36410582 0
-0.87352729 -0.33446598 -0.36983466 0
-0.77697968 -0.34631634 -0.37189066 0
-0.9609313 -0.26207733 -0.36591804 0
-0.86116171 -0.24219418 -0.3673681 0
-0.76217127 -0.25399399 -0.37294793 0
-0.94856334 -0.1551075 -0.36637557 0
-0.84723687 -0.148592 -0.36992109 0
-0.75821257 -0.16906548 -0.36787176 0
-0.65612793 -0.15743923 -0.37261319 0
-0.94989729 -0.059976578 -0.36075282 0
-0.84912968 -0.060105324 -0.36470246 0
-0.74902678 -0.09426403 -0.36944544 0
-0.6403048 -0.022725105 -0.37535465 0
-0.94104505 0.062507629 -0.36343575 0
-0.8441875 0.05762291 -0.36556184 0
-0.73342466 0.065706253 -0.37410474 0
-0.64372516 0.082271576 -0.36967647 0
-0.95290065 0.13784504 -0.35714793 0
-0.8436892 0.14706326 -0.36586225 0
-0.75281906 0.15196228 -0.36356509 0
-0.64406013 0.12715912 -0.36876881 0
-0.93916917 0.21989155 -0.3651247 0
-0.8526299 0.22589302 -0.36239862 0
-0.74927998 0.26986504 -0.3671149 0
-0.64307594 0.25598812 -0.37053072 0
-0.95680881 0.3225956 -0.3592087 0
-0.85747075 0.34048557 -0.36320508 0
-0.75902104 0.35356998 -0.3649652 0
-0.6517005 0.34344769 -0.3684262 0
-0.96716595 0.45794487 -0.36015844 0
-0.88081884 0.44543743 -0.35722172 0
-0.7773633 0.44950867 -0.36046183 0
-0.66291666 0.39919567 -0.36505926 0
-0.79233646 0.49667931 -0.35640895 0
-0.80536485 -0.44863033 -0.36164355 0
-0.64675522 -0.43595982 -0.36596978 0
-0.49383974 -0.45065498 -0.36904001 0
-0.38120937 -0.47810936 -0.3642596 0
-0.23479486 -0.42898083 -0.3729167 0
-0.11708951 -0.44896317 -0.36881721 0
0.042535067 -0.44770527 -0.36937249 0
0.20486093 -0.4841404 -0.36708057 0
0.3854847 -0.44572163 -0.36942589 0
0.54436493 -0.45502472 -0.36246955 0
-0.68506598 -0.3261528 -0.36603808 0
-0.59050727 -0.32446194 -0.36711919 0
-0.48168373 -0.36290741 -0.36699867 0
-0.352319 -0.35309696 -0.37272811 0
-0.23088503 -0.37105846 -0.36788118 0
-0.10666895 -0.39207172 -0.37020111 0
0.056455374 -0.34210396 -0.36768806 0
0.21844816 -0.39336014 -0.36674201 0
0.40346217 -0.35705185 -0.37121701 0
0.55745268 -0.37012196 -0.35945511 0
-0.66961575 -0.24017906 -0.36938119 0
-0.57745075 -0.22609997 -0.36733234 0
-0.46167684 -0.24917889 -0.37069237 0
-0.34415722 -0.26712132 -0.36951566 0
-0.2170198 -0.26794529 -0.36778533 0
-0.082837582 -0.25837135 -0.37494457 0
0.068588257 -0.25064754 -0.36800766 0
0.23755026 -0.28224754 -0.37045801 0
0.4204669 -0.25584602 -0.37083721 0
0.57792878 -0.26004314 -0.36169577 0
-0.56959701 -0.15876865 -0.36775196 0
-0.4496429 -0.16276073 -0.37240899 0
-0.33759975 -0.14282322 -0.36413205 0
-0.20486116 -0.15628052 -0.36758626 0
-0.079896212 -0.15245724 -0.36760306 0
0.08420682 -0.14646435 -0.37136424 0
0.24616814 -0.15505219 -0.36594379 0
0.43273234 -0.17301655 -0.37041664 0
0.5882926 -0.17566395 -0.35934055 0
-0.75599194 -0.05805397 -0.3631047 0
-0.65228415 -0.056928635 -0.36911356 0
-0.56496882 -0.065836906 -0.36560023 0
-0.44624066 -0.060390472 -0.36828506 0
-0.32467628 -0.064249992 -0.36867821 0
-0.19537616 -0.048258781 -0.36775148 0
-0.061349869 -0.037878036 -0.37365603 0
0.091429234 -0.036137581 -0.36948633 0
0.43853068 -0.070819855 -0.36597681 0
0.60118771 -0.080030441 -0.35929453 0
-0.7598958 0.041851044 -0.35930169 0
-0.64597344 0.039277077 -0.36933291 0
-0.54827762 0.078738213 -0.37113523 0
-0.43367481 0.075597763 -0.37118936 0
-0.3134377 0.069273949 -0.37049627 0
-0.19422984 0.043240547 -0.36478806 0
-0.0668962 0.014544487 -0.36736357 0
0.091272593 0.032757759 -0.36604702 0
0.25859761 -0.00064277649 -0.36542356 0
0.44143248 0.014782906 -0.3632735 0
0.62559676 0.055713654 -0.36601758 0
-0.64977193 0.15602589 -0.36572969 0
-0.54792738 0.16947174 -0.36993444 0
-0.43322825 0.14625072 -0.36997271 0
-0.31736088 0.15865993 -0.36627531 0
-0.17721462 0.16665554 -0.3721956 0
-0.053460121 0.14933872 -0.37167048 0
0.095014095 0.094099998 -0.36632931 0
0.10762525 0.18160057 -0.37193465 0
0.27787614 0.1269865 -0.37305129 0
0.45537972 0.1339035 -0.36784256 0
