# .PCD v0.7 - Point Cloud Data file format
VERSION 0.7
FIELDS x y z intensity
SIZE 4 4 4 4
TYPE F F F F
COUNT 1 1 1 1
WIDTH 1291
HEIGHT 1
VIEWPOINT 0 0 0 1 0 0 0
POINTS 1291
DATA ascii
0.55624485 0.47793579 -0.55765915 0
0.64042854 0.44434834 -0.56757736 0
0.72841167 0.3854208 -0.57087016 0
0.79592419 0.33316422 -0.56316972 0
0.88928795 0.28932285 -0.56813192 0
0.98964596 0.23567486 -0.57296538 0
0.84026432 0.43520546 -0.59202933 0
0.95624161 0.36614323 -0.59282494 0
0.9274807 0.48122215 -0.61603904 0
-0.009103775 -0.13607216 -0.28761888 0
-0.056527138 0.008975029 -0.25530672 0
0.0046443939 -0.061634064 -0.26658654 0
0.10649681 -0.10383224 -0.26587868 0
-0.024646759 0.073806763 -0.2600615 0
0.076785088 0.024512291 -0.2588625 0
0.19408512 -0.08852005 -0.28467846 0
0.037736893 0.14219761 -0.29381657 0
0.093019485 0.12955379 -0.28293347 0
0.098114014 0.21167469 -0.33415365 0
0.15139294 0.19868374 -0.31546235 0
0.14605045 0.26808548 -0.35811281 0
0.20471954 0.26703739 -0.35129285 0
0.2600708 0.25320816 -0.33916259 0
0.7919054 -0.44704247 0.67135167 0
0.89110374 -0.49754333 0.65678382 0
0.95416451 -0.42600155 0.62480569 0
-0.032603264 -0.43836784 -0.3671546 0
0.050253868 -0.46669674 -0.38168788 0
0.02721405 -0.34877014 -0.38550806 0
0.081066132 -0.39957142 -0.39236689 0
0.1675663 -0.42839813 -0.40635729 0
0.26254368 -0.49251461 -0.41834283 0
0.80430794 0.49820042 -0.61670208 0
-0.076077461 -0.1137619 -0.31821346 0
-0.039500237 -0.18496609 -0.32195234 0
0.11924553 -0.3252039 -0.37888217 0
-0.11811447 0.022841454 -0.30847001 0
-0.10516739 -0.055630684 -0.31039977 0
-0.074202538 0.102005 -0.32555079 0
-0.044585228 0.14949131 -0.34020138 0
0.030654907 0.15870762 -0.35336995 0
0.011733055 0.22007847 -0.36724234 0
0.07845974 0.2206955 -0.38174868 0
0.13914204 0.28156853 -0.40587902 0
0.21168232 0.2842474 -0.42382073 0
0.26237011 0.31747055 -0.46298766 0
0.41249371 0.26165581 -0.50882959 0
0.61137962 0.11002445 -0.50285149 0
0.7086277 0.082985878 -0.50869966 0
0.32762146 0.38707733 -0.51955557 0
0.40154457 0.35539055 -0.51887894 0
0.47513866 0.2897377 -0.51322126 0
0.55325985 0.23306942 -0.51307797 0
0.65362167 0.20182133 -0.51643896 0
0.75268745 0.14517498 -0.52093148 0
0.86148167 0.097119331 -0.53400922 0
0.91880322 0.020934105 -0.54868245 0
0.36551476 0.47377396 -0.5363121 0
0.4597578 0.43612576 -0.53730702 0
0.5296278 0.37858009 -0.53992486 0
0.59187794 0.32159901 -0.5329144 0
0.70274067 0.27781868 -0.54240632 0
0.78337288 0.23216724 -0.5399003 0
0.8839426 0.16990566 -0.54859662 0
0.99762821 0.11682796 -0.56152034 0
0.57793331 0.47070312 -0.5625577 0
0.66640663 0.42250824 -0.57335424 0
0.75872707 0.36558819 -0.57303143 0
0.83190632 0.3109045 -0.57076645 0
0.93746758 0.27875233 -0.57839084 0
0.99678326 0.2153101 -0.57009673 0
0.8082695 0.44422436 -0.60471654 0
0.87782955 0.42421246 -0.60533905 0
0.98345852 0.34470272 -0.59010005 0
0.94074917 0.49427414 -0.61888123 0
-0.042850494 -0.11108589 -0.2939446 0
-0.0023775101 -0.1763134 -0.2955761 0
-0.10511208 -0.0044202805 -0.29244947 0
-0.061547279 -0.021953583 -0.26954198 0
0.0077447891 -0.098694801 -0.27119756 0
0.087772369 -0.10797882 -0.26468587 0
-0.076600075 0.079708099 -0.29396105 0
-0.012421608 0.062763214 -0.25974488 0
0.15241814 -0.083610535 -0.27249455 0
-0.011517525 0.15444851 -0.33792257 0
0.043355942 0.12894249 -0.29721665 0
0.10064888 0.2077589 -0.33148336 0
0.14825344 0.16048908 -0.3038497 0
0.14346123 0.27420712 -0.36092925 0
0.22378349 0.24506664 -0.35225844 0
0.99133778 -0.4417181 0.60987425 0
0.67673874 -0.47488213 0.70064759 0
0.79218197 -0.47064304 0.67491603 0
0.90911579 -0.4490509 0.63087153 0
0.98949623 -0.47327518 0.62453651 0
-0.30696678 -0.49971962 -0.33370709 0
-0.2314539 -0.40505791 -0.35583425 0
-0.1574297 -0.45768833 -0.35952878 0
-0.17477989 -0.32506275 -0.37461042 0
-0.090937614 -0.37395 -0.37918496 0
-0.018863678 -0.45984077 -0.37856889 0
0.055012703 -0.45307636 -0.38976574 0
-0.11740971 -0.2631588 -0.39177132 0
-0.069402695 -0.2951355 -0.39746976 0
0.014111519 -0.35710812 -0.39593935 0
0.19212818 -0.4308691 -0.41731477 0
0.28609085 -0.49961185 -0.4294703 0
0.39478779 -0.49796867 -0.44685292 0
0.20343304 0.38770485 -0.52526355 0
0.21669579 0.4832592 -0.53827167 0
-0.038346291 -0.40836716 -0.37621808 0
-0.084345818 -0.21705341 -0.36966634 0
-0.055106163 -0.27855396 -0.38605595 0
0.019980431 -0.33021545 -0.39379048 0
0.10503006 -0.38099861 -0.40553737 0
-0.14507389 -0.088637352 -0.35732937 0
-0.069051743 -0.1534605 -0.34258533 0
0.18124008 -0.32842255 -0.39154339 0
-0.14484119 0.052940369 -0.35032129 0
-0.13134003 -0.0034894943 -0.33992028 0
-0.12864017 0.11114693 -0.35841036 0
-0.083605766 0.11036301 -0.34398746 0
-0.087831497 0.17629147 -0.38385582 0
-0.029465675 0.18319607 -0.37736607 0
-0.040309906 0.25528622 -0.41397214 0
0.037826538 0.24463844 -0.41023088 0
0.10190296 0.24793339 -0.40205097 0
0.089797974 0.30451965 -0.44825315 0
0.15495205 0.29995251 -0.44580126 0
0.23205853 0.2896347 -0.42237115 0
0.20907974 0.35297489 -0.50162172 0
0.29329109 0.32608223 -0.50093675 0
0.48861885 0.20688534 -0.51837087 0
0.56295395 0.19174004 -0.51671743 0
0.73579407 0.079092026 -0.51755738 0
0.20167542 0.46846199 -0.53131175 0
0.26773834 0.43871689 -0.53238964 0
0.35213184 0.38210964 -0.52790213 0
0.4338789 0.3330307 -0.52561092 0
0.50808907 0.29819107 -0.52466893 0
0.60556698 0.2252388 -0.52017021 0
0.65688801 0.20355988 -0.52053261 0
0.76200008 0.12748337 -0.53002357 0
0.85982895 0.11693764 -0.54083347 0
0.38959599 0.46659374 -0.5469265 0
0.48250866 0.42544651 -0.54264188 0
0.56371975 0.35329914 -0.54850888 0
0.64286518 0.32112408 -0.55029202 0
0.72548103 0.2856617 -0.55218554 0
0.79656315 0.22754669 -0.55020118 0
0.89084339 0.19702339 -0.55803299 0
0.62143517 0.47646618 -0.58236194 0
0.70867729 0.39894199 -0.5780127 0
0.78936481 0.39455605 -0.58551359 0
0.85337067 0.31125927 -0.57781124 0
0.96223545 0.28330421 -0.5905757 0
0.77383232 0.45350647 -0.60940981 0
0.84582424 0.43107414 -0.61031461 0
0.92266083 0.39521885 -0.61096144 0
0.98190689 0.49577904 -0.62690258 0
-0.030142784 -0.13494778 -0.31232238 0
-0.0011768341 -0.16378498 -0.30505967 0
-0.083704948 0.010941505 -0.29259682 0
-0.028717041 -0.067613602 -0.28834367 0
0.054645538 -0.088453293 -0.27480507 0
0.11966991 -0.12641335 -0.27708578 0
-0.056630135 0.087511063 -0.29392052 0
0.040313721 0.072117805 -0.27432585 0
0.10438442 -0.02974987 -0.27604508 0
0.005440712 0.15006447 -0.32802057 0
0.081693649 0.14032269 -0.30350304 0
0.066801071 0.23297691 -0.36642241 0
0.12126923 0.21169376 -0.33540344 0
0.1132021 0.31025314 -0.39533806 0
0.17489147 0.25119781 -0.3636868 0
0.24382877 0.25677586 -0.37278318 0
0.66206646 -0.46951389 0.69679332 0
0.82098866 -0.40842438 0.64745378 0
-0.43818474 -0.42007446 -0.32923269 0
-0.34501076 -0.45569897 -0.33544397 0
-0.26588345 -0.48728752 -0.34012222 0
-0.37159348 -0.34804821 -0.34570026 0
-0.30564976 -0.36487103 -0.35133982 0
-0.20689487 -0.42868614 -0.35738945 0
-0.12425137 -0.47146225 -0.35937738 0
-0.047862053 -0.47247124 -0.36929011 0
-0.31637859 -0.25691986 -0.36243367 0
-0.24611187 -0.27314663 -0.37345338 0
-0.16169643 -0.34601498 -0.37467432 0
-0.071513176 -0.39055061 -0.38132572 0
-0.0056838989 -0.41977882 -0.38187742 0
0.064267159 -0.48764896 -0.38576293 0
-0.20474243 -0.19047451 -0.38973045 0
-0.11618614 -0.25005817 -0.39395189 0
-0.024914742 -0.30652046 -0.39766598 0
0.03357029 -0.35612011 -0.39447784 0
0.112957 -0.40595722 -0.40171146 0
0.21481895 -0.46221161 -0.41587973 0
-0.17751789 -0.11691189 -0.40441585 0
-0.092755318 -0.20559406 -0.40228724 0
0.0019397736 0.28266716 -0.47541285 0
0.083435059 0.30503368 -0.49882269 0
0.085334778 0.41527843 -0.51901531 0
0.14986897 0.40040398 -0.5229876 0
0.23354721 0.34611225 -0.51984382 0
0.28619003 0.3139677 -0.52086091 0
0.19019794 0.47800922 -0.53750443 0
0.27022266 0.42955971 -0.53460145 0
-0.067678452 -0.22959614 -0.37248898 0
-0.19406986 -0.047049522 -0.37518358 0
-0.13412857 -0.1018095 -0.36084032 0
-0.045091629 -0.16820621 -0.34247017 0
-0.021282196 -0.22228527 -0.35241032 0
0.22500038 -0.3860302 -0.39818048 0
-0.17323971 0.030285835 -0.37749815 0
-0.10519409 -0.015692711 -0.343611 0
-0.054219246 -0.091850281 -0.32149434 0
-0.1259203 0.11366844 -0.38118601 0
-0.06990242 0.08223629 -0.34469199 0
-0.080704689 0.17471504 -0.41582751 0
-0.014618874 0.15390968 -0.38233304 0
-0.038510323 0.24973965 -0.4439981 0
0.058573723 0.22634125 -0.423208 0
0.12886047 0.20211411 -0.39319301 0
0.099978447 0.28744602 -0.4673779 0
0.1748867 0.27489758 -0.43605328 0
0.15748119 0.3521862 -0.48008132 0
0.23938179 0.32441711 -0.50181532 0
0.31010151 0.29205418 -0.47875023 0
0.39164352 0.28645992 -0.51963711 0
0.51114845 0.19646263 -0.51861644 0
0.58429718 0.12563038 -0.51726317 0
0.64138031 0.12154675 -0.51398683 0
0.29156017 0.43724442 -0.53237891 0
0.37222862 0.38715458 -0.53163028 0
0.44635963 0.31791687 -0.52274847 0
0.5421114 0.25883961 -0.52303219 0
0.61672211 0.21627712 -0.52382898 0
0.727314 0.15720367 -0.52345657 0
0.83346176 0.11818123 -0.53439045 0
0.40436077 0.44442368 -0.54657745 0
0.4977932 0.41477489 -0.54136014 0
0.66101456 0.29293442 -0.54174829 0
0.77407837 0.25435925 -0.54725957 0
0.86313725 0.19637489 -0.55062699 0
0.98199654 0.14585876 -0.55902576 0
0.63859653 0.44159985 -0.57423973 0
0.71403217 0.37707806 -0.57616401 0
0.82351971 0.33320045 -0.57928443 0
0.93207836 0.26674652 -0.58000088 0
0.85162258 0.4278307 -0.60811663 0
0.96126175 0.38781834 -0.61292672 0
0.01505661 -0.16092587 -0.30893326 0
-0.054984093 0.002623558 -0.28216553 0
0.0028686523 -0.079275131 -0.28669763 0
0.076024055 -0.13733578 -0.27218008 0
0.15509033 -0.12655163 -0.27781916 0
-0.035536766 0.07267189 -0.30197597 0
0.03503418 0.049832344 -0.26246691 0
0.16072655 -0.092483521 -0.28095126 0
0.033876419 0.14144707 -0.33025646 0
0.098347664 0.11199188 -0.30061483 0
0.10952663 0.24123192 -0.36383939 0
0.15052414 0.1836729 -0.33591509 0
0.21817398 0.15775967 -0.31250739 0
0.1268568 0.28276062 -0.38250732 0
0.20646477 0.25142956 -0.37006521 0
0.2786026 0.22875309 -0.37472773 0
0.88961697 -0.48882198 0.64918542 0
0.93430519 -0.45139027 0.62225747 0
-0.63937473 -0.48558903 -0.30849695 0
-0.58224869 -0.39174747 -0.31739879 0
-0.50836277 -0.46743584 -0.31932282 0
-0.53343773 -0.31115341 -0.33215761 0
-0.46757412 -0.37170219 -0.32986426 0
-0.38776588 -0.43285275 -0.32893658 0
-0.47168159 -0.24513626 -0.34291887 0
-0.38451099 -0.29741096 -0.35027909 0
-0.33423615 -0.34913063 -0.34707594 0
-0.25231266 -0.42673683 -0.34832978 0
-0.16386223 -0.49366283 -0.34547424 0
-0.41928768 -0.17767239 -0.36215591 0
-0.33336353 -0.22654533 -0.36619973 0
-0.26378155 -0.27983379 -0.36431265 0
-0.19058895 -0.3712759 -0.36403179 0
-0.11769104 -0.42943001 -0.36373639 0
-0.05667305 -0.49150848 -0.36329865 0
-0.34602547 -0.095638275 -0.38158083 0
-0.26964664 -0.14862156 -0.38636541 0
-0.20197678 -0.22519875 -0.3818419 0
-0.12020874 -0.29427242 -0.38178301 0
-0.047006607 -0.35065556 -0.38524055 0
0.017781258 -0.43000603 -0.38169384 0
0.079073906 -0.45365429 -0.39000177 0
-0.28064156 -0.01829052 -0.40370202 0
-0.22222614 -0.08394146 -0.40330696 0
-0.14986324 -0.17700863 -0.39723158 0
-0.07937336 -0.23727322 -0.39503694 0
-0.016505241 -0.30759907 -0.39509058 0
0.13562298 -0.41442871 -0.40637231 0
0.24886799 -0.45406818 -0.42200875 0
-0.25184059 0.11193085 -0.41770053 0
-0.25301647 0.086985588 -0.41975355 0
0.39570141 -0.48845959 -0.44450879 0
-0.2216692 0.19386101 -0.42865372 0
-0.15563297 0.27432919 -0.457798 0
-0.091364861 0.34333229 -0.48019075 0
-0.025133133 0.29805565 -0.48057771 0
-0.041457176 0.42817402 -0.5048604 0
0.012300491 0.37838173 -0.50038457 0
0.0048513412 0.49283218 -0.523031 0
0.097639084 0.42726612 -0.5224514 0
0.15073395 0.38066578 -0.51537132 0
0.017339706 -0.36746693 -0.38759279 0
-0.24184322 0.0027132034 -0.37884998 0
-0.18947792 -0.0656147 -0.36232543 0
-0.10971451 -0.13439083 -0.34994698 0
-0.039032936 -0.19819927 -0.33574319 0
0.039306641 -0.34276199 -0.39443111 0
-0.24117756 0.13133049 -0.3978641 0
-0.20829391 0.05597496 -0.3778801 0
-0.1389761 0.0055503845 -0.33609843 0
-0.10715771 -0.056688309 -0.32747889 0
-0.20800209 0.18420792 -0.41028738 0
-0.15949821 0.14157867 -0.38063192 0
-0.088929176 0.10321999 -0.34782958 0
-0.14991474 0.256567 -0.43302941 0
-0.09135437 0.20621014 -0.41268635 0
-0.022064209 0.17701817 -0.37847853 0
-0.012868881 0.27565479 -0.44710898 0
0.053973198 0.23800945 -0.40776634 0
0.048768044 0.35208321 -0.48524857 0
0.10912228 0.30823326 -0.44428897 0
0.20216942 0.28238392 -0.41724944 0
0.10432529 0.36736774 -0.4965632 0
0.15575409 0.35669422 -0.48034191 0
0.24855423 0.30878925 -0.47736573 0
0.15026569 0.48056126 -0.52349305 0
0.24204445 0.42943859 -0.52601957 0
0.33092117 0.38023567 -0.52427125 0
0.40034485 0.30061722 -0.51744008 0
0.44150925 0.25396824 -0.51368284 0
0.54359818 0.1974411 -0.51532531 0
0.65300751 0.088406563 -0.50752139 0
0.37753582 0.43313789 -0.53336382 0
0.45001698 0.39244747 -0.53330564 0
0.54262638 0.3051815 -0.53098869 0
0.59544277 0.26058769 -0.52286148 0
0.660779 0.20361805 -0.51892662 0
0.78918266 0.14800262 -0.53122997 0
0.51913166 0.45706367 -0.55881429 0
0.60095215 0.39716625 -0.55969524 0
0.67324162 0.34314537 -0.55704784 0
0.72062969 0.29661942 -0.54712319 0
0.82699776 0.19960976 -0.54838681 0
0.95104408 0.15195656 -0.55729032 0
0.6549387 0.47920322 -0.58690023 0
0.73862171 0.38798332 -0.58420444 0
0.79406738 0.36179543 -0.57837129 0
0.87047291 0.29641819 -0.57079649 0
0.9965744 0.15292263 -0.57290936 0
0.78956032 0.45100117 -0.60821986 0
0.84887505 0.4133873 -0.60233045 0
0.93404961 0.36431313 -0.59873748 0
0.94949436 0.47892666 -0.62475967 0
-0.10193443 0.018173218 -0.2962141 0
-0.044268608 -0.047791481 -0.27690887 0
0.0038843155 -0.11193275 -0.28196836 0
-0.10728836 0.13894272 -0.33077574 0
-0.057926178 0.082566261 -0.28727674 0
0.012579918 0.066402435 -0.27353215 0
0.082023621 -0.059620857 -0.26915812 0
0.020260811 0.14446354 -0.31882048 0
0.080270767 0.13330269 -0.28924155 0
0.089586258 0.21945381 -0.34280872 0
0.13120651 0.184659 -0.31860709 0
0.12997055 0.2821579 -0.38171983 0
0.20292759 0.25134754 -0.35188484 0
0.21543121 0.32209206 -0.39499164 0
0.72584057 -0.42670727 0.67866254 0
0.83553123 -0.4701004 0.65394092 0
0.93045139 -0.48114777 0.63757873 0
0.91516304 -0.40044403 0.62243295 0
-0.68503475 -0.49068165 -0.28725672 0
-0.5881319 -0.38154507 -0.30503774 0
-0.5816431 -0.42751122 -0.30304718 0
-0.50491714 -0.30193901 -0.32115602 0
-0.49040508 -0.39644432 -0.31272912 0
-0.43002796 -0.20163631 -0.3398633 0
-0.40590096 -0.29193115 -0.33283734 0
-0.38921738 -0.37744141 -0.32457781 0
-0.35046101 -0.47572899 -0.31610012 0
-0.33566666 -0.16275215 -0.36129189 0
-0.32133198 -0.26613235 -0.34778523 0
-0.2942028 -0.38191891 -0.33412361 0
-0.24224281 -0.4385128 -0.33305097 0
-0.28048325 -0.063355446 -0.3816123 0
-0.24466228 -0.14476299 -0.37526226 0
-0.22111511 -0.23397636 -0.36550617 0
-0.2101717 -0.33798409 -0.35206079 0
-0.16827583 -0.4350605 -0.34267712 0
-0.23376179 0.0034275055 -0.3965466 0
-0.19257164 -0.10465717 -0.38717723 0
-0.12734795 -0.23237705 -0.3793993 0
-0.099009514 -0.31172562 -0.36905527 0
-0.086834908 -0.38312244 -0.3581636 0
-0.045500755 -0.49457455 -0.35192323 0
-0.0019178391 -0.39402676 -0.37180662 0
0.052227974 -0.47109222 -0.37085533 0
-0.05704689 0.30436993 -0.4586165 0
0.095423698 -0.39455128 -0.38486576 0
0.18703461 -0.44924927 -0.3963697 0
0.017252922 0.43492985 -0.49471021 0
0.011615753 0.33510303 -0.47586083 0
0.087720871 0.46921158 -0.51264763 0
0.12252331 0.36898518 -0.49808216 0
0.19528198 0.46927071 -0.52023101 0
0.19512081 0.38656425 -0.50715542 0
-0.25688457 0.047655106 -0.38149977 0
-0.2368021 -0.023241043 -0.36182427 0
-0.20594978 0.15803337 -0.38767815 0
-0.1928072 0.082722664 -0.36208439 0
-0.16644669 -0.0025691986 -0.33806944 0
-0.15098476 -0.10209465 -0.33940935 0
-0.086380959 -0.19984055 -0.34757638 0
-0.13848591 0.26864052 -0.42637014 0
-0.13766098 0.19017601 -0.39079905 0
-0.091991425 0.12529755 -0.34465504 0
-0.11723709 0.032056808 -0.3231914 0
-0.082761765 -0.08957386 -0.30329037 0
-0.051190376 -0.17672443 -0.31700015 0
-0.074540138 0.27285957 -0.43286157 0
-0.031072617 0.22623825 -0.40267515 0
-0.022390366 0.16440582 -0.35589981 0
0.059336662 0.32186699 -0.4688518 0
0.059166908 0.26000595 -0.41128993 0
0.13187981 0.34026909 -0.44979 0
0.13929272 0.28957653 -0.42523313 0
0.230937 0.40672302 -0.50577378 0
0.22988033 0.31696987 -0.44787169 0
0.32244873 0.39930725 -0.51417494 0
0.3358984 0.32307434 -0.49590182 0
0.41065979 0.45072365 -0.52405119 0
0.44167805 0.33666611 -0.51009417 0
0.4560051 0.2641592 -0.49670625 0
0.5269556 0.15092468 -0.4974649 0
0.50692177 0.45127869 -0.53320003 0
0.51921177 0.40580463 -0.53383613 0
0.5609436 0.27522278 -0.51141095 0
0.59097385 0.18914604 -0.49893379 0
0.64546299 0.083590508 -0.4880321 0
0.63255978 0.38196659 -0.55046725 0
0.65417099 0.30994034 -0.529037 0
0.70398235 0.23382092 -0.51744866 0
0.67224789 0.15120602 -0.50106359 0
0.76306152 0.066302299 -0.50392127 0
0.71250343 0.42643356 -0.57065535 0
0.75405121 0.33429813 -0.55396533 0
0.79265881 0.24556446 -0.53361845 0
0.78116798 0.12890244 -0.51405311 0
0.81496048 0.45009232 -0.59735942 0
0.83413506 0.38637829 -0.57409835 0
0.87531281 0.23631954 -0.5533433 0
0.93816662 0.12809086 -0.53881383 0
0.92441559 0.46160126 -0.60630488 0
0.95281887 0.33756256 -0.58781958 0
0.97918129 0.27082825 -0.57271576 0
0.98144722 0.19953442 -0.55835652 0
-0.11329651 0.00068092346 -0.2926538 0
-0.073690414 0.095106125 -0.27942705 0
-0.075583458 0.030818939 -0.26243639 0
-0.023643494 -0.097723007 -0.27173734 0
0.0058994293 0.20006847 -0.33788347 0
0.023664474 0.13227177 -0.30030751 0
0.0087614059 0.070521355 -0.26847792 0
0.058754921 -0.065177917 -0.25318146 0
0.097420692 0.24238968 -0.33779788 0
0.098608971 0.17316818 -0.30811524 0
0.16339493 -0.10697746 -0.26195002 0
0.16536522 0.25726414 -0.35566354 0
0.1906414 0.19788361 -0.31443024 0
0.24925518 0.28370857 -0.38599491 0
0.25907135 0.23703575 -0.33881068 0
0.83495045 -0.44537735 0.66668487 0
0.93351269 -0.43510437 0.63435745 0
-0.99293232 -0.42402935 -0.27016926 0
-0.91281223 -0.3914175 -0.28875875 0
-0.88449383 -0.48208332 -0.28067613 0
-0.80302811 -0.3056488 -0.31454468 0
-0.80739307 -0.37548065 -0.308146 0
-0.80417728 -0.46791172 -0.29610443 0
-0.75517464 -0.25592899 -0.32276535 0
-0.70810127 -0.35354137 -0.31572294 0
-0.70912361 -0.453969 -0.30299568 0
-0.64725304 -0.22893238 -0.33497691 0
-0.62288857 -0.32695675 -0.32281995 0
-0.59994602 -0.3947649 -0.31513429 0
-0.577281 -0.11482716 -0.35600376 0
-0.54523659 -0.18665791 -0.34622002 0
-0.52940178 -0.2729969 -0.33398247 0
-0.51281452 -0.3768816 -0.32340646 0
-0.47659492 -0.01366806 -0.38389921 0
-0.48355293 -0.070699692 -0.37132478 0
-0.45872498 -0.18463993 -0.35455871 0
-0.4251442 -0.2396574 -0.34685278 0
-0.41633224 -0.35225296 -0.33434916 0
-0.37873745 -0.48531151 -0.32362556 0
-0.41973782 0.029090881 -0.39486599 0
-0.38553047 -0.053183556 -0.38384581 0
-0.35599327 -0.14564705 -0.37337184 0
-0.34511185 -0.26540852 -0.35730982 0
-0.31393528 -0.37199783 -0.34502268 0
-0.25567627 -0.41893864 -0.34465718 0
-0.34504604 0.14731979 -0.41828179 0
-0.32623005 0.063223839 -0.40793753 0
-0.27898788 -0.053088188 -0.39406204 0
-0.26107311 -0.12203979 -0.38881993 0
-0.25253963 -0.22312546 -0.3758781 0
-0.23698807 -0.29277039 -0.36540031 0
-0.18361759 -0.36559105 -0.36288953 0
-0.17646885 -0.48471737 -0.3487308 0
-0.25104141 0.27381706 -0.45005322 0
-0.25710106 0.18037891 -0.43863106 0
-0.25954437 0.091909409 -0.42136264 0
-0.2365942 -0.011548042 -0.40923786 0
-0.18396378 -0.1306839 -0.39598536 0
-0.18013859 -0.24304485 -0.38064122 0
-0.14118385 -0.29880142 -0.3794992 0
-0.072345734 -0.40406704 -0.37562227 0
-0.19570065 0.37782383 -0.47102785 0
-0.17419434 0.28533077 -0.45940495 0
-0.18199253 0.25034237 -0.44815874 0
-0.11489487 0.42235184 -0.49223447 0
-0.095526695 0.33677387 -0.47816873 0
-0.017698288 0.44438839 -0.50794268 0
-0.015780449 0.34546661 -0.48862815 0
0.060930252 0.48930359 -0.52394676 0
0.091042519 0.39854431 -0.51212621 0
0.18047714 0.34580898 -0.51597452 0
-0.25606632 0.0053949356 -0.37788033 0
-0.22087383 -0.36149406 -0.35455084 0
-0.22810936 0.17389965 -0.41095495 0
-0.21855927 0.091814995 -0.38282442 0
-0.17029381 0.0089139938 -0.34854317 0
-0.17082024 -0.087914467 -0.35259748 0
-0.12167168 -0.19429302 -0.3662858 0
-0.10907269 -0.26193523 -0.38450265 0
-0.12726784 -0.40530777 -0.36292577 0
-0.062361717 -0.48941708 -0.36002231 0
-0.15363503 0.21227646 -0.41344738 0
-0.12353897 0.12619305 -0.35688543 0
-0.12814617 0.060725212 -0.32870626 0
-0.088983536 -0.1071682 -0.32286787 0
-0.060201645 -0.18032742 -0.33124614 0
0.0030412674 -0.34811592 -0.38814139 0
0.0096893311 -0.42593384 -0.37906027 0
-0.049265862 0.31752014 -0.47076821 0
-0.04580307 0.2397213 -0.41796994 0
-0.053947449 0.17500019 -0.37638879 0
0.033533096 0.32733822 -0.48336935 0
0.042388916 0.26881504 -0.43801785 0
0.054621696 0.20725441 -0.38869143 0
0.099667549 0.37644768 -0.48443866 0
0.12727737 0.30954075 -0.43230271 0
0.19969082 0.49751759 -0.53068399 0
0.21688652 0.41250896 -0.52018905 0
0.21029663 0.32571793 -0.48045826 0
0.28796196 0.43774128 -0.52691102 0
0.32774258 0.35264206 -0.51199293 0
0.34324837 0.27082634 -0.49087954 0
0.36898518 0.48371124 -0.53895378 0
0.41018581 0.37784004 -0.52383614 0
0.48283386 0.28508759 -0.51668644 0
0.48910141 0.18172646 -0.50675917 0
0.47164154 0.48374939 -0.54684687 0
0.51890469 0.37805176 -0.53447056 0
0.56658077 0.2522974 -0.52009654 0
0.57199001 0.20938015 -0.50946474 0
0.58572769 0.10913467 -0.49821758 0
0.60625458 0.46760464 -0.56988168 0
0.57294083 0.39695168 -0.55354691 0
0.62317657 0.30211163 -0.54188704 0
0.63878441 0.26645851 -0.52321935 0
0.72057724 0.13027668 -0.51622581 0
0.68976784 0.075771332 -0.50383353 0
0.71845055 0.39114571 -0.57997918 0
0.70881653 0.32762527 -0.55738449 0
0.76156044 0.22479916 -0.53477335 0
0.80008411 0.44340038 -0.60360098 0
0.80011368 0.39181137 -0.5847044 0
0.82798386 0.30139256 -0.5610621 0
0.88737488 0.16705513 -0.54407167 0
0.94153595 0.39440632 -0.60443211 0
0.94702339 0.30649281 -0.5858407 0
0.9672308 0.21084404 -0.57190371 0
-0.13729858 0.00062656403 -0.30797625 0
-0.085363388 0.10722542 -0.29921889 0
-0.083996773 0.034584045 -0.27651668 0
-0.054503441 -0.058320999 -0.28622985 0
-0.024098396 -0.13057041 -0.29172182 0
-0.0089149475 0.14574432 -0.32156849 0
0.011627197 0.094810486 -0.27804971 0
0.09482193 0.26494122 -0.36643481 0
0.078636169 0.18875504 -0.32815552 0
0.14541721 0.28206825 -0.3763938 0
0.17434788 0.22926617 -0.33179832 0
0.21942139 0.29318428 -0.38723993 0
0.25612831 0.22525978 -0.35316944 0
0.73314285 -0.42988396 0.67475748 0
0.73139858 -0.47113419 0.69098806 0
0.8498621 -0.4992981 0.65755963 0
0.96386909 -0.44895077 0.61590505 0
-0.94863415 -0.23714447 -0.30621862 0
-0.94764709 -0.3379488 -0.29107785 0
-0.90951157 -0.434062 -0.2853651 0
-0.88065052 -0.14267921 -0.32684016 0
-0.85254955 -0.22030544 -0.32417655 0
-0.83889675 -0.29637623 -0.31392288 0
-0.81418324 -0.39178944 -0.30562377 0
-0.79307079 -0.080797195 -0.34263825 0
-0.75158882 -0.19354153 -0.33514977 0
-0.74725151 -0.29108524 -0.3225503 0
-0.71225357 -0.38972855 -0.31287456 0
-0.68419838 -0.48892975 -0.30128741 0
-0.68096542 0.008605957 -0.36708784 0
-0.70761585 -0.066613197 -0.35299873 0
-0.66798687 -0.15251827 -0.3446753 0
-0.64563847 -0.26959991 -0.33212185 0
-0.6082983 -0.37268353 -0.31949425 0
-0.61000824 -0.45594406 -0.3095696 0
-0.61702633 0.048553467 -0.3822186 0
-0.60395145 -0.039833069 -0.37154531 0
-0.58142281 -0.13619423 -0.35582089 0
-0.53922367 -0.21136475 -0.34562159 0
-0.51314259 -0.33507347 -0.33367777 0
-0.50688171 -0.41632462 -0.32097173 0
-0.55652714 0.13909912 -0.39884758 0
-0.53319263 0.067403793 -0.39603257 0
-0.49741554 -0.022267342 -0.38330102 0
-0.47921944 -0.12049389 -0.36690974 0
-0.4623127 -0.19797039 -0.35292268 0
-0.4096508 -0.30811691 -0.34359002 0
-0.40119457 -0.42335606 -0.33071017 0
-0.40913582 -0.47068787 -0.32229662 0
-0.45857906 0.18346882 -0.42225933 0
-0.43466854 0.09348011 -0.40885639 0
-0.39981937 -0.018296242 -0.39135766 0
-0.38580418 -0.10148811 -0.37914753 0
-0.36152267 -0.18875885 -0.36789131 0
-0.3113718 -0.2932415 -0.35988045 0
-0.31765079 -0.39545155 -0.34381628 0
-0.27301025 -0.49438572 -0.33642769 0
-0.37278557 0.30663586 -0.44734573 0
-0.35851669 0.20787907 -0.43564439 0
-0.33565807 0.11765957 -0.42199755 0
-0.32585335 0.040480614 -0.40744901 0
-0.28623295 -0.057869911 -0.39485073 0
-0.26123619 -0.1441021 -0.38868546 0
-0.24129105 -0.21860027 -0.37853551 0
-0.22121143 -0.32980251 -0.36753154 0
-0.29990292 0.43625355 -0.47061706 0
-0.28409386 0.33943844 -0.4612689 0
-0.27086449 0.24043083 -0.44560051 0
-0.25846004 0.14303207 -0.42934775 0
-0.24431515 -0.028561592 -0.4086678 0
-0.19386673 -0.19301796 -0.39045477 0
-0.15047264 -0.25465584 -0.38667202 0
-0.22005558 0.46493149 -0.48985863 0
-0.21416569 0.39081097 -0.47611713 0
-0.17905998 0.29547596 -0.46318984 0
-0.13620853 0.48022175 -0.50269747 0
-0.11481953 0.40294933 -0.49078155 0
-0.091869354 0.30396843 -0.4766798 0
-0.0084352493 0.43686485 -0.51117635 0
-0.0017824173 0.34612179 -0.49439502 0
0.075069427 0.43922806 -0.52008581 0
0.21699619 0.49034882 -0.54285002 0
0.15253353 0.389781 -0.51916528 0
-0.35524178 -0.37836647 -0.33652472 0
-0.29391479 -0.33977127 -0.35092735 0
-0.23739147 -0.42410183 -0.34644008 0
-0.27190685 0.053981781 -0.38949871 0
-0.2363987 -0.082322121 -0.37300968 0
-0.189394 -0.38954926 -0.35827088 0
-0.21939468 0.23074341 -0.42294717 0
-0.23038864 0.13830566 -0.3992486 0
-0.20666218 0.054981232 -0.37418771 0
-0.1819725 -0.029714584 -0.35297751 0
-0.11977768 -0.075749397 -0.32500124 0
-0.1215477 -0.17887115 -0.35650706 0
-0.11300278 -0.31676579 -0.37842989 0
-0.060698509 -0.41985989 -0.37114978 0
-0.099234581 -0.49428177 -0.35963702 0
-0.15771484 0.2477293 -0.43622494 0
-0.14022446 0.18322277 -0.40258121 0
-0.1284399 0.10801411 -0.36005616 0
-0.11754417 0.012429237 -0.32351136 0
-0.062719345 -0.21216297 -0.34333301 0
-0.018990517 -0.39073753 -0.38155198 0
0.057418823 -0.49590015 -0.38193226 0
-0.069262505 0.26900387 -0.45123529 0
-0.038480759 0.20280266 -0.40740538 0
-0.047739029 0.13621998 -0.38582873 0
0.10714912 -0.44628239 -0.39566636 0
0.03045845 0.29415417 -0.45866966 0
0.0358181 0.25104904 -0.42184448 0
0.11838436 0.34171867 -0.48223376 0
0.13050175 0.2774725 -0.42575765 0
0.18295956 0.45731926 -0.52596283 0
0.20946789 0.3591547 -0.51191497 0
0.23638153 0.30233383 -0.46244097 0
0.27854824 0.4733572 -0.53468823 0
0.30578613 0.37266922 -0.51655936 0
0.34045982 0.27421379 -0.48449659 0
0.39449978 0.43263054 -0.53479123 0
0.43061066 0.33163452 -0.51863432 0
0.4505434 0.23857212 -0.50820136 0
0.53030872 0.11820889 -0.50618863 0
0.45569515 0.49113941 -0.54406762 0
0.52094078 0.35335732 -0.53538203 0
0.54650307 0.26801395 -0.51842999 0
0.58383274 0.17730713 -0.50849915 0
0.5850544 0.083508492 -0.4965086 0
0.5956583 0.45476818 -0.56590486 0
0.6139431 0.33638954 -0.54349852 0
0.65106106 0.28176498 -0.52621818 0
0.63006878 0.21935272 -0.51589441 0
0.72255802 0.074150085 -0.51121736 0
0.7085104 0.3754425 -0.57617307 0
0.72608852 0.31668186 -0.55169773 0
0.76883698 0.19423389 -0.53153133 0
0.80498505 0.48835278 -0.61482024 0
0.77674294 0.41191483 -0.60059166 0
0.81458187 0.36855602 -0.58291841 0
0.86275101 0.22866821 -0.56210089 0
0.92985821 0.13377857 -0.54906917 0
0.90653515 0.45657635 -0.61825776 0
0.94666862 0.34756851 -0.59574962 0
0.99114895 0.28313351 -0.57689548 0
0.98065662 0.18566227 -0.5674665 0
-0.074943542 0.09273243 -0.30092478 0
-0.084218025 0.015286446 -0.2778976 0
-0.055002213 -0.084542274 -0.29149866 0
-0.0027828217 0.1936245 -0.35292149 0
-0.0072460175 0.12597179 -0.31832218 0
0.024416924 0.08116436 -0.26579118 0
0.066737175 0.23814487 -0.36730504 0
0.089892387 0.15550137 -0.31268597 0
0.1740284 0.2509346 -0.36306787 0
0.15920258 0.20635986 -0.31438923 0
0.24012089 0.22154427 -0.36143851 0
0.73355293 -0.46950245 0.68234372 0
0.8466301 -0.40192795 0.64341164 0
-0.97712803 -0.304842 -0.29023862 0
-0.95415401 -0.39750385 -0.28239179 0
-0.93811607 -0.49589443 -0.26903272 0
-0.94667816 -0.019498825 -0.33225703 0
-0.91925144 -0.073370934 -0.3320725 0
-0.91563702 -0.15285397 -0.32216716 0
-0.89749813 -0.26364231 -0.30989218 0
-0.85211468 -0.36577034 -0.29738355 0
-0.84888268 -0.46369362 -0.28697324 0
-0.84243965 0.0086555481 -0.35242939 0
-0.8330698 -0.052616119 -0.34288192 0
-0.81861019 -0.14444447 -0.33146381 0
-0.80832672 -0.24741077 -0.3195796 0
-0.76628971 -0.33140659 -0.31201911 0
-0.74980068 -0.42294216 -0.30225611 0
-0.76612186 0.062454224 -0.36731362 0
-0.73818111 -0.014533997 -0.35618067 0
-0.72523689 -0.12606049 -0.33935261 0
-0.70035172 -0.21129131 -0.32980895 0
-0.68432903 -0.33009815 -0.31783056 0
-0.63417149 -0.42044544 -0.3122313 0
-0.68611336 0.16362 -0.38942075 0
-0.66936779 0.071792603 -0.37939596 0
-0.63146019 -0.016577721 -0.37054634 0
-0.64059162 -0.09563446 -0.35282803 0
-0.59511757 -0.17251205 -0.34063005 0
-0.58647346 -0.30042458 -0.32716107 0
-0.53872967 -0.39289093 -0.32044315 0
-0.52592564 -0.48501301 -0.30841756 0
-0.59041977 0.18841839 -0.40830922 0
-0.56967354 0.10696316 -0.39492559 0
-0.56122208 0.011677742 -0.37765527 0
-0.5284338 -0.096795082 -0.36279416 0
-0.50039101 -0.1981287 -0.34963512 0
-0.47729588 -0.28170776 -0.33959675 0
-0.44151688 -0.36021709 -0.32893896 0
-0.45243645 -0.43616295 -0.31562519 0
-0.50040531 0.28887939 -0.4343257 0
-0.52170944 0.23101711 -0.4209857 0
-0.47321033 0.12740612 -0.4085381 0
-0.46010685 0.035543442 -0.39314103 0
-0.42083645 -0.048094749 -0.38071966 0
-0.42045498 -0.1284399 -0.3645947 0
-0.37597942 -0.26221371 -0.35405087 0
-0.3662014 -0.35095787 -0.34242916 0
-0.3305769 -0.44011021 -0.3330934 0
-0.43972683 0.39964294 -0.45217395 0
-0.42128468 0.33774281 -0.44751334 0
-0.42047882 0.24514198 -0.43551373 0
-0.38803387 0.16689491 -0.42057967 0
-0.36121082 0.05330658 -0.40368223 0
-0.34129047 -0.029769897 -0.3894031 0
-0.31771755 -0.12599468 -0.37931323 0
-0.28668785 -0.21111584 -0.37184048 0
-0.27675629 -0.33524418 -0.35534048 0
-0.23647881 -0.42328453 -0.34635925 0
-0.34111404 0.45131493 -0.47449327 0
-0.34319973 0.37058926 -0.46238017 0
-0.31597424 0.29278851 -0.44924927 0
-0.28761482 0.18873215 -0.43284202 0
-0.27944946 0.092997551 -0.41643929 0
-0.27565956 -0.019728661 -0.39882708 0
-0.22766209 -0.15115356 -0.38736367 0
-0.16556454 -0.24384975 -0.38353586 0
-0.19482327 -0.28905964 -0.37520361 0
-0.13254261 -0.35673904 -0.37164736 0
-0.094036102 -0.48746109 -0.35979295 0
-0.26329899 0.49964428 -0.48807979 0
-0.24495602 0.38824558 -0.47056556 0
-0.21418667 0.28580189 -0.45622468 0
-0.20963573 0.21955585 -0.43850207 0
-0.15100574 0.4149971 -0.48649049 0
-0.12970257 0.33336258 -0.47074223 0
-0.047516823 0.44199848 -0.50093675 0
-0.020235062 0.33453083 -0.48711109 0
-0.043570518 0.27592182 -0.47114944 0
0.063680649 0.47088146 -0.5205915 0
0.076070786 0.36249256 -0.50579357 0
0.14797306 0.49048805 -0.52751827 0
0.13537598 0.39785862 -0.51371169 0
-0.24313736 -0.25093651 -0.36585617 0
-0.24719715 0.17470741 -0.4095974 0
-0.24225521 0.098733902 -0.38359189 0
-0.24055767 -0.004281044 -0.36583757 0
-0.19629478 -0.062159538 -0.3476119 0
-0.17895699 -0.34176731 -0.36184263 0
-0.14839172 -0.46324253 -0.34871173 0
-0.17896271 0.21585464 -0.41667724 0
-0.1617403 0.13294697 -0.36694121 0
-0.15065289 0.031061172 -0.33286262 0
-0.14983654 -0.039705276 -0.31719947 0
-0.10487747 -0.16313267 -0.34151936 0
-0.091626167 -0.3013134 -0.38278532 0
-0.028775215 -0.36498356 -0.37854743 0
-0.065141678 -0.44651127 -0.36759615 0
-0.085309982 0.28536797 -0.45928693 0
-0.074411392 0.22691727 -0.41288924 0
-0.078707695 0.15846729 -0.38620257 0
0.074666977 -0.47802448 -0.3852191 0
-0.035678864 0.30895805 -0.45693135 0
0.022706032 0.24252796 -0.41936302 0
0.0074882507 0.17513847 -0.36263084 0
0.076280594 0.33537674 -0.47281957 0
0.098280907 0.29008865 -0.42782807 0
0.17890644 0.37983608 -0.50341511 0
0.19755268 0.29218292 -0.44374585 0
0.26621437 0.42379856 -0.52160311 0
0.28318977 0.31253719 -0.49454451 0
0.36986923 0.44547749 -0.53264618 0
0.39394283 0.34582615 -0.51934314 0
0.41367912 0.27169037 -0.51130557 0
0.45900631 0.17744827 -0.50212502 0
0.45583248 0.47474861 -0.5446856 0
0.49332809 0.36099339 -0.52969027 0
0.52213192 0.24950218 -0.51460195 0
0.55007648 0.17192841 -0.50307894 0
0.5334959 0.094394684 -0.49526334 0
0.61117935 0.022730827 -0.48822832 0
0.53569126 0.47240925 -0.55903697 0
0.5962038 0.34354973 -0.5503366 0
0.61862087 0.28680897 -0.52830029 0
0.66100311 0.16047668 -0.50900197 0
0.61688232 0.12462139 -0.49501967 0
0.67227745 0.39859104 -0.57712126 0
0.70861435 0.34766293 -0.55931306 0
0.72283936 0.205616 -0.52899241 0
0.77880192 0.41502094 -0.5981245 0
0.78244591 0.36193562 -0.58277249 0
0.81680298 0.2681694 -0.56061506 0
0.86107635 0.13856125 -0.53893709 0
0.86790371 0.47054577 -0.61610699 0
0.90349865 0.35100079 -0.59183979 0
0.95906353 0.23239422 -0.57296824 0
0.92032528 0.18998528 -0.55910563 0
0.97873497 0.47395229 -0.62263727 0
0.99296856 0.38812733 -0.6022532 0
0.98575306 0.30269146 -0.5851047 0
-0.11586285 0.091112137 -0.3264966 0
-0.10230541 0.032396317 -0.28365898 0
-0.076212883 -0.070069313 -0.29332542 0
-0.040120125 -0.15331936 -0.301476 0
-0.033730507 0.13525581 -0.32084012 0
-0.026587486 0.071074486 -0.27612305 0
-0.0093946457 -0.11707115 -0.26523614 0
0.06735611 0.25896168 -0.36117673 0
0.057946205 0.16906166 -0.31172466 0
0.049380302 0.10214615 -0.28655291 0
0.11495495 0.26330757 -0.36355376 0
0.14747906 0.20413113 -0.32199717 0
0.2154789 0.2877903 -0.393852 0
0.19990063 0.24996281 -0.34342408 0
0.84681034 -0.44612598 0.65649271 0
0.97402191 -0.40453053 0.61067438 0
-0.94589424 -0.0040483475 -0.33771658 0
-0.95681477 -0.084984779 -0.32273006 0
-0.96600628 -0.19381714 -0.30651975 0
-0.98991108 -0.27653885 -0.29059196 0
-0.99157619 -0.38535404 -0.2764039 0
-0.83594036 0.06894207 -0.36048889 0
-0.85072994 -0.012491226 -0.34835505 0
-0.86331749 -0.10235977 -0.33357453 0
-0.86888695 -0.19548321 -0.32231259 0
-0.87784386 -0.31431675 -0.3045013 0
-0.88999367 -0.44682503 -0.28175664 0
-0.70272255 0.15612888 -0.38838696 0
-0.73815155 0.062391281 -0.37019372 0
-0.76733494 -0.018681526 -0.35310817 0
-0.74906921 -0.11406898 -0.34063148 0
-0.77187538 -0.23242569 -0.3257947 0
-0.78790379 -0.32516003 -0.31416559 0
-0.79626656 -0.41838932 -0.30024266 0
-0.59305668 0.20920849 -0.41222453 0
-0.61973095 0.16656494 -0.4001615 0
-0.62816525 0.067005157 -0.38157678 0
-0.6499052 -0.033847809 -0.36047149 0
-0.66252804 -0.14476681 -0.34271765 0
-0.65973663 -0.24259281 -0.33194804 0
-0.68253708 -0.32893467 -0.31906986 0
-0.6846571 -0.40851974 -0.30903268 0
-0.48684978 0.30818367 -0.43715119 0
-0.51626205 0.22856331 -0.42141747 0
-0.51863289 0.13511372 -0.40574861 0
-0.53360844 0.048217773 -0.3878386 0
-0.55371666 -0.037471771 -0.37077785 0
-0.53381729 -0.16170025 -0.35551739 0
-0.58149147 -0.23073196 -0.33640885 0
-0.57248211 -0.34182072 -0.32465863 0
-0.58069324 -0.43449783 -0.31091499 0
-0.37637711 0.4176836 -0.46421003 0
-0.39447594 0.32728291 -0.44844818 0
-0.43037128 0.2358408 -0.43169284 0
-0.39861679 0.13434315 -0.41523433 0
-0.42999458 0.051980019 -0.40166259 0
-0.44749546 -0.045806885 -0.38170958 0
-0.45176888 -0.14928246 -0.35952687 0
-0.46051311 -0.26236725 -0.34065533 0
-0.48999119 -0.33438873 -0.32731438 0
-0.48728275 -0.43031693 -0.3191402 0
-0.29364395 0.42565155 -0.47554278 0
-0.29487324 0.32145691 -0.45723391 0
-0.3231163 0.229352 -0.43941069 0
-0.33343601 0.13767433 -0.42376876 0
-0.32956982 0.028681755 -0.40313482 0
-0.36906242 -0.070228577 -0.38159037 0
-0.3563385 -0.16907406 -0.36900353 0
-0.35336018 -0.26110554 -0.35556126 0
-0.33859348 -0.3643465 -0.34158254 0
-0.4060955 -0.41431427 -0.32680273 0
-0.195508 0.41267586 -0.47963285 0
-0.21924114 0.30339146 -0.45863557 0
-0.23104382 0.21521282 -0.43638015 0
-0.27085114 0.12121296 -0.42129374 0
-0.25546455 0.031949997 -0.40946937 0
-0.25121593 -0.098256111 -0.39115071 0
-0.26290131 -0.16686249 -0.37785196 0
-0.25977325 -0.25894642 -0.36597252 0
-0.28526592 -0.33122826 -0.35349989 0
-0.29827213 -0.48008919 -0.33202243 0
-0.087795258 0.49323273 -0.50444007 0
-0.093500137 0.39394474 -0.4870801 0
-0.11612797 0.31229591 -0.4705143 0
-0.13972855 0.24251938 -0.45211411 0
-0.153409 -0.22609997 -0.38525271 0
-0.14716053 -0.32454681 -0.37563705 0
-0.20185471 -0.3860836 -0.3545661 0
0.017785072 0.46673203 -0.51614904 0
0.01056385 0.39301777 -0.50081563 0
-0.015521049 0.3117466 -0.47730541 0
-0.077331543 -0.29510403 -0.38426471 0
-0.11126804 -0.49554825 -0.35465026 0
0.10613346 0.47987366 -0.5263567 0
0.083348274 0.36916828 -0.50427151 0
0.093962669 0.27627945 -0.48371434 0
0.21325493 0.4663744 -0.526999 0
0.16570091 0.38230324 -0.51582265 0
0.07773304 -0.4907217 -0.38246632 0
-0.19355965 0.1961298 -0.40789366 0
-0.21871471 0.11073017 -0.38956094 0
-0.22427273 0.0085544586 -0.373353 0
-0.21513939 -0.042887688 -0.36335063 0
-0.09821701 0.27404404 -0.44160199 0
-0.10339546 0.20738125 -0.41101718 0
-0.12688732 0.11975098 -0.36172533 0
-0.13819981 0.0042896271 -0.33694267 0
-0.17056274 -0.063937187 -0.35092998 0
0.0024251938 0.26406956 -0.45136356 0
-0.0055866241 0.21130276 -0.39219141 0
-0.0010175705 0.12523842 -0.35152578 0
-0.065407753 -0.16315651 -0.33757305 0
-0.05286026 -0.39043903 -0.37061119 0
0.12633324 0.34657764 -0.48829722 0
0.095565796 0.27529716 -0.4308145 0
0.06655407 0.21035862 -0.37258005 0
-0.005241394 -0.3448658 -0.38218975 0
0.18984509 0.45108509 -0.52058911 0
0.20746422 0.36482716 -0.49188924 0
0.19600964 0.29944324 -0.43713474 0
0.3164711 0.45900726 -0.53029943 0
0.30051231 0.35145187 -0.50591993 0
0.28440285 0.29788685 -0.45917678 0
0.42697716 0.45392704 -0.53815985 0
0.3996973 0.36689186 -0.52021289 0
0.38555622 0.26498032 -0.51182318 0
0.5170126 0.49638462 -0.56055093 0
0.51563358 0.39572716 -0.53468132 0
0.48243999 0.31145477 -0.52034187 0
0.4529438 0.25761223 -0.51022267 0
0.48299885 0.12526226 -0.49530125 0
0.65709877 0.46636772 -0.5813055 0
0.59358025 0.44004631 -0.56049681 0
0.59377766 0.33647156 -0.53523922 0
0.57841682 0.22199726 -0.51299763 0
0.5561533 0.10920143 -0.50265956 0
0.56601524 0.041021347 -0.49055219 0
0.71261406 0.39180088 -0.57413292 0
0.67056942 0.30212975 -0.53902698 0
0.69377232 0.096570015 -0.50350356 0
0.8085928 0.46620655 -0.60759354 0
0.81901455 0.37358856 -0.57870221 0
0.75026798 0.32580566 -0.55535483 0
0.7846241 0.19418526 -0.53294849 0
0.94244099 0.45122051 -0.6204288 0
0.89134407 0.41197777 -0.60279536 0
0.88749123 0.2894125 -0.5679574 0
0.99941635 0.34466457 -0.59668565 0
0.98472214 0.1803875 -0.56244349 0
-0.08701992 0.10436916 -0.30873537 0
-0.084088326 0.02504158 -0.27614975 0
0.03151989 0.1755352 -0.33355284 0
-0.0022230148 0.099197388 -0.29306149 0
-0.028821945 0.056559563 -0.27371812 0
-0.0047454834 -0.11412811 -0.28304911 0
0.12182808 0.27788639 -0.35755324 0
0.10552311 0.18308163 -0.32167959 0
0.06283474 0.105546 -0.27854276 0
0.20138264 0.26765251 -0.36781836 0
0.19207001 0.20607185 -0.33056664 0
0.26819229 0.25256634 -0.37415361 0
0.73366356 -0.48370457 0.69197011 0
0.86806011 -0.45969582 0.65080285 0
0.99160385 -0.40439987 0.60854864 0
-0.94841385 0.17249775 -0.36399031 0
-0.94500637 0.08657074 -0.35207796 0
-0.96135807 -0.016373634 -0.33551502 0
-0.96800613 -0.12947655 -0.31815147 0
-0.97014809 -0.21164799 -0.30536556 0
-0.98547459 -0.30826759 -0.28942466 0
-0.82719231 0.21794415 -0.38987732 0
-0.83977127 0.16001511 -0.38020658 0
-0.8571043 0.083974838 -0.36395001 0
-0.8470602 -0.031926155 -0.34681916 0
-0.88861752 -0.12809372 -0.33002019 0
-0.8663063 -0.24334431 -0.31710434 0
-0.89347935 -0.34250546 -0.30032945 0
-0.90508747 -0.43778706 -0.28461218 0
-0.92971992 -0.49333382 -0.27314305 0
-0.68253326 0.29322147 -0.42053175 0
-0.73625946 0.24664783 -0.40622425 0
-0.74266911 0.1520462 -0.3863368 0
-0.76712894 0.051793098 -0.36669493 0
-0.75201607 -0.039451599 -0.35262203 0
-0.78970718 -0.14176083 -0.33473873 0
-0.80505562 -0.20874119 -0.32354093 0
-0.79193974 -0.329422 -0.31239462 0
-0.79973698 -0.42507458 -0.30239367 0
-0.60663319 0.34564114 -0.43705177 0
-0.63622189 0.23892307 -0.41758966 0
-0.65017223 0.12777042 -0.394907 0
-0.65431023 0.034628868 -0.38201809 0
-0.6662035 -0.053263664 -0.3629241 0
-0.66602802 -0.15352631 -0.34518409 0
-0.69565964 -0.23914433 -0.33004165 0
-0.68720245 -0.33444023 -0.31668115 0
-0.69776344 -0.41340733 -0.30700779 0
-0.50951004 0.43237209 -0.45846438 0
-0.52321434 0.32646179 -0.44221878 0
-0.54486656 0.23779106 -0.42177701 0
-0.55535316 0.11993122 -0.40351605 0
-0.54586506 0.026695251 -0.38703609 0
-0.57615376 -0.067755699 -0.36707807 0
-0.57079411 -0.16649151 -0.34920621 0
-0.59971714 -0.26974678 -0.33101869 0
-0.57875061 -0.37500954 -0.31878281 0
-0.62297344 -0.44382572 -0.31083512 0
-0.39484406 0.49675846 -0.47940564 0
-0.41669273 0.41322803 -0.46418905 0
-0.43152142 0.315238 -0.44776845 0
-0.43564892 0.23624325 -0.43031883 0
-0.4561367 0.12219429 -0.40995193 0
-0.4471159 0.016853333 -0.39092588 0
-0.47606754 -0.088274002 -0.36924005 0
-0.46429443 -0.17529488 -0.35654807 0
-0.49684429 -0.26224136 -0.33849049 0
-0.51672077 -0.34741783 -0.32898664 0
-0.49182034 -0.47404957 -0.31630588 0
-0.32143211 0.39353275 -0.46802139 0
-0.32800007 0.29839325 -0.45142055 0
-0.33731079 0.21377277 -0.43585277 0
-0.3601656 0.1029911 -0.41572571 0
-0.34657764 -0.0052165985 -0.39670134 0
-0.37747765 -0.078861237 -0.37947321 0
-0.36163139 -0.17312908 -0.36270785 0
-0.40185452 -0.24831581 -0.35228443 0
-0.40857697 -0.37529469 -0.33306265 0
-0.207407 0.49250031 -0.49349189 0
-0.23631573 0.38617229 -0.47371101 0
-0.22490692 0.29317856 -0.4540894 0
-0.25192738 0.20385742 -0.43941736 0
-0.29146671 0.093881607 -0.41771412 0
-0.25817394 0.014157295 -0.40995932 0
-0.26664448 -0.10876274 -0.39131403 0
-0.29177284 -0.18902683 -0.37645054 0
-0.29476738 -0.31221485 -0.35724068 0
-0.28244305 -0.42578793 -0.34119868 0
-0.32589722 -0.49216938 -0.32598996 0
-0.11062813 0.48182774 -0.50302315 0
-0.13244152 0.3644762 -0.48228908 0
-0.13083744 0.30141449 -0.46501875 0
-0.20428753 -0.13320541 -0.39653826 0
-0.20286369 -0.23572731 -0.3785789 0
-0.19690704 -0.39664936 -0.35920548 0
-0.001209259 0.45269871 -0.51162338 0
-0.014968872 0.35896301 -0.48913765 0
-0.059122086 0.29453945 -0.48375964 0
-0.11248302 -0.29579067 -0.37993741 0
-0.13183117 -0.48069191 -0.35456014 0
0.092287064 0.4463768 -0.51822662 0
0.097611427 0.35597134 -0.50489187 0
0.20061207 0.44731331 -0.52844381 0
0.15063286 0.37486362 -0.50967479 0
-0.19244862 0.26110077 -0.42996836 0
-0.22019672 0.19156742 -0.41611576 0
-0.23221207 0.10549927 -0.39079189 0
-0.22426701 0.0017948151 -0.36954451 0
-0.22376728 -0.096843719 -0.36625957 0
-0.12123871 0.26831913 -0.43981743 0
-0.12981796 0.18328762 -0.39393163 0
-0.14074516 0.11196709 -0.35615683 0
-0.15147114 0.00057315826 -0.33744526 0
-0.19137287 -0.055456161 -0.35100269 0
-0.0034484863 0.25283241 -0.43318582 0
-0.033343315 0.17959213 -0.39237761 0
-0.06569767 -0.19699478 -0.33819842 0
-0.082038879 -0.40720177 -0.36717725 0
0.09128952 0.32939053 -0.45999956 0
0.075186729 0.25794888 -0.41452217 0
0.033454895 0.18619633 -0.37286592 0
-0.028844833 -0.36676693 -0.37931085 0
0.17978382 0.33126926 -0.46274281 0
0.19295692 0.2728529 -0.42818594 0
0.32045364 0.49996185 -0.53938055 0
0.29485703 0.4011879 -0.52247405 0
0.27281094 0.32801437 -0.499928 0
0.27592087 0.25904751 -0.44135547 0
0.39027786 0.39167213 -0.52428222 0
0.38916302 0.31127834 -0.51141286 0
0.36493683 0.25246429 -0.50171185 0
0.48614883 0.4124279 -0.54115772 0
0.50241184 0.32417965 -0.52331996 0
0.46151638 0.23428059 -0.50931954 0
0.49088955 0.1327219 -0.49052882 0
0.58962822 0.37104988 -0.55027914 0
0.57528591 0.30656338 -0.51803279 0
0.5498724 0.19255543 -0.50730371 0
0.60419941 0.080255508 -0.49266696 0
0.55530548 0.035470963 -0.47833538 0
0.67192078 0.44624043 -0.57812905 0
0.67879963 0.33112049 -0.54824448 0
0.63915348 0.28041649 -0.53422642 0
0.69339275 0.1855917 -0.51986194 0
0.65638733 0.11052608 -0.50689912 0
0.76108837 0.47622013 -0.60570765 0
0.7743969 0.36945534 -0.57745624 0
0.79556847 0.27673626 -0.5526154 0
0.73399925 0.18368816 -0.5303731 0
0.89249706 0.47139645 -0.61718559 0
0.90085316 0.32739639 -0.58502889 0
0.87675381 0.15253735 -0.54226995 0
0.99605179 0.4567728 -0.60919905 0
0.9936533 0.35204792 -0.59116006 0
0.98517704 0.23295116 -0.57585835 0
0.95439529 0.18647194 -0.56515956 0
-0.10485554 0.10206318 -0.3001585 0
-0.10520649 0.010669708 -0.29105735 0
-0.0036554337 0.16372204 -0.33006072 0
-0.030738831 0.095727921 -0.29109764 0
-0.080572128 0.033193588 -0.26558518 0
-0.032788277 -0.11468506 -0.28565502 0
0.083888054 0.22883797 -0.33735228 0
0.089977264 0.17487621 -0.31210685 0
0.03542614 0.10048199 -0.27137184 0
0.17640495 0.25478745 -0.34968758 0
0.16962814 0.21411514 -0.30772638 0
0.24820232 0.22767639 -0.35202479 0
0.73942089 -0.49453449 0.68530393 0
0.87095833 -0.45171165 0.64624548 0
-0.98668861 0.32261848 -0.37341142 0
-0.91657162 0.30803585 -0.3863399 0
-0.93270206 0.24145699 -0.37320018 0
-0.93914032 0.13683319 -0.35677767 0
-0.97159672 0.028075218 -0.33704615 0
-0.95470619 -0.091147423 -0.32435679 0
-0.95776939 -0.16511631 -0.31135225 0
-0.98120117 -0.24164963 -0.29672384 0
-0.98551178 -0.46610737 -0.26317835 0
-0.76943302 0.37548733 -0.41836762 0
-0.82298374 0.31348038 -0.40125871 0
-0.83008575 0.20650101 -0.38371348 0
-0.82885647 0.12696266 -0.37216854 0
-0.84962845 0.021146774 -0.35220265 0
-0.86144924 -0.069331169 -0.33918786 0
-0.89693165 -0.16882229 -0.32267547 0
-0.87367058 -0.26975727 -0.30965781 0
-0.91167736 -0.36647892 -0.29283762 0
-0.89183712 -0.46670437 -0.28026199 0
-0.70855045 0.39339733 -0.4317205 0
-0.70560551 0.30026245 -0.4172802 0
-0.73004532 0.1985445 -0.39597201 0
-0.74495697 0.090796471 -0.37279296 0
-0.75109386 0.022573471 -0.36070704 0
-0.76110077 -0.098165512 -0.34238458 0
-0.78115368 -0.20077896 -0.32964778 0
-0.77402592 -0.30474186 -0.31824064 0
-0.79230309 -0.40390205 -0.30029559 0
-0.83342266 -0.4423666 -0.29174566 0
-0.59635639 0.44883823 -0.45536566 0
-0.61281681 0.37906742 -0.43973684 0
-0.62878036 0.29640579 -0.42392063 0
-0.61893845 0.18135834 -0.40773249 0
-0.65201283 0.11106777 -0.38588762 0
-0.63702011 -0.0080623627 -0.36792326 0
-0.66253757 -0.088062286 -0.34873366 0
-0.65723991 -0.19619942 -0.33668756 0
-0.68635082 -0.30480099 -0.32388973 0
-0.72875309 -0.38495064 -0.3096385 0
-0.49986744 0.47097301 -0.46530271 0
-0.5185957 0.38331127 -0.44719553 0
-0.5380106 0.27323151 -0.42713046 0
-0.54148293 0.19967175 -0.41028714 0
-0.53533649 0.071606636 -0.38888025 0
-0.56641865 -0.0093507767 -0.37217641 0
-0.56916046 -0.11275959 -0.35614252 0
-0.52826214 -0.23804569 -0.34186459 0
-0.57951736 -0.28093815 -0.33329201 0
-0.58829784 -0.40707588 -0.32029867 0
-0.63481045 -0.45848465 -0.30761623 0
-0.40089607 0.46835136 -0.46697998 0
-0.41612911 0.36105156 -0.45040154 0
-0.43355846 0.26239204 -0.43246651 0
-0.44296837 0.15732098 -0.41282201 0
-0.44503307 0.074455261 -0.39701462 0
-0.45958233 -0.027634621 -0.37873244 0
-0.46726513 -0.12414074 -0.36014414 0
-0.46351624 -0.2290926 -0.34307766 0
-0.51005745 -0.33471012 -0.32865977 0
-0.46931934 -0.43072987 -0.31834793 0
-0.29966545 0.4513073 -0.47707891 0
-0.29760456 0.34097099 -0.45522118 0
-0.3264389 0.26079464 -0.44075871 0
-0.35137558 0.16952324 -0.42214632 0
-0.33351326 0.062299728 -0.40726066 0
-0.36090279 -0.029977798 -0.38819599 0
-0.36434841 -0.14316654 -0.36928749 0
-0.39187908 -0.20256519 -0.35239434 0
-0.36744881 -0.36593342 -0.33769441 0
-0.37539673 -0.45287991 -0.32654381 0
-0.21227741 0.43603706 -0.48152256 0
-0.20914841 0.33840179 -0.46503973 0
-0.2100811 0.24947548 -0.44558501 0
-0.25899792 0.13263893 -0.42440152 0
-0.26753807 -0.026738167 -0.39729142 0
-0.27459431 -0.14769077 -0.37731028 0
-0.26111507 -0.27289677 -0.36082339 0
-0.31344128 -0.31965542 -0.34920669 0
-0.28844166 -0.43945503 -0.33592248 0
-0.094957352 0.44182491 -0.4949646 0
-0.12089348 0.34060097 -0.47081685 0
-0.18441677 -0.14187336 -0.39578581 0
