# .PCD v0.7 - Point Cloud Data file format
VERSION 0.7
FIELDS x y z intensity
SIZE 4 4 4 4
TYPE F F F F
COUNT 1 1 1 1
WIDTH 1293
HEIGHT 1
VIEWPOINT 0 0 0 1 0 0 0
POINTS 1293
DATA ascii
0.7054705 0.15794754 -0.3268435 0
0.82635772 0.18504333 -0.31612802 0
0.93949276 0.15077972 -0.30261779 0
-0.061048925 0.26660347 -0.39673328 0
0.03612417 0.24977303 -0.38600349 0
0.14988345 0.24845123 -0.37697911 0
0.2252593 0.25901127 -0.37100816 0
0.30064827 0.25249481 -0.3618176 0
0.42256087 0.26295757 -0.35286117 0
0.49653691 0.26195717 -0.34675956 0
0.61469525 0.24413395 -0.33350348 0
0.71172863 0.3093729 -0.33010316 0
0.80914861 0.26651382 -0.31553078 0
0.9364351 0.2788353 -0.30425715 0
-0.058562756 0.35916233 -0.39560223 0
0.031920314 0.36057854 -0.39024425 0
0.13134032 0.35057163 -0.37803149 0
0.21823317 0.35755348 -0.37296176 0
0.29161102 0.35564995 -0.36356282 0
0.4246729 0.37533665 -0.3512485 0
0.49527287 0.35800076 -0.34886861 0
0.60455275 0.37437725 -0.33543897 0
0.68174964 0.35768318 -0.32799792 0
0.79100001 0.36108875 -0.31566668 0
0.92621565 0.36076736 -0.30489945 0
-0.084676445 0.446702 -0.39848709 0
0.024163842 0.44346428 -0.38814783 0
0.13888729 0.46965599 -0.37645221 0
0.22902548 0.44121838 -0.36858916 0
0.35179532 0.43501282 -0.35484076 0
0.43554586 0.47262764 -0.34631491 0
0.54417807 0.44763088 -0.33883834 0
0.64595348 0.48419762 -0.32801247 0
0.75881386 0.47833824 -0.31571555 0
0.81448352 0.47283936 -0.32107329 0
0.9064877 0.4324007 -0.30473423 0
-0.2296747 -0.44325542 -0.34010613 0
-0.20436317 -0.46601009 -0.32171023 0
-0.17672592 -0.3624239 -0.33781457 0
-0.14567059 -0.28785419 -0.34047961 0
-0.28786075 -0.47019863 -0.38223577 0
-0.25842017 -0.41756344 -0.39795208 0
0.21259195 -0.43066692 -0.37079322 0
0.27278572 -0.45274067 -0.36986017 0
0.36840981 -0.40697575 -0.35958791 0
0.46658176 -0.42515087 -0.34984124 0
0.52294189 -0.43794727 -0.34461534 0
0.6450454 -0.43877983 -0.33328283 0
0.77224112 -0.41456032 -0.32045937 0
0.90212297 -0.39401913 -0.30843425 0
0.92163211 -0.41454506 -0.31245041 0
-0.21992368 -0.33699417 -0.38362527 0
0.22964281 -0.34172344 -0.37033904 0
0.35153002 -0.36325073 -0.35905063 0
0.43839824 -0.28669739 -0.35558665 0
0.53299212 -0.32960701 -0.34266984 0
0.65198267 -0.32759476 -0.33094096 0
0.7833479 -0.29378796 -0.3189919 0
0.86632293 -0.29234314 -0.31626606 0
0.93107885 -0.31400299 -0.31108737 0
-0.20526201 -0.2429657 -0.40381944 0
-0.14412278 -0.22635651 -0.37136102 0
0.16694373 -0.24485493 -0.38014698 0
0.24515665 -0.23517799 -0.36999118 0
0.3497414 -0.23324966 -0.36297798 0
0.4351033 -0.21403313 -0.35339546 0
0.54782951 -0.22948647 -0.34272885 0
0.67569226 -0.19109154 -0.33188629 0
0.77162921 -0.26296329 -0.31655478 0
0.90432996 -0.20735741 -0.30494833 0
0.9229542 -0.22995281 -0.30808425 0
-0.19852144 -0.12981701 -0.41214418 0
-0.11490166 -0.13875198 -0.38449168 0
-0.065213323 -0.10866261 -0.36620474 0
0.15230709 -0.173563 -0.37638104 0
0.25880402 -0.12353039 -0.37023616 0
0.33522141 -0.13081264 -0.35921073 0
0.4365291 -0.13358784 -0.35248184 0
0.55537277 -0.11414528 -0.34236383 0
0.67126685 -0.1284399 -0.33050036 0
0.78093994 -0.10907555 -0.3162632 0
0.82384163 -0.1298666 -0.32261229 0
0.92025667 -0.10852146 -0.30642509 0
-0.20444202 -0.023747444 -0.41059649 0
-0.12030804 -0.038062096 -0.41029537 0
-0.041154027 -0.023456573 -0.38481927 0
0.18610871 -0.039526939 -0.38003397 0
0.25764674 -0.04642868 -0.36955762 0
0.34520096 -0.017899513 -0.36008692 0
0.4291777 -0.055419922 -0.35096574 0
0.55631155 -0.022733688 -0.34204268 0
0.6783908 -0.025161743 -0.33106184 0
0.79617482 -0.013689041 -0.31817865 0
0.92613208 -0.00023651123 -0.30700612 0
-0.20006979 0.065576553 -0.41152501 0
-0.11306143 0.055244446 -0.40359545 0
-0.015092015 0.048128128 -0.38754678 0
0.026828706 0.082442284 -0.37579823 0
0.18206495 0.072852135 -0.37966251 0
0.25558901 0.053516388 -0.36949849 0
0.34215933 0.089341164 -0.36025596 0
0.4334954 0.061968803 -0.35186267 0
0.55090696 0.067139626 -0.34168291 0
0.66040778 0.046845436 -0.32886744 0
0.79828566 0.092216492 -0.3189404 0
0.90920025 0.06138134 -0.30505514 0
0.91130507 0.12380409 -0.3058517 0
-0.20389181 0.16682339 -0.41252089 0
-0.13794285 0.14383125 -0.40536213 0
-0.048520327 0.17835426 -0.39693284 0
0.052100897 0.16247368 -0.38938594 0
0.15804321 0.17017937 -0.37790704 0
0.25192934 0.1818018 -0.37051511 0
0.36944956 0.14646053 -0.35461473 0
0.42584646 0.19098473 -0.35242653 0
0.55392152 0.19054031 -0.34334755 0
0.67231596 0.16711998 -0.33152866 0
0.77076352 0.19954014 -0.31689715 0
0.81244868 0.19153309 -0.3216815 0
0.91575444 0.20856953 -0.30747867 0
-0.22035819 0.27713871 -0.41337204 0
-0.12890643 0.27906513 -0.40471697 0
-0.036286056 0.26536846 -0.39536428 0
0.066017509 0.26273251 -0.38709617 0
0.13611639 0.25352001 -0.37716079 0
0.25029886 0.26514053 -0.37187028 0
0.33646059 0.26922417 -0.36246419 0
0.43058282 0.27360058 -0.35454202 0
0.54241902 0.27936649 -0.34364867 0
0.66653472 0.29220772 -0.33294845 0
0.7967118 0.28005028 -0.32128882 0
0.92173737 0.30740643 -0.30986905 0
-0.22909284 0.36649609 -0.41539359 0
-0.1396392 0.3811655 -0.40685129 0
-0.025781989 0.38370991 -0.39876533 0
0.059580743 0.36442852 -0.38927007 0
0.1343261 0.36556244 -0.38008285 0
0.25225043 0.36785126 -0.3700664 0
0.32981867 0.38567066 -0.3646059 0
0.42988592 0.37318325 -0.35680413 0
0.51861793 0.3611269 -0.343014 0
0.65244639 0.38584709 -0.33359957 0
0.78046328 0.3465414 -0.3209374 0
0.89020365 0.35800171 -0.30762339 0
-0.3049528 0.48424435 -0.41314459 0
-0.22850376 0.4483242 -0.4134624 0
-0.13223386 0.46690369 -0.4048872 0
-0.021824002 0.47711754 -0.39915705 0
0.032635748 0.47311878 -0.39061642 0
0.12604177 0.47344589 -0.38297701 0
0.21986991 0.4504776 -0.37405324 0
0.37220979 0.47401619 -0.35833788 0
0.50701141 0.428442 -0.34365726 0
0.6272611 0.47727871 -0.33361721 0
0.75098109 0.46581459 -0.32108259 0
0.88398075 0.48338032 -0.31035471 0
-0.23343915 -0.44201183 -0.34121597 0
-0.1854313 -0.34336472 -0.34516108 0
-0.15426278 -0.33845329 -0.33537304 0
-0.39802933 -0.46277905 -0.42831087 0
-0.28462929 -0.44895077 -0.39552987 0
0.24934906 -0.46674156 -0.36954093 0
0.35495484 -0.43885231 -0.35606003 0
0.46146655 -0.45606899 -0.34304845 0
0.48220289 -0.47217369 -0.34746957 0
0.60704988 -0.47240162 -0.33562255 0
0.73708642 -0.42812443 -0.32315803 0
0.88867062 -0.45898724 -0.3087461 0
-0.38922602 -0.37406158 -0.42478907 0
-0.26713353 -0.3590641 -0.39927459 0
-0.21789992 -0.36623478 -0.35811162 0
0.15362912 -0.34789276 -0.37210488 0
0.17299718 -0.37941647 -0.37653399 0
0.31984293 -0.35098171 -0.36203909 0
0.48776656 -0.36300755 -0.34450352 0
0.61961704 -0.35128021 -0.33371377 0
0.73791546 -0.35795784 -0.32115149 0
0.89025396 -0.36340427 -0.30615282 0
-0.3716507 -0.27250195 -0.42388916 0
-0.28922355 -0.26828289 -0.41523695 0
-0.18399763 -0.24602604 -0.38588989 0
-0.12439531 -0.2266283 -0.34852314 0
0.21472442 -0.24312878 -0.37175214 0
0.27615565 -0.287117 -0.36760378 0
0.3892374 -0.24335766 -0.35605216 0
0.50846481 -0.2582922 -0.34524798 0
0.62884361 -0.22721291 -0.33241272 0
0.77098328 -0.25278568 -0.32409215 0
0.90363854 -0.24680138 -0.30591011 0
-0.35955322 -0.14246082 -0.42291272 0
-0.29704779 -0.15585041 -0.42146349 0
-0.19169086 -0.17187691 -0.4033277 0
-0.091946959 -0.14404392 -0.36964595 0
0.17998654 -0.16215801 -0.37237084 0
0.28679895 -0.15676022 -0.36674929 0
0.3808428 -0.14994907 -0.35340905 0
0.50330198 -0.1539793 -0.34288454 0
0.6306091 -0.13218307 -0.3315053 0
0.74099439 -0.16905022 -0.31828284 0
0.77167284 -0.18404579 -0.32299972 0
0.91187549 -0.13202095 -0.30576086 0
-0.36205304 -0.063995361 -0.42189562 0
-0.26059812 -0.076762199 -0.41498423 0
-0.18025386 -0.040584564 -0.4072845 0
-0.090560317 -0.074291229 -0.39356267 0
0.09401679 -0.069583893 -0.38110924 0
0.18921763 -0.074314117 -0.37297773 0
0.27776152 -0.042330742 -0.36462569 0
0.408678 -0.029456139 -0.35654998 0
0.50078273 -0.039569855 -0.3418808 0
0.64196813 -0.04589653 -0.33261371 0
0.76596421 -0.059752464 -0.32113719 0
0.9181518 -0.017278671 -0.30617905 0
-0.35180819 0.047505379 -0.42354167 0
-0.26931626 0.027526855 -0.41892958 0
-0.22154027 0.054286003 -0.41009474 0
-0.099869072 0.04302597 -0.40064764 0
-0.016467512 0.032493591 -0.38536811 0
0.10475755 0.042867661 -0.38261962 0
0.18647349 0.031006813 -0.37265396 0
0.27007103 0.061302185 -0.36390233 0
0.38870233 0.042034149 -0.3540678 0
0.49625474 0.051867485 -0.34157038 0
0.63347751 0.017533302 -0.33149958 0
0.73351067 0.02594471 -0.31685376 0
0.7705825 0.021155357 -0.32167077 0
0.91987652 0.069478989 -0.30658722 0
-0.35749531 0.16482925 -0.42435551 0
-0.29315656 0.14728642 -0.41504228 0
-0.17520601 0.14175987 -0.40671015 0
-0.10179919 0.13097 -0.39908218 0
0.0092001557 0.1566906 -0.39088488 0
0.090377927 0.15322018 -0.38198113 0
0.20423084 0.13750744 -0.369416 0
0.30900764 0.17494869 -0.36976123 0
0.382177 0.15530777 -0.35428262 0
0.50590193 0.16677094 -0.34386897 0
0.63939899 0.15580845 -0.33325076 0
0.73675191 0.19824982 -0.31896186 0
0.76848644 0.15289211 -0.32222986 0
0.92117512 0.15267467 -0.30738997 0
-0.38727671 0.22148323 -0.42238283 0
-0.2725727 0.26225471 -0.41518545 0
-0.18708247 0.23291206 -0.4081645 0
-0.095522046 0.25566387 -0.39861846 0
0.016455948 0.25142193 -0.38464022 0
0.090361297 0.24590302 -0.38360572 0
0.1888054 0.25635338 -0.37586308 0
0.27867007 0.25867844 -0.36763883 0
0.38018936 0.25225258 -0.35565543 0
0.50446439 0.27016163 -0.34539342 0
0.60869306 0.22798157 -0.33063078 0
0.73018396 0.24746418 -0.31902671 0
0.90479881 0.25509167 -0.30678034 0
-0.37744552 0.33277702 -0.42655802 0
-0.2985785 0.34026146 -0.41832924 0
-0.19557381 0.34372902 -0.41035056 0
-0.12907094 0.32655716 -0.39721179 0
0.0030390024 0.35015392 -0.39022803 0
0.1822657 0.37116051 -0.37793326 0
0.29309285 0.34527493 -0.36354256 0
0.38566405 0.33428288 -0.35798717 0
0.49050486 0.3638792 -0.34590888 0
0.61210269 0.34770012 -0.33350658 0
0.73328722 0.34545898 -0.32141161 0
0.8873539 0.35873318 -0.30692983 0
-0.37929398 0.4349308 -0.42462492 0
-0.2810427 0.43618584 -0.41673684 0
-0.18529665 0.4586277 -0.40673256 0
-0.097208798 0.43464756 -0.39851522 0
0.017152429 0.43914604 -0.38752365 0
0.10771191 0.43926716 -0.3787806 0
0.21330291 0.45378971 -0.37192988 0
0.30223656 0.43714237 -0.3632381 0
0.39043385 0.45672131 -0.36156392 0
0.46185398 0.44904041 -0.34523892 0
0.57243836 0.45430756 -0.33218431 0
0.70576471 0.44247532 -0.32100606 0
0.83424133 0.46209908 -0.30409813 0
0.85747713 0.43317413 -0.30563784 0
-0.26079643 -0.46612263 -0.34801626 0
-0.21132529 -0.45137978 -0.3272227 0
-0.18126363 -0.36729336 -0.33898187 0
-0.15401518 -0.29354954 -0.34551382 0
-0.13584346 -0.25421333 -0.34728932 0
-0.55906075 -0.44234562 -0.43991041 0
-0.45704502 -0.44590569 -0.43225801 0
-0.37634563 -0.4518671 -0.42321694 0
-0.28021336 -0.42705727 -0.39885604 0
0.23539734 -0.44431114 -0.36315906 0
0.37629563 -0.43372059 -0.35540009 0
0.49889332 -0.45675278 -0.34586596 0
0.62827551 -0.46207237 -0.32867396 0
0.80457789 -0.43833637 -0.31564116 0
0.98345357 -0.4100771 -0.29939175 0
-0.55365044 -0.34899712 -0.43705058 0
-0.44943184 -0.37174892 -0.4295752 0
-0.38108259 -0.35894394 -0.42251313 0
-0.26666611 -0.34369373 -0.40418112 0
-0.19943798 -0.30777645 -0.36875558 0
0.26965523 -0.34256935 -0.36555898 0
0.38051963 -0.34642696 -0.35318136 0
0.51610786 -0.33140373 -0.34452701 0
0.66247892 -0.32795811 -0.33027434 0
0.81764907 -0.35224915 -0.3152442 0
0.99790347 -0.30813503 -0.29910254 0
-0.57356113 -0.25967121 -0.43888879 0
-0.45189995 -0.25758553 -0.43066037 0
-0.3598057 -0.26190853 -0.42273378 0
-0.25091696 -0.25898457 -0.41226554 0
-0.18674576 -0.24226284 -0.38401103 0
0.15468287 -0.24886036 -0.37355363 0
0.26421916 -0.29206371 -0.36318231 0
0.33638227 -0.21455765 -0.3579874 0
0.44605845 -0.25354862 -0.34628606 0
0.66757113 -0.22642517 -0.32877803 0
0.82123667 -0.24795055 -0.31339955 0
0.97276711 -0.25725842 -0.29406548 0
-0.55978137 -0.15872765 -0.43851018 0
-0.46654934 -0.15563965 -0.42983937 0
-0.35639906 -0.14500046 -0.42072952 0
-0.29002661 -0.154953 -0.41419017 0
-0.16842556 -0.15256214 -0.39846253 0
-0.086937904 -0.11822701 -0.37193966 0
0.16885209 -0.14921665 -0.37395751 0
0.27453732 -0.14962292 -0.36212349 0
0.29411715 -0.17324829 -0.36542618 0
0.39556438 -0.15570736 -0.35150123 0
0.51651156 -0.14467239 -0.34083009 0
0.66552091 -0.12838554 -0.32705569 0
0.82446539 -0.1343298 -0.31222606 0
-0.55026758 -0.041556358 -0.43853807 0
-0.44392598 -0.044852257 -0.42924595 0
-0.3294574 -0.024756432 -0.42338538 0
-0.29446763 -0.056289673 -0.41265774 0
-0.16563278 -0.044296265 -0.40373385 0
-0.06801641 -0.043921471 -0.38069654 0
-0.012337685 -0.0067415237 -0.37196708 0
0.17274618 -0.063627243 -0.3736825 0
0.2635321 -0.025260925 -0.35977292 0
0.28810859 -0.064937592 -0.36331153 0
0.41093302 -0.06436348 -0.35285234 0
0.52452284 -0.037993431 -0.3410635 0
0.65502948 -0.039000511 -0.32497692 0
0.8322081 -0.015552521 -0.31253123 0
0.98321742 -0.083823204 -0.29365325 0
0.99324894 -0.0032739639 -0.29474831 0
-0.55538118 0.051999092 -0.43785179 0
-0.46446806 0.046001434 -0.43046963 0
-0.34278357 0.046354294 -0.42172229 0
-0.25645167 0.057751656 -0.41164362 0
-0.13726765 0.053577423 -0.40242219 0
-0.032883584 0.034327507 -0.38316703 0
0.16704369 0.044995308 -0.37280178 0
0.23105383 0.080456734 -0.36849451 0
0.28839421 0.049337387 -0.36311603 0
0.41576874 0.061494827 -0.35328436 0
0.52358204 0.034748077 -0.34082937 0
0.66130733 0.079945564 -0.32588816 0
0.82215655 0.081744194 -0.31120133 0
-0.55574137 0.15087795 -0.43889666 0
-0.47549301 0.13754082 -0.42997932 0
-0.3789618 0.15081787 -0.42536771 0
-0.27058882 0.16395855 -0.41684484 0
-0.18177676 0.1648283 -0.40559363 0
-0.078873396 0.13657188 -0.39776564 0
0.024281979 0.14714909 -0.38350081 0
0.17002672 0.16305065 -0.37396598 0
0.26586819 0.14904881 -0.36098099 0
0.40373933 0.17467594 -0.35243511 0
0.51842105 0.16370296 -0.34088016 0
0.64711529 0.17510509 -0.32480168 0
0.84897536 0.20224476 -0.31531715 0
-0.56478661 0.24305725 -0.43966365 0
-0.46440005 0.237113 -0.43080616 0
-0.35458934 0.24756145 -0.42290616 0
-0.29130566 0.26339912 -0.41636682 0
-0.17393708 0.26816559 -0.40682197 0
-0.052169085 0.24501801 -0.39470077 0
0.048336685 0.23918343 -0.3836534 0
0.17636722 0.26768494 -0.37618947 0
0.27845871 0.28708458 -0.36442995 0
0.29420483 0.25425434 -0.36567616 0
0.3998751 0.25316906 -0.35296965 0
0.51726341 0.30069542 -0.34252858 0
0.65609539 0.26989651 -0.32704902 0
0.83087099 0.26580238 -0.31381726 0
-0.58054876 0.33237267 -0.43546462 0
-0.45923203 0.33376408 -0.43057799 0
-0.37725145 0.34771252 -0.42304397 0
-0.26017624 0.35460091 -0.41378975 0
-0.15412486 0.35019207 -0.40525365 0
-0.058258116 0.30554676 -0.39079785 0
0.021158159 0.36860466 -0.38794351 0
0.15039182 0.33906841 -0.37476921 0
0.26309717 0.35563278 -0.36412835 0
0.40942347 0.34483147 -0.35565686 0
0.49916637 0.36349964 -0.34168887 0
0.65191978 0.36009884 -0.3282249 0
0.80849713 0.37491035 -0.31315923 0
0.96822572 0.40539455 -0.29603839 0
0.99259776 0.37167263 -0.29803181 0
-0.62756169 0.43455124 -0.43921661 0
-0.57142735 0.45288849 -0.43587732 0
-0.46660137 0.45079994 -0.43333721 0
-0.37269741 0.45877457 -0.42153645 0
-0.25957048 0.43745995 -0.41367435 0
-0.14331692 0.44412518 -0.40367556 0
-0.053103328 0.46042442 -0.39572477 0
0.040018499 0.45183563 -0.38796186 0
0.1488319 0.46421242 -0.37793946 0
0.25534248 0.45493793 -0.36578679 0
0.36019945 0.4647131 -0.35319185 0
0.42632771 0.46027088 -0.34822488 0
0.48829067 0.4501543 -0.34255528 0
0.62599456 0.45624924 -0.32762051 0
0.75872415 0.42053795 -0.30879784 0
-0.25757915 -0.44850445 -0.34772778 0
-0.20004231 -0.44909668 -0.321877 0
-0.23507214 -0.36728287 -0.36524451 0
-0.1658895 -0.33865929 -0.33861077 0
-0.14437598 -0.25952625 -0.35164917 0
0.68947744 -0.49578762 -0.32751846 0
-0.83134097 -0.44993496 -0.45839226 0
-0.74582118 -0.45487499 -0.44925499 0
-0.66195422 -0.44102955 -0.4420234 0
-0.56611609 -0.46045399 -0.43501282 0
-0.48216987 -0.44883919 -0.4276799 0
-0.35919559 -0.47703552 -0.41949081 0
-0.27110708 -0.43189907 -0.40346324 0
0.36687738 -0.43261909 -0.35310221 0
0.50751716 -0.44357014 -0.33773673 0
-0.82679784 -0.36062717 -0.45413983 0
-0.74876797 -0.36166763 -0.45092487 0
-0.65653127 -0.33169079 -0.44279563 0
-0.56822962 -0.35499668 -0.4357214 0
-0.45207757 -0.33713818 -0.42839837 0
-0.37697297 -0.38020229 -0.42134666 0
-0.27293468 -0.34360218 -0.41000247 0
-0.20980281 -0.30953407 -0.40374386 0
0.23761278 -0.36016273 -0.36573637 0
0.36092591 -0.32928181 -0.3493402 0
0.53670686 -0.31735516 -0.3391583 0
-0.76216096 -0.25062847 -0.45163131 0
-0.65979421 -0.26127338 -0.44135571 0
-0.55045789 -0.26717949 -0.43440425 0
-0.45506674 -0.26006413 -0.42551887 0
-0.36423445 -0.26442242 -0.41988802 0
-0.26300663 -0.24664593 -0.40720701 0
-0.18295711 -0.24864197 -0.39404833 0
0.24074066 -0.24793911 -0.36371207 0
0.37028873 -0.22199821 -0.34881091 0
0.53749686 -0.24099827 -0.33783817 0
0.70357323 -0.26791573 -0.32385564 0
0.87577206 -0.20694351 -0.31021738 0
-0.78884941 -0.16782665 -0.44926739 0
-0.64960176 -0.14958858 -0.44066119 0
-0.57036209 -0.18069649 -0.43738496 0
-0.45986581 -0.15219688 -0.42755365 0
-0.35387105 -0.14628506 -0.41922939 0
-0.26669687 -0.15125275 -0.41172707 0
-0.18199492 -0.16551018 -0.3966403 0
-0.093901157 -0.11858368 -0.38031065 0
0.13529778 -0.10639 -0.37320948 0
0.23759723 -0.1548481 -0.36190891 0
0.37720186 -0.14029789 -0.34895968 0
0.70927453 -0.10545063 -0.32271719 0
-0.81492245 -0.032409668 -0.44945812 0
-0.74733984 -0.060306549 -0.45018518 0
-0.63892353 -0.041091919 -0.44491553 0
-0.55919254 -0.050024986 -0.43381357 0
-0.46460176 -0.078483582 -0.42767394 0
-0.34698111 -0.043361664 -0.4194386 0
-0.26585793 -0.050567627 -0.41108572 0
-0.18644762 -0.041827202 -0.40323746 0
-0.078594744 -0.076415062 -0.38210702 0
0.12633198 -0.074786186 -0.37178397 0
0.24525619 -0.071895599 -0.36243653 0
0.38305557 -0.05505085 -0.34928489 0
0.55006588 -0.040413857 -0.3377955 0
0.70662582 0.0011720657 -0.32196593 0
-0.75643128 0.046788216 -0.44950438 0
-0.65840179 0.022706032 -0.44233 0
-0.56509376 0.034106255 -0.43313134 0
-0.43490148 0.056994438 -0.42585492 0
-0.36584318 0.058534622 -0.41718698 0
-0.25727576 0.06217289 -0.41230369 0
-0.1961078 0.054499626 -0.4021492 0
-0.066845357 0.033055305 -0.38981724 0
0.012062252 0.062163353 -0.38195229 0
0.13470316 0.036439896 -0.37293911 0
0.24752909 0.024866104 -0.36265707 0
0.39917654 0.044888496 -0.35143638 0
0.53461558 0.076210022 -0.33581614 0
-0.77082723 0.15120888 -0.44992805 0
-0.66416276 0.12953758 -0.44248569 0
-0.55513144 0.1267643 -0.43384027 0
-0.44128573 0.16995811 -0.42620277 0
-0.36988586 0.15637779 -0.41774487 0
-0.26911813 0.13848114 -0.40723348 0
-0.20000643 0.11220169 -0.40215135 0
-0.089622617 0.14840317 -0.39384413 0
0.027920544 0.14482307 -0.38481426 0
0.15198398 0.15699387 -0.37586546 0
0.25746632 0.14467144 -0.36460114 0
0.37728399 0.15123749 -0.34939861 0
0.39142865 0.16149235 -0.35113931 0
0.54145908 0.17181969 -0.33733511 0
0.69995815 0.18203831 -0.32196546 0
-0.81843066 0.24115372 -0.45291853 0
-0.77001864 0.23926926 -0.45058906 0
-0.66733503 0.23575497 -0.44158101 0
-0.56831282 0.23515797 -0.43551803 0
-0.46116817 0.2520256 -0.4255414 0
-0.37789321 0.23032284 -0.41812015 0
-0.27057099 0.26740074 -0.41345358 0
-0.18955964 0.23971176 -0.40521455 0
-0.093153775 0.24309158 -0.39484835 0
0.023317039 0.25434971 -0.38581371 0
0.13427293 0.23990154 -0.37487245 0
0.24642915 0.23071575 -0.36428881 0
0.39003319 0.27970886 -0.3524859 0
0.51978934 0.23064041 -0.33543706 0
0.69370908 0.29124737 -0.32256699 0
-0.82684916 0.32472992 -0.45440841 0
-0.75034177 0.34661007 -0.44777787 0
-0.65494698 0.35169411 -0.44215631 0
-0.5692277 0.33832645 -0.43586946 0
-0.47286987 0.34718513 -0.42668533 0
-0.38404447 0.34038925 -0.42003727 0
-0.28705925 0.33955669 -0.41337943 0
-0.19386691 0.35379505 -0.40724063 0
-0.10496187 0.32494545 -0.395257 0
-0.0041931272 0.33416843 -0.38443398 0
0.12136137 0.35826969 -0.37569928 0
0.22741461 0.32214832 -0.36373663 0
0.33195633 0.32620907 -0.3468976 0
0.3906213 0.33202457 -0.35347223 0
0.50759119 0.34761143 -0.33609295 0
-0.8314907 0.44879341 -0.4555552 0
-0.78053993 0.42349052 -0.45034838 0
-0.67749542 0.43491936 -0.44253278 0
-0.59649479 0.43257904 -0.43593121 0
-0.48554033 0.45200348 -0.42839551 0
-0.37093323 0.45680046 -0.41905761 0
-0.26525199 0.45477962 -0.41083264 0
-0.1651755 0.43523121 -0.39892077 0
-0.091292083 0.41246414 -0.39886165 0
0.021996677 0.45578861 -0.38292789 0
0.097651422 0.44084454 -0.37534451 0
0.20853305 0.44255161 -0.36461806 0
0.34286594 0.43610859 -0.35063553 0
0.49275774 0.45850563 -0.33707404 0
0.67042041 0.4668951 -0.32365918 0
0.68776667 0.42985344 -0.32464123 0
-0.26601166 -0.45423412 -0.35601389 0
-0.19645262 -0.44019604 -0.31715858 0
0.66350079 -0.45119286 -0.32163692 0
0.82916135 -0.45044041 -0.30783939 0
-0.24371529 -0.37310696 -0.36820149 0
-0.18690842 -0.34295177 -0.34586537 0
0.67701894 -0.36166477 -0.32153654 0
0.84606391 -0.34716034 -0.30806851 0
-0.21395373 -0.28795147 -0.37766194 0
-0.1474517 -0.25648308 -0.35508418 0
0.50569963 -0.19782448 -0.33249164 0
0.68206096 -0.19447803 -0.31957173 0
0.68922323 -0.24399853 -0.3212707 0
0.8689177 -0.26885986 -0.31013608 0
-0.089124322 -0.17882538 -0.3518827 0
0.8559854 -0.14493847 -0.30664992 0
0.6933586 -0.065648079 -0.32027078 0
0.86810887 -0.0094108582 -0.30770206 0
0.68799573 0.071663857 -0.31968665 0
0.85110956 0.064805984 -0.30549955 0
0.66661429 0.19891071 -0.31810522 0
0.84811366 0.15215969 -0.30565882 0
0.84091634 0.27402782 -0.30620217 0
0.66816443 0.33122826 -0.32041717 0
0.81850982 0.35401154 -0.30511689 0
0.81344426 0.45998478 -0.30698204 0
-0.98529541 -0.44374657 -0.46898603 0
-0.93314934 -0.47132206 -0.4666636 0
-0.84021193 -0.45401382 -0.45971119 0
-0.72655618 -0.45092583 -0.4506886 0
-0.61707258 -0.45491505 -0.43997133 0
-0.53464997 -0.47860432 -0.43280566 0
-0.41350061 -0.45089912 -0.42904222 0
-0.31559896 -0.45240593 -0.4138248 0
-0.27107239 -0.45007801 -0.38508546 0
0.28168112 -0.41611576 -0.3639859 0
0.44019896 -0.43512917 -0.3499608 0
0.61753637 -0.40567684 -0.3342756 0
0.63564175 -0.42858505 -0.33798862 0
0.7733894 -0.42192459 -0.3171339 0
0.97998548 -0.43170547 -0.29538655 0
-0.93293417 -0.36790562 -0.46557903 0
-0.81227773 -0.34114933 -0.45925975 0
-0.72535449 -0.3346529 -0.44883823 0
-0.61636978 -0.35723114 -0.4414928 0
-0.50592846 -0.36604786 -0.43318439 0
-0.41550159 -0.36853981 -0.4252311 0
-0.32801741 -0.35092545 -0.41710269 0
-0.2279101 -0.34208488 -0.39102316 0
0.26947433 -0.35957909 -0.36043787 0
0.46026826 -0.33775902 -0.35064816 0
0.59742266 -0.34276962 -0.32959461 0
0.77769619 -0.33706188 -0.31594563 0
0.97981483 -0.34353733 -0.29350066 0
-0.92157191 -0.26101017 -0.46354353 0
-0.80245119 -0.24414539 -0.45755947 0
-0.71186507 -0.27232742 -0.44732475 0
-0.66110396 -0.21801567 -0.44562745 0
-0.52303797 -0.24316025 -0.43532395 0
-0.3981725 -0.25965405 -0.42502677 0
-0.34490353 -0.25206566 -0.41901171 0
-0.20275605 -0.26344681 -0.40771413 0
-0.15041679 -0.21897125 -0.37608361 0
0.28084761 -0.24831486 -0.36002374 0
0.44138587 -0.25972557 -0.34613347 0
0.58986819 -0.26830959 -0.32713962 0
0.76910412 -0.25235748 -0.31320143 0
-0.91161746 -0.14484692 -0.4625901 0
-0.81726527 -0.15280533 -0.45732534 0
-0.72893965 -0.1540451 -0.45065165 0
-0.65082425 -0.16779041 -0.44141948 0
-0.53891557 -0.1451273 -0.43332648 0
-0.43024975 -0.15492439 -0.4254756 0
-0.32285851 -0.13500214 -0.4204483 0
-0.20286995 -0.14383221 -0.40582204 0
-0.12721068 -0.14535141 -0.38560891 0
0.13064444 -0.12085056 -0.37150836 0
0.29154599 -0.13477993 -0.36027527 0
0.44769877 -0.1427145 -0.34564304 0
0.60469073 -0.14158535 -0.32798743 0
0.64208686 -0.1560936 -0.33350062 0
0.7929135 -0.14126015 -0.31554651 0
-0.92866057 -0.060556412 -0.46687996 0
-0.84267956 -0.055671692 -0.45662189 0
-0.74340999 -0.040307999 -0.45266664 0
-0.67240494 -0.07596302 -0.44223118 0
-0.541278 -0.043658257 -0.43545341 0
-0.43466485 -0.028587341 -0.42739058 0
-0.32460213 -0.046367645 -0.41799068 0
-0.18990993 -0.040662766 -0.40691805 0
-0.094860971 -0.061812401 -0.39421868 0
-0.02486223 -0.021886826 -0.37778234 0
0.13589495 -0.038075447 -0.3719852 0
0.28700852 -0.062944412 -0.35923696 0
0.47834224 -0.025889397 -0.34927416 0
0.62987059 -0.023852348 -0.3310256 0
0.7705602 -0.047582626 -0.31202102 0
0.99677718 -0.074712753 -0.29325294 0
-0.91913468 0.042855263 -0.46462655 0
-0.84058142 0.033439636 -0.45705545 0
-0.73337507 0.033026695 -0.44913697 0
-0.62713915 0.036979675 -0.44229412 0
-0.54085636 0.02193737 -0.43551111 0
-0.41410321 0.069558144 -0.4255141 0
-0.31064361 0.057732582 -0.41531384 0
-0.19541669 0.04087925 -0.40632868 0
-0.039472103 0.062987328 -0.38861275 0
0.13232833 0.030572891 -0.37162209 0
0.28767896 0.02038765 -0.35933781 0
0.45963573 0.065024376 -0.34689689 0
0.63009185 0.06302166 -0.33112335 0
0.77988851 0.090446472 -0.31355548 0
-0.93171245 0.15065384 -0.46506751 0
-0.83857572 0.14564228 -0.45844519 0
-0.73592216 0.12376404 -0.449682 0
-0.65945148 0.11168194 -0.44462466 0
-0.55106187 0.1476059 -0.43537199 0
-0.45031482 0.15176964 -0.42964554 0
-0.3102901 0.1696043 -0.41649914 0
-0.23497534 0.14752102 -0.41001177 0
-0.10569537 0.18688965 -0.39444828 0
-0.074491203 0.1517477 -0.39764261 0
0.043410003 0.15727043 -0.38683939 0
0.15862316 0.14388275 -0.37568879 0
0.28914374 0.15951538 -0.36051226 0
0.31386501 0.18809605 -0.36370325 0
0.43485451 0.15499496 -0.34437704 0
0.60975844 0.16324425 -0.32922435 0
0.61710554 0.11327934 -0.32972169 0
-0.92918569 0.25986862 -0.46590614 0
-0.83863634 0.24650574 -0.45827806 0
-0.7409842 0.23677158 -0.45107055 0
-0.63276595 0.23823357 -0.44154537 0
-0.52192277 0.23497868 -0.43448234 0
-0.39654607 0.24812794 -0.42537045 0
-0.31210631 0.24031544 -0.41746664 0
-0.2072221 0.24401474 -0.40721846 0
-0.097966015 0.2734251 -0.39678216 0
0.054437876 0.24452019 -0.38925362 0
0.13809425 0.25915241 -0.37480474 0
0.26802111 0.25042152 -0.35916734 0
0.44698083 0.25755978 -0.34712529 0
0.60653871 0.29085827 -0.33046913 0
0.61493015 0.23153591 -0.33060741 0
0.77546889 0.25453568 -0.31464243 0
0.98399186 0.25557518 -0.29331183 0
-0.98494107 0.37422943 -0.46802902 0
-0.9294917 0.33830547 -0.4672612 0
-0.83484513 0.36250305 -0.45463836 0
-0.73508143 0.34366417 -0.44798219 0
-0.63577479 0.32702923 -0.44076777 0
-0.51265812 0.34653473 -0.43260121 0
-0.43956256 0.34038544 -0.42858982 0
-0.318609 0.33018303 -0.41868734 0
-0.22164762 0.32999134 -0.40747571 0
-0.098757565 0.35507107 -0.39844918 0
0.028102636 0.32050419 -0.38762355 0
0.14063489 0.37913704 -0.37738752 0
0.26768279 0.3429985 -0.3608923 0
0.42371196 0.36066723 -0.34640217 0
0.58292776 0.36563396 -0.32937551 0
0.74797386 0.37274075 -0.31367636 0
0.99049765 0.38202095 -0.29648232 0
-0.93924689 0.43371201 -0.46650696 0
-0.86116034 0.44466782 -0.46213448 0
-0.75199956 0.45787048 -0.44998646 0
-0.62846237 0.45163727 -0.43998384 0
-0.54347086 0.43906307 -0.43216467 0
-0.43319023 0.45105934 -0.42656565 0
-0.3462469 0.43046379 -0.41841459 0
-0.22847998 0.45531082 -0.41015077 0
-0.1159206 0.46621704 -0.39972019 0
0.049977541 0.454422 -0.38539243 0
0.12190914 0.44262314 -0.37701392 0
0.2597217 0.4593277 -0.36278582 0
0.38715732 0.4927063 -0.34580207 0
0.41091412 0.44540787 -0.34699106 0
0.57733136 0.46068382 -0.33100319 0
0.76690018 0.45426083 -0.31755972 0
0.96670198 0.47563362 -0.2960422 0
-0.28683138 -0.49219704 -0.35459626 0
-0.22743785 -0.44702435 -0.33676863 0
-0.1709519 -0.41795731 -0.31758881 0
-0.19907057 -0.35478687 -0.35338914 0
-0.15971619 -0.32027149 -0.34224379 0
-0.1323005 -0.24884987 -0.35551929 0
-0.078961194 -0.17146587 -0.34878135 0
-0.99174607 -0.46193695 -0.46978128 0
-0.8707059 -0.45591831 -0.4606874 0
-0.79278171 -0.47073555 -0.45003986 0
-0.71452332 -0.44118309 -0.4452672 0
-0.58722961 -0.46375656 -0.43518698 0
-0.44097513 -0.45906925 -0.42157876 0
-0.420147 -0.43281746 -0.42414629 0
-0.29619044 -0.45379448 -0.38988829 0
0.36913264 -0.47095966 -0.34927571 0
0.55736852 -0.46145153 -0.3335526 0
0.71769977 -0.43239689 -0.31343317 0
0.95614815 -0.41879845 -0.29293203 0
0.97595388 -0.45280647 -0.29698277 0
-0.94905257 -0.35149288 -0.46433806 0
-0.86334175 -0.36082268 -0.45737743 0
-0.80681276 -0.38145161 -0.44916129 0
-0.704117 -0.36295605 -0.44387877 0
-0.60005271 -0.33401585 -0.43773031 0
-0.50987679 -0.35437107 -0.4295063 0
-0.41930103 -0.34291553 -0.42112994 0
-0.26465744 -0.36276531 -0.39114392 0
-0.22254562 -0.31997204 -0.36929011 0
0.38326484 -0.35215282 -0.34847808 0
0.55548429 -0.35564709 -0.33056688 0
0.75464594 -0.30277538 -0.31655955 0
0.96824104 -0.34365368 -0.29333401 0
-0.99765635 -0.26454926 -0.46715236 0
-0.88465208 -0.24762821 -0.45729685 0
-0.7818262 -0.27295113 -0.44987762 0
-0.68161076 -0.25481319 -0.44428825 0
-0.59890258 -0.24360275 -0.43545818 0
-0.50470454 -0.27217102 -0.42799985 0
-0.39841843 -0.24118233 -0.42197108 0
-0.30143392 -0.2720747 -0.4098177 0
-0.18912882 -0.25048351 -0.38524079 0
-0.13219231 -0.23252106 -0.35552788 0
0.22849745 -0.24712563 -0.3634398 0
0.41916341 -0.20138359 -0.35122085 0
0.56433463 -0.26100731 -0.33023357 0
0.74083751 -0.22923279 -0.31341004 0
0.97824013 -0.23653698 -0.29327464 0
-0.9661237 -0.17467213 -0.46438861 0
-0.89550465 -0.15268135 -0.45831823 0
-0.7692256 -0.17845058 -0.44978321 0
-0.68349981 -0.1681776 -0.44233477 0
-0.59103107 -0.15748596 -0.43520927 0
-0.49418175 -0.18420315 -0.42802036 0
-0.39020109 -0.14902973 -0.4217453 0
-0.28699619 -0.16953182 -0.41036057 0
-0.16589099 -0.16529083 -0.40003741 0
-0.11951208 -0.16662121 -0.36728644 0
0.21972686 -0.17963219 -0.36124277 0
0.39781606 -0.14819431 -0.3474946 0
0.58971512 -0.14213181 -0.33262038 0
0.75119698 -0.1256609 -0.31395531 0
0.98294759 -0.13191032 -0.29294443 0
-0.99394059 -0.056843758 -0.46461606 0
-0.88402766 -0.060295105 -0.45810592 0
-0.7746346 -0.066773415 -0.45116472 0
-0.67592651 -0.047515869 -0.44241893 0
-0.59349966 -0.061665535 -0.43417418 0
-0.48781359 -0.054635048 -0.4278065 0
-0.39077097 -0.062161446 -0.42099357 0
-0.27688301 -0.049733162 -0.4109509 0
-0.16017455 -0.054149628 -0.39992321 0
-0.0635463 -0.074383736 -0.36902046 0
0.23567384 -0.054170609 -0.36275792 0
0.39717215 -0.034052849 -0.34686494 0
0.57926667 -0.037155151 -0.33064389 0
0.73318344 -0.080846786 -0.31123972 0
-0.98514223 0.055643082 -0.46592975 0
-0.88308418 0.065576553 -0.45849776 0
-0.79631811 0.033790588 -0.45282507 0
-0.67846644 0.051169395 -0.44225025 0
-0.5894689 0.046334267 -0.43482935 0
-0.5077948 0.025618553 -0.42526555 0
-0.40360457 0.030763626 -0.41936731 0
-0.28276575 0.036503792 -0.41020453 0
-0.17062277 0.057384491 -0.39870548 0
-0.053161919 0.079078674 -0.38675261 0
-0.017063141 0.028822899 -0.37854719 0
0.21766108 0.034666061 -0.36039376 0
0.38775325 0.071691513 -0.34587836 0
0.57560295 0.0554142 -0.3302362 0
0.76006639 0.078243256 -0.31495857 0
0.77059102 0.022462845 -0.31620502 0
0.98350292 0.042669296 -0.29269886 0
-0.98567361 0.14204597 -0.46421266 0
-0.88551629 0.16112041 -0.46027446 0
-0.79101902 0.13896275 -0.45079136 0
-0.68714583 0.14532948 -0.44219911 0
-0.57721621 0.13129711 -0.43074012 0
-0.49956334 0.12895775 -0.42717052 0
-0.40251893 0.15027618 -0.42051852 0
-0.28267771 0.13444424 -0.41102409 0
-0.17686427 0.14886665 -0.39877486 0
-0.052231669 0.15825367 -0.38765574 0
0.043919742 0.14527607 -0.37335491 0
0.087259769 0.17183971 -0.37845373 0
0.23874718 0.17467308 -0.36406922 0
0.26619172 0.14458275 -0.36716843 0
0.40614665 0.17872715 -0.34899807 0
0.5800631 0.15542698 -0.33145642 0
0.74898875 0.12985325 -0.31385756 0
0.97175211 0.16533756 -0.29189205 0
-0.97283399 0.2375679 -0.46350133 0
-0.85434562 0.25995159 -0.45647538 0
-0.7830106 0.24161148 -0.44935584 0
-0.69133079 0.2475214 -0.44351876 0
-0.60534132 0.22681427 -0.43533814 0
-0.50808191 0.25553894 -0.42827415 0
-0.41113877 0.23748684 -0.4209125 0
-0.2963804 0.24630737 -0.41109824 0
-0.17859221 0.25054073 -0.40013075 0
-0.0715397 0.26743507 -0.38715005 0
0.006598115 0.27548313 -0.38346291 0
0.076424778 0.27219009 -0.37861419 0
0.21742648 0.2400732 -0.36243439 0
0.37570393 0.24125481 -0.3461864 0
0.55791438 0.29483414 -0.33054399 0
0.56281012 0.22668648 -0.33011103 0
0.73730069 0.25403118 -0.31371856 0
0.76107168 0.21715927 -0.31612873 0
0.96776158 0.27354145 -0.29263616 0
-0.98103654 0.32946014 -0.46519685 0
-0.88930553 0.32517147 -0.45474279 0
-0.79761887 0.32904339 -0.45073879 0
-0.71398842 0.35698414 -0.44394422 0
-0.60901958 0.33952045 -0.4375205 0
-0.49927229 0.35007477 -0.42568827 0
-0.40136135 0.35088062 -0.42439818 0
-0.30123895 0.34244251 -0.41264796 0
-0.19979131 0.36365128 -0.40035319 0
-0.067270219 0.35937691 -0.38959098 0
0.053485394 0.35588551 -0.37776017 0
0.18920505 0.32636642 -0.36085963 0
0.36503661 0.32720947 -0.34650636 0
0.54347944 0.344841 -0.32997298 0
0.72138005 0.34777164 -0.31368685 0
0.95320272 0.36637211 -0.29287887 0
-0.97638506 0.45030594 -0.46368217 0
-0.9069609 0.44432259 -0.4602555 0
-0.80575597 0.44550514 -0.44974208 0
-0.69046164 0.43723202 -0.44041538 0
-0.58724558 0.42594337 -0.43047071 0
-0.53412038 0.40031147 -0.4291451 0
-0.43145615 0.44980621 -0.42388368 0
-0.32119185 0.42978191 -0.41282606 0
-0.21872795 0.45436287 -0.40094519 0
-0.075968385 0.43292809 -0.39055705 0
0.033167481 0.45610046 -0.37824941 0
0.1886825 0.45062637 -0.36375403 0
0.35201329 0.45100784 -0.34802628 0
0.36563516 0.40125561 -0.34821153 0
0.54237449 0.45308876 -0.3323977 0
0.72116953 0.46764946 -0.31643844 0
0.91799378 0.4546442 -0.29118133 0
-0.33654463 0.49754906 -0.41327024 0
-0.26257539 -0.4528532 -0.34565687 0
-0.22970045 -0.46382713 -0.32277358 0
-0.17725331 -0.35635185 -0.3346622 0
-0.16811723 -0.29002285 -0.35213041 0
-0.13009828 -0.29909706 -0.32919335 0
-0.99875551 -0.45743465 -0.47364378 0
-0.91823953 -0.45671368 -0.46811545 0
-0.82423592 -0.47178841 -0.46182871 0
-0.72776097 -0.47325516 -0.45448887 0
-0.62776011 -0.45923042 -0.44544327 0
-0.52513194 -0.44108009 -0.43767595 0
-0.39596403 -0.45626736 -0.42913342 0
-0.29719776 -0.46601391 -0.39300704 0
-0.27252567 -0.45650291 -0.39334333 0
0.31175065 -0.49362278 -0.36153078 0
0.32416654 -0.4314003 -0.36166668 0
0.49242467 -0.4719038 -0.34155011 0
0.72097278 -0.43122196 -0.32986414 0
0.95135343 -0.45005798 -0.30532932 0
-0.8995831 -0.35605335 -0.4669956 0
-0.80718094 -0.37229443 -0.46041524 0
-0.71014863 -0.36912823 -0.4530766 0
-0.60812443 -0.34882069 -0.44456804 0
-0.50315267 -0.33760166 -0.43775916 0
-0.39702064 -0.35775471 -0.42549253 0
-0.24471807 -0.34816265 -0.38835204 0
0.32021284 -0.38892651 -0.35982394 0
0.53730237 -0.3413353 -0.34555101 0
0.69663018 -0.37794685 -0.32454658 0
0.93949002 -0.33906078 -0.30091548 0
-0.92514354 -0.264431 -0.46911752 0
-0.80210882 -0.26572037 -0.45791876 0
-0.69073981 -0.25899601 -0.45298719 0
-0.6002385 -0.24613953 -0.44316661 0
-0.49452442 -0.25067139 -0.43688917 0
-0.36308205 -0.23433495 -0.42788279 0
-0.23883039 -0.25236034 -0.40765846 0
-0.15907604 -0.27501965 -0.36093032 0
0.34727967 -0.2690239 -0.36155307 0
0.53246105 -0.26391029 -0.34323025 0
0.70723397 -0.24708176 -0.32383251 0
0.95683622 -0.22251415 -0.30173182 0
-0.92244828 -0.17598438 -0.46770298 0
-0.78100121 -0.16884899 -0.45921969 0
-0.69325823 -0.16655731 -0.45077991 0
-0.5888375 -0.14894199 -0.44325626 0
-0.49608535 -0.19522762 -0.43560815 0
-0.47174042 -0.12024403 -0.43821084 0
-0.36051685 -0.16497993 -0.42716122 0
-0.23785114 -0.12988758 -0.41532278 0
-0.1344294 -0.17512703 -0.38372624 0
0.17058575 -0.1518116 -0.37560785 0
0.34743547 -0.15801239 -0.35999441 0
0.5272525 -0.17872047 -0.34131289 0
0.73094976 -0.12066555 -0.32590199 0
0.96327925 -0.14334965 -0.30185771 0
-0.93178856 -0.050733566 -0.46943176 0
-0.86719692 -0.066058159 -0.46606958 0
-0.73233545 -0.072947502 -0.45480466 0
-0.5978412 -0.038854599 -0.44131982 0
-0.53220415 -0.063754082 -0.4399538 0
-0.46936136 -0.03331852 -0.43793643 0
-0.36563522 -0.083795547 -0.42567718 0
-0.2387622 -0.037442207 -0.41464388 0
-0.11372399 -0.042675018 -0.40229845 0
-0.062232673 -0.068821907 -0.38308275 0
0.16524988 -0.046855927 -0.37424898 0
0.36061138 -0.027398109 -0.36105585 0
0.54064965 -0.040788651 -0.34230709 0
0.72043186 -0.074481964 -0.32414985 0
0.94867378 -0.056272507 -0.29936051 0
-0.92596972 0.021650314 -0.46629786 0
-0.7856704 0.021100998 -0.4575491 0
-0.7319141 0.039621353 -0.45481086 0
-0.59859735 0.028731346 -0.44136989 0
-0.50327671 0.067730904 -0.43374348 0
-0.47861499 0.046111107 -0.43672216 0
-0.35630345 0.019469261 -0.42673337 0
-0.24632674 0.051809311 -0.41379261 0
-0.098962903 0.073970795 -0.40436769 0
-0.028514504 0.016022682 -0.38584375 0
0.17265421 0.046784401 -0.37526631 0
0.34187722 0.038431168 -0.35850096 0
0.55602586 0.076809883 -0.34432769 0
0.74320966 0.056778908 -0.32705855 0
0.98851973 0.094201088 -0.30468607 0
-0.92739487 0.13635635 -0.46875095 0
-0.814601 0.11694622 -0.46086383 0
-0.70381314 0.15830135 -0.44993138 0
-0.62641758 0.13490963 -0.4456048 0
-0.49120903 0.15316105 -0.43606091 0
-0.35944289 0.14114666 -0.42710793 0
-0.24607038 0.1562252 -0.41466737 0
-0.11203814 0.14992619 -0.40328193 0
0.0039179325 0.12135029 -0.38965273 0
0.16576761 0.096726418 -0.37463927 0
0.34958768 0.13624763 -0.36001348 0
0.52873677 0.095597267 -0.34087443 0
0.70868862 0.11299229 -0.32276249 0
0.72067279 0.19167519 -0.3248508 0
0.94919974 0.15648746 -0.2999723 0
-0.94166249 0.24475765 -0.46917152 0
-0.8375867 0.224967 -0.46284544 0
-0.72917408 0.23057365 -0.45434868 0
-0.61911833 0.24223423 -0.44171524 0
-0.53679997 0.20729256 -0.43790996 0
-0.38385201 0.21357918 -0.42518234 0
-0.26447058 0.21233845 -0.41327715 0
-0.12267649 0.21029186 -0.40278554 0
-0.0019414425 0.22921181 -0.39019227 0
0.17862207 0.23436642 -0.37761855 0
0.34766793 0.2631588 -0.36116362 0
0.54178566 0.21737576 -0.34350491 0
0.72400671 0.27218533 -0.32612801 0
0.95486093 0.28931427 -0.3021636 0
-0.93617922 0.32690716 -0.46813047 0
-0.80808574 0.3245554 -0.45988262 0
-0.7229436 0.32348442 -0.45125616 0
-0.61738735 0.34181309 -0.44419956 0
-0.50290984 0.33945656 -0.43814182 0
-0.39152855 0.3373394 -0.42683673 0
-0.36599529 0.28940487 -0.42853308 0
-0.25825077 0.33503342 -0.41637158 0
-0.13592601 0.30829334 -0.40297771 0
-0.01358068 0.30035019 -0.39008307 0
0.15354955 0.35906124 -0.37685275 0
0.32561415 0.34579086 -0.3600657 0
0.53564888 0.35159492 -0.34477925 0
0.67875069 0.3907423 -0.32338619 0
0.71499914 0.33730602 -0.32620168 0
0.93077087 0.32885647 -0.3002131 0
-0.92418009 0.42514324 -0.46791804 0
-0.8286252 0.44285393 -0.46142197 0
-0.73216957 0.44066429 -0.45362711 0
-0.63729638 0.42409897 -0.44438076 0
-0.53831118 0.43527985 -0.43702936 0
-0.41290683 0.42948437 -0.42693424 0
-0.28929913 0.44078159 -0.41579771 0
-0.13643837 0.42814064 -0.40570474 0
-0.032096207 0.43540192 -0.39124179 0
0.022773743 0.40961552 -0.39631057 0
0.14905542 0.44723606 -0.37834859 0
0.29973865 0.44949722 -0.35970402 0
0.32694322 0.42089653 -0.36187434 0
0.48376924 0.4413166 -0.34122682 0
0.6835593 0.4589529 -0.32550192 0
0.93879622 0.43179798 -0.30332184 0
-0.23751128 -0.47136688 -0.33448875 0
-0.21070606 -0.39125919 -0.34338462 0
-0.16059262 -0.29420853 -0.34511375 0
-0.98205805 -0.44571209 -0.46868944 0
-0.88588053 -0.46144676 -0.4623245 0
-0.79597449 -0.47583961 -0.45292425 0
-0.69590718 -0.47798729 -0.44583273 0
-0.59317684 -0.48750305 -0.43225265 0
-0.43658262 -0.45897865 -0.4251281 0
-0.28711748 -0.46557236 -0.38864565 0
0.3506667 -0.461133 -0.353104 0
0.54603666 -0.45535374 -0.33718717 0
0.78972256 -0.41589355 -0.3130126 0
-0.96229076 -0.34859943 -0.46739399 0
-0.87937671 -0.35835075 -0.45827115 0
-0.77662551 -0.38766003 -0.45204544 0
-0.679259 -0.3704071 -0.44369483 0
-0.56381166 -0.38231564 -0.4328419 0
-0.44227666 -0.34436321 -0.41929078 0
-0.41890752 -0.36218548 -0.42400825 0
-0.26502323 -0.38609505 -0.39400327 0
-0.2059027 -0.32372856 -0.37989676 0
0.36088347 -0.36590099 -0.35133266 0
0.53639072 -0.35500717 -0.33176899 0
0.77942544 -0.37313175 -0.3097322 0
-0.95403099 -0.25389481 -0.4653101 0
-0.8469137 -0.23239708 -0.4593699 0
-0.76304746 -0.2829752 -0.45037174 0
-0.65801328 -0.24965191 -0.44306159 0
-0.54216665 -0.29609585 -0.43341315 0
-0.5292992 -0.24140549 -0.43391728 0
-0.40710068 -0.26646805 -0.42280972 0
-0.28601378 -0.27103329 -0.40963757 0
-0.1773172 -0.25740337 -0.38080359 0
-0.10743469 -0.25013065 -0.34410739 0
0.35557783 -0.29262447 -0.34818351 0
0.56341112 -0.26398182 -0.33368301 0
0.7975266 -0.25792503 -0.30951691 0
-0.98770553 -0.15559578 -0.47048283 0
-0.85248333 -0.16751099 -0.45689464 0
-0.76419532 -0.19161797 -0.44771326 0
-0.66848642 -0.18573952 -0.4398247 0
-0.54240686 -0.1714983 -0.43028343 0
-0.39344126 -0.16108513 -0.42253566 0
-0.26082242 -0.16968155 -0.41125298 0
-0.14149463 -0.14366722 -0.39786577 0
-0.087330759 -0.15905857 -0.36310863 0
0.18464953 -0.15148067 -0.36548424 0
0.38787562 -0.16637611 -0.35049081 0
0.57506895 -0.16430187 -0.33328032 0
0.79871774 -0.13099289 -0.30707836 0
-0.98512745 -0.061590195 -0.47068524 0
-0.86529404 -0.035820961 -0.46024108 0
-0.7700206 -0.075953484 -0.4507401 0
-0.64969695 -0.081274033 -0.4410274 0
-0.51482487 -0.053114891 -0.43263209 0
-0.39656836 -0.049319267 -0.4204849 0
-0.24999851 -0.08559227 -0.41150999 0
-0.098811269 -0.075490952 -0.38575125 0
-0.031947076 -0.031533241 -0.37658644 0
0.18580151 -0.064063072 -0.36445475 0
0.38696963 -0.056237221 -0.34860253 0
0.58258349 -0.064446449 -0.33275437 0
-0.93902552 0.021310806 -0.46343803 0
-0.85019231 0.035773277 -0.45528948 0
-0.75502193 0.026535988 -0.44678187 0
-0.64023876 0.039021492 -0.44159174 0
-0.54572457 0.049025536 -0.42795515 0
-0.52033871 0.01184082 -0.43142223 0
-0.37984049 0.048200607 -0.42222166 0
-0.25666803 0.031528473 -0.40958905 0
-0.11437339 0.033970833 -0.39955306 0
-0.014495134 0.022908211 -0.37734818 0
0.19323033 0.06264782 -0.36462283 0
0.40450871 0.069428444 -0.35001683 0
0.58221185 0.033165932 -0.33166814 0
0.82730699 0.032753944 -0.30925369 0
-0.94448298 0.13675308 -0.4631927 0
-0.85300779 0.11641884 -0.45521593 0
-0.73947912 0.13311577 -0.44907665 0
-0.66168296 0.12937069 -0.43904054 0
-0.50522089 0.14768982 -0.4334352 0
-0.38882339 0.106534 -0.42102432 0
-0.25925517 0.13523865 -0.40917397 0
-0.15182263 0.12521553 -0.39446998 0
-0.13150495 0.091129303 -0.39705539 0
0.042218089 0.14380074 -0.38386583 0
0.19542497 0.15789795 -0.36485314 0
0.40328801 0.15116215 -0.34966636 0
0.57610381 0.15673637 -0.33033133 0
0.81813574 0.12940311 -0.30737376 0
-0.99239796 0.2019577 -0.46433532 0
-0.85890001 0.22054577 -0.45569038 0
-0.75708687 0.22937489 -0.44794202 0
-0.69734186 0.2286253 -0.44540477 0
-0.63365197 0.2368269 -0.44340003 0
-0.51906121 0.23065662 -0.43246555 0
-0.40069741 0.19850445 -0.42007828 0
-0.24766707 0.22581863 -0.4111824 0
-0.14653325 0.2402544 -0.3958962 0
-0.11772263 0.22019958 -0.3992753 0
0.043291509 0.22945881 -0.38426971 0
0.19977492 0.25318146 -0.36590099 0
0.38351429 0.25656414 -0.34740353 0
0.59255528 0.27607441 -0.33273697 0
0.84088933 0.25966835 -0.31038141 0
-0.9604007 0.32202816 -0.46434438 0
-0.85963368 0.33737659 -0.45773363 0
-0.74770546 0.334548 -0.45085669 0
-0.66211396 0.32345104 -0.44155145 0
-0.52474958 0.32797241 -0.43314195 0
-0.39371651 0.33885574 -0.42275095 0
-0.25826836 0.32824421 -0.41112351 0
-0.13218182 0.34788895 -0.39896417 0
0.035764277 0.3137598 -0.38411379 0
0.1922999 0.32890701 -0.36573029 0
0.38155216 0.36096191 -0.34830904 0
0.56597394 0.3541069 -0.33036327 0
0.84398115 0.37553501 -0.31176233 0
-0.96779668 0.42441273 -0.46627426 0
-0.87068087 0.44047928 -0.45925546 0
-0.77546591 0.45546055 -0.45084834 0
-0.66865313 0.42481136 -0.44300747 0
-0.55508316 0.45773697 -0.43256521 0
-0.50110108 0.42016125 -0.42925048 0
-0.43113852 0.40618801 -0.4198823 0
-0.26123935 0.43861103 -0.41277242 0
-0.13824213 0.43153286 -0.39970255 0
0.033736885 0.43320656 -0.38558912 0
0.20685136 0.44979858 -0.36910129 0
0.34847975 0.46436691 -0.34637094 0
0.38848799 0.44989586 -0.3505609 0
0.54664707 0.45440578 -0.32974863 0
0.81456727 0.46859074 -0.30977726 0
-0.25679266 -0.48623848 -0.3349297 0
-0.19164729 -0.46424675 -0.31134343 0
-0.18150109 -0.36770535 -0.33924854 0
-0.92189085 -0.47013283 -0.47432411 0
-0.80194092 -0.47144222 -0.46475768 0
-0.69116372 -0.47460556 -0.45143521 0
-0.55849415 -0.49192047 -0.44430137 0
-0.40193838 -0.48068142 -0.43029833 0
-0.27151948 -0.45270252 -0.41310978 0
0.57318568 -0.43667698 -0.3412925 0
-0.90445375 -0.37256432 -0.47063112 0
-0.77938211 -0.36729908 -0.46167469 0
-0.64486778 -0.33510876 -0.45130229 0
-0.51555353 -0.35671711 -0.44345999 0
-0.37825799 -0.37438679 -0.42756784 0
-0.25842595 -0.40684891 -0.41161597 0
-0.23543072 -0.34975147 -0.41160345 0
0.34167516 -0.38078594 -0.36147499 0
0.59311783 -0.358778 -0.33983898 0
-0.99824136 -0.25397778 -0.47653174 0
-0.91216451 -0.31632328 -0.46546602 0
-0.76705867 -0.28276825 -0.45894682 0
-0.64653879 -0.28108501 -0.44772351 0
-0.50916892 -0.25110054 -0.43830347 0
-0.37186885 -0.30945683 -0.42482853 0
-0.34746611 -0.23786736 -0.42570686 0
-0.20759755 -0.2707262 -0.41091514 0
0.38018006 -0.23796558 -0.36026287 0
0.61559796 -0.2617569 -0.33812976 0
-0.9732179 -0.15907288 -0.47680712 0
-0.86212653 -0.18931103 -0.46863782 0
-0.74349207 -0.16309166 -0.45763206 0
-0.61062711 -0.18420315 -0.4497056 0
-0.49340761 -0.17344952 -0.43747616 0
-0.32727468 -0.14919472 -0.42534697 0
-0.18365514 -0.17235947 -0.40873885 0
-0.11671609 -0.14940357 -0.38304353 0
0.3946256 -0.14026356 -0.35773325 0
0.63285875 -0.16414738 -0.3357861 0
0.90836549 -0.16043472 -0.31194305 0
-0.90777147 -0.07798481 -0.47087049 0
-0.84794986 -0.021595955 -0.46517038 0
-0.72532308 -0.043691635 -0.45647788 0
-0.61036015 -0.080198288 -0.44565141 0
-0.47550738 -0.086474419 -0.43719578 0
-0.3148483 -0.044255257 -0.42349768 0
-0.11463267 -0.076321602 -0.39755511 0
-0.044727266 -0.028331757 -0.38612008 0
0.17315841 -0.092485428 -0.37583113 0
0.41847962 -0.060733795 -0.35843849 0
0.65619183 -0.04648304 -0.33433485 0
0.92144471 -0.083097458 -0.31019831 0
-0.90285236 0.0034236908 -0.46948004 0
-0.72807592 0.012681961 -0.45454955 0
-0.59843308 0.043003082 -0.44418848 0
-0.46603537 0.01223278 -0.43567276 0
-0.30812818 0.035227776 -0.42220283 0
-0.16165751 0.017308235 -0.40544033 0
-0.1499117 0.034845352 -0.40699077 0
-0.023386717 0.022165298 -0.38645363 0
0.19030368 0.014198303 -0.37475157 0
0.41973114 0.022693634 -0.35517287 0
0.66912901 0.05272007 -0.33233762 0
-0.96120101 0.12776756 -0.47197628 0
-0.82585651 0.13174057 -0.46573853 0
-0.71169353 0.12542534 -0.45502019 0
-0.58209687 0.14804173 -0.44478559 0
-0.45861852 0.090240479 -0.43496943 0
-0.43935704 0.16245365 -0.43658829 0
-0.29177272 0.12848568 -0.42263258 0
-0.13523936 0.1485405 -0.40643597 0
0.01358813 0.095313072 -0.38862848 0
0.051312327 0.17184162 -0.39148712 0
0.2078402 0.14093113 -0.37380004 0
0.44001907 0.13286018 -0.35483813 0
0.68418086 0.17075062 -0.33073449 0
0.95175761 0.13464832 -0.30580735 0
-0.95015496 0.20429707 -0.47299826 0
-0.82106578 0.25165272 -0.46545076 0
-0.70978111 0.24494076 -0.45415056 0
-0.50746739 0.24845791 -0.44005752 0
-0.44559062 0.20880318 -0.43500066 0
-0.2949062 0.23022842 -0.42050862 0
-0.10858655 0.2623167 -0.40852284 0
0.043768764 0.24839592 -0.38881898 0
0.20990616 0.22687531 -0.37208939 0
0.43508399 0.24463367 -0.35095763 0
0.44760573 0.20155907 -0.35409975 0
0.70800745 0.28960228 -0.33120799 0
0.95336229 0.2041378 -0.30351138 0
-0.93560427 0.30919647 -0.47489786 0
-0.84515345 0.31217003 -0.46230304 0
-0.70803022 0.34179688 -0.45427883 0
-0.58282864 0.32359791 -0.44343114 0
-0.44796741 0.32851887 -0.43378663 0
-0.27715892 0.35564995 -0.42194605 0
-0.12180328 0.35820198 -0.40553761 0
0.052431405 0.34266567 -0.38875055 0
0.23518586 0.32668018 -0.37418628 0
0.4604947 0.35005665 -0.3531177 0
0.69960815 0.35257053 -0.32901931 0
0.97647631 0.34354591 -0.30408835 0
-0.94734579 0.41631985 -0.47426367 0
-0.82411045 0.43549442 -0.46573162 0
-0.7044611 0.45138359 -0.45531869 0
-0.60646498 0.43374538 -0.4407959 0
-0.44919866 0.44278145 -0.43380785 0
-0.29747206 0.42239952 -0.41914701 0
-0.11047751 0.4618206 -0.4066062 0
0.055616796 0.44179916 -0.38841844 0
0.21160358 0.42412472 -0.36983848 0
0.24210578 0.39475918 -0.37459183 0
