# .PCD v0.7 - Point Cloud Data file format
VERSION 0.7
FIELDS x y z intensity
SIZE 4 4 4 4
TYPE F F F F
COUNT 1 1 1 1
WIDTH 1294
HEIGHT 1
VIEWPOINT 0 0 0 1 0 0 0
POINTS 1294
DATA ascii
0.6255908 0.33089638 -0.3359797 0
0.71325183 0.36438656 -0.33378625 0
0.25303578 0.43410397 -0.35824847 0
0.33732677 0.42998505 -0.35272169 0
0.41714668 0.41488361 -0.35187027 0
0.525702 0.41802406 -0.3473129 0
0.63661885 0.4433651 -0.33540103 0
0.71430588 0.40862942 -0.32902202 0
0.23432589 -0.48775864 -0.35552335 0
0.31807566 -0.4727993 -0.35463494 0
0.4078424 -0.49311256 -0.35159382 0
0.51371098 -0.46155262 -0.3468129 0
0.81453371 -0.48563099 -0.33963725 0
0.88884425 -0.45509529 -0.33837554 0
0.19229579 -0.41216278 -0.3568083 0
0.33202577 -0.3774147 -0.35327938 0
0.40805387 -0.37665653 -0.34981513 0
0.50685358 -0.36291885 -0.34627891 0
0.62323189 -0.37128544 -0.34545365 0
0.73217797 -0.37672329 -0.34138691 0
0.82145762 -0.38424206 -0.33652419 0
0.92560744 -0.35438538 -0.33775625 0
0.33427739 -0.3045969 -0.35013479 0
0.42349005 -0.2796154 -0.34969625 0
0.54213476 -0.25230312 -0.34996492 0
0.61143756 -0.26504135 -0.34754914 0
0.71389174 -0.2716198 -0.34354624 0
0.85623527 -0.27773476 -0.3363457 0
0.95013261 -0.28052044 -0.3357451 0
0.52399302 -0.18687725 -0.34734744 0
0.63608623 -0.17275143 -0.34406626 0
0.71033072 -0.1561451 -0.3411954 0
0.79110551 -0.18775082 -0.34102172 0
0.88293529 -0.190732 -0.34023538 0
0.98296118 -0.21165657 -0.33561116 0
0.50727749 -0.096238136 -0.34377113 0
0.64639187 -0.046717644 -0.34312996 0
0.73563004 -0.050976753 -0.34152132 0
0.82162309 -0.068618774 -0.34081203 0
0.90696239 -0.1027565 -0.34050837 0
0.6321702 0.01547718 -0.33806795 0
0.73126554 0.031030655 -0.33989158 0
0.83985829 0.012037277 -0.34084386 0
0.94820929 0.020152092 -0.34217629 0
0.72595811 0.14950943 -0.33852798 0
0.85535908 0.11802959 -0.3393822 0
0.99112773 0.13509083 -0.32887328 0
0.72674084 0.26563644 -0.32684395 0
0.81751537 0.23458481 -0.31748712 0
0.92204261 0.21313763 -0.30751178 0
0.97799945 0.24771976 -0.26480839 0
0.75974751 0.29452896 -0.31154442 0
0.83253837 0.34351254 -0.31883079 0
0.92450285 0.31254482 -0.30186141 0
0.99926305 0.35376263 -0.31527275 0
0.82475185 0.44368744 -0.3227002 0
0.91748857 0.40757084 -0.31934729 0
-0.069680929 -0.47817898 -0.37759641 0
-0.0059883595 -0.46583271 -0.37490013 0
-0.052430391 -0.36597919 -0.3771396 0
-0.0041217804 -0.38237953 -0.37263384 0
0.00039076805 -0.27581787 -0.37441629 0
0.11394548 -0.28500652 -0.36993796 0
0.20043945 -0.23413372 -0.36973435 0
0.02183485 -0.1686964 -0.37460366 0
0.1154635 -0.1889534 -0.36982483 0
0.2129271 -0.17924404 -0.36733553 0
0.02803731 -0.080505371 -0.3712973 0
0.10421324 -0.083695412 -0.36873621 0
0.18922424 -0.07681942 -0.36615553 0
0.027865648 0.025583267 -0.3716031 0
0.10122228 0.015834808 -0.36837631 0
0.22036123 0.02027607 -0.36413172 0
0.314363 0.039740562 -0.3599011 0
0.024628401 0.14216042 -0.36520702 0
0.12303901 0.11895561 -0.36665764 0
0.23237824 0.1259346 -0.36315274 0
0.31185317 0.14912605 -0.3603386 0
0.39368105 0.12376118 -0.35871211 0
0.46730042 0.14996433 -0.35680178 0
0.01215148 0.20878315 -0.35849357 0
0.11821198 0.23513985 -0.36394608 0
0.22361302 0.2203207 -0.36198416 0
0.31536961 0.24862957 -0.36068264 0
0.40240121 0.21351528 -0.35770008 0
0.4713676 0.21543884 -0.35433891 0
0.015161753 0.32364941 -0.36051807 0
0.11265874 0.32871914 -0.36175051 0
0.20955849 0.31854725 -0.36168441 0
0.30471635 0.3239994 -0.35936707 0
0.41022348 0.31351185 -0.35776424 0
0.51424003 0.30863857 -0.35371763 0
0.028015137 0.42605305 -0.35538012 0
0.11694145 0.42741871 -0.35872343 0
0.21609664 0.4263792 -0.35911137 0
0.30642867 0.42939281 -0.3599796 0
0.41250134 0.40621281 -0.35681337 0
0.50901341 0.41596127 -0.35409179 0
0.41154695 0.49367714 -0.35572401 0
0.03150177 -0.48967648 -0.36804682 0
0.10586667 -0.48107433 -0.36826253 0
0.22138596 -0.47588921 -0.36509922 0
0.30402732 -0.47653294 -0.358661 0
0.39941859 -0.47796059 -0.35621634 0
0.52890611 -0.46685982 -0.35334939 0
0.63184285 -0.48773861 -0.34727108 0
0.72663617 -0.46740723 -0.34612405 0
0.83224869 -0.47465229 -0.34252578 0
0.94663072 -0.47102547 -0.34365138 0
0.045953989 -0.39172745 -0.36913329 0
0.10857773 -0.39205265 -0.36598191 0
0.21650887 -0.39299488 -0.3614777 0
0.3045125 -0.37115383 -0.36020967 0
0.40038586 -0.3462534 -0.35613889 0
0.49262691 -0.38796806 -0.35255152 0
0.60281181 -0.40300369 -0.34865192 0
0.68391514 -0.33850193 -0.35423011 0
0.76438403 -0.36166382 -0.34604993 0
0.86924267 -0.37130356 -0.34431243 0
0.97761607 -0.38930225 -0.3418138 0
0.12567592 -0.3052206 -0.36694425 0
0.20160794 -0.30324936 -0.36616144 0
0.29494572 -0.27175236 -0.36128962 0
0.40073681 -0.26494122 -0.3560802 0
0.52381587 -0.28544807 -0.3502048 0
0.61168098 -0.2843132 -0.35013115 0
0.69641376 -0.30026913 -0.3474952 0
0.79073477 -0.28094196 -0.3448191 0
0.89606476 -0.29168034 -0.34233987 0
0.21044397 -0.17846775 -0.36382127 0
0.29642987 -0.17126751 -0.35956755 0
0.423769 -0.19332886 -0.35496292 0
0.51481175 -0.16955376 -0.35268921 0
0.64345145 -0.17585754 -0.35070646 0
0.72846818 -0.19302273 -0.34701928 0
0.81784391 -0.19044685 -0.34475765 0
0.9281528 -0.18614483 -0.34127194 0
0.22037649 -0.11975479 -0.36019498 0
0.3280437 -0.072592735 -0.35894391 0
0.40319395 -0.066907883 -0.35688174 0
0.49668241 -0.068518639 -0.35390079 0
0.61840177 -0.099416733 -0.35015529 0
0.73044801 -0.072814941 -0.34948057 0
0.8256731 -0.075864792 -0.34416097 0
0.96532226 -0.058755875 -0.34584185 0
0.40662813 0.0051841736 -0.35416886 0
0.51287317 0.030049324 -0.3523314 0
0.59694815 0.0089836121 -0.35141146 0
0.69027257 0.041273117 -0.34748656 0
0.77947402 0.009352684 -0.34731421 0
0.87866163 0.047847748 -0.34631866 0
0.99895906 0.016579628 -0.34577754 0
0.45452189 0.076504707 -0.35483891 0
0.52357626 0.10754967 -0.35168603 0
0.61025834 0.11253262 -0.34954798 0
0.70942831 0.14983463 -0.34997383 0
0.79807711 0.11101341 -0.34858373 0
0.88502455 0.11604977 -0.34146658 0
0.53694224 0.21262264 -0.35161826 0
0.62527871 0.22869396 -0.35054645 0
0.70629811 0.20357037 -0.34366015 0
0.80145288 0.22453213 -0.33677712 0
0.91005921 0.21868134 -0.32728121 0
0.63384199 0.33328342 -0.34923568 0
0.7153039 0.3219986 -0.33597657 0
0.82099462 0.30608082 -0.32085136 0
0.95979118 0.27080059 -0.30352131 0
0.63638568 0.40738773 -0.34748226 0
0.69954753 0.43214893 -0.33744004 0
0.80466056 0.42267895 -0.32859054 0
0.91237307 0.40292358 -0.32747567 0
0.99153948 0.44845009 -0.32811353 0
-0.27045441 -0.46892548 -0.38142315 0
-0.19273829 -0.46719456 -0.37859043 0
-0.10553837 -0.46975803 -0.37597272 0
-0.21354675 -0.36575317 -0.37771249 0
-0.1052475 -0.38802052 -0.37368977 0
-0.0033166409 -0.36887264 -0.37427557 0
-0.19490027 -0.27912426 -0.37930956 0
-0.11090565 -0.25337029 -0.37688324 0
-0.018835545 -0.26963997 -0.37205413 0
0.07826972 -0.26770306 -0.36796108 0
0.15122843 -0.2485714 -0.36960629 0
-0.19789982 -0.17934799 -0.37415811 0
-0.10866213 -0.17192936 -0.37449002 0
0.0061817169 -0.15778923 -0.37428203 0
0.093195438 -0.14739037 -0.36929545 0
0.17237616 -0.16004848 -0.36551222 0
-0.18214679 -0.055348396 -0.37009147 0
-0.094165087 -0.06449604 -0.3708505 0
-0.015108824 -0.074913025 -0.37283486 0
0.081329584 -0.067652702 -0.36792567 0
0.19171834 -0.063770294 -0.36250126 0
0.27179337 -0.047408104 -0.36857259 0
-0.18265104 0.029275894 -0.36305687 0
-0.10646534 0.035141945 -0.37111226 0
-0.013859272 0.044740677 -0.36851197 0
0.1087501 0.033465385 -0.36574891 0
0.17980552 0.045906067 -0.36491555 0
0.28084469 0.026184082 -0.36179525 0
0.35436583 0.073405266 -0.35754207 0
-0.17881298 0.14457417 -0.36075318 0
-0.10832715 0.13468838 -0.36493218 0
-0.012708664 0.12630272 -0.36495963 0
0.088304996 0.11553574 -0.3677302 0
0.18492937 0.1268959 -0.35964838 0
0.29513288 0.13203144 -0.35892025 0
0.36811757 0.1465044 -0.3591544 0
0.45122838 0.14575768 -0.35516125 0
-0.17423701 0.21433544 -0.36158592 0
-0.109689 0.25098038 -0.36169621 0
0.0020756721 0.23331261 -0.36416495 0
0.083486319 0.22554398 -0.36146995 0
0.19662762 0.23064804 -0.36010313 0
0.30635047 0.22875309 -0.35790306 0
0.3712194 0.20536041 -0.35508889 0
0.46146011 0.22569752 -0.35378137 0
-0.18187857 0.32549477 -0.35791022 0
-0.10655475 0.32690716 -0.35593423 0
-0.020584345 0.3254118 -0.36094782 0
0.077372551 0.35813046 -0.35751516 0
0.20828867 0.321702 -0.35936376 0
0.31899548 0.34292984 -0.35908684 0
0.38951159 0.34249592 -0.35749832 0
0.46820641 0.31622791 -0.35091844 0
0.56561565 0.362957 -0.34932971 0
-0.18656707 0.44553566 -0.35170323 0
-0.10188937 0.43989754 -0.35293964 0
-0.0083556175 0.43881702 -0.35597408 0
0.10394311 0.44096375 -0.35277691 0
0.19308639 0.42606926 -0.35580477 0
0.30120444 0.43855953 -0.35719633 0
0.39528728 0.43866062 -0.3565985 0
0.47631693 0.44013691 -0.34938565 0
0.56893015 0.43934155 -0.34683913 0
-0.023472071 -0.48829651 -0.36802518 0
0.075716496 -0.4836092 -0.3693321 0
0.18871522 -0.45124245 -0.36437193 0
0.29273057 -0.48006248 -0.35936335 0
0.37483406 -0.48531914 -0.35795921 0
0.47189617 -0.45448685 -0.35538962 0
0.56438899 -0.4416647 -0.34891152 0
0.66528821 -0.46692371 -0.34566244 0
0.78188181 -0.46825886 -0.34236354 0
0.90356565 -0.4789753 -0.33706313 0
0.033935785 -0.41486549 -0.36804622 0
0.0886724 -0.36750793 -0.36822912 0
0.20739746 -0.37482357 -0.36245388 0
0.3317101 -0.36352539 -0.36074576 0
0.41074395 -0.37986374 -0.35721087 0
0.49437404 -0.38917637 -0.35162324 0
0.59386873 -0.36072254 -0.34829092 0
0.70327449 -0.36506557 -0.34361666 0
0.82740927 -0.34418392 -0.34582815 0
0.93144655 -0.40601444 -0.33726573 0
0.95420218 -0.34322166 -0.33810002 0
0.1362586 -0.29917336 -0.36824778 0
0.19177532 -0.26210594 -0.36361018 0
0.2737205 -0.28450871 -0.36058024 0
0.39058471 -0.27670765 -0.35406372 0
0.49930596 -0.28320217 -0.35188594 0
0.58692169 -0.24651527 -0.35249779 0
0.73871398 -0.26086712 -0.34534967 0
0.85911775 -0.25329018 -0.34469134 0
0.98062277 -0.27282524 -0.33772868 0
0.23645425 -0.18298912 -0.36401719 0
0.28955269 -0.16189575 -0.35985252 0
0.38343644 -0.1799345 -0.35624129 0
0.46806431 -0.18293571 -0.35114285 0
0.5671072 -0.16007423 -0.34988573 0
0.64824605 -0.19372559 -0.3489444 0
0.7614398 -0.18877792 -0.34469977 0
0.8942883 -0.14376163 -0.34268492 0
0.3102417 -0.064062119 -0.3571538 0
0.40974164 -0.065094948 -0.35414153 0
0.50074625 -0.061698914 -0.35245621 0
0.59538913 -0.053025246 -0.34861457 0
0.68551254 -0.061484337 -0.34797198 0
0.78376317 -0.11081696 -0.34207809 0
0.91502786 -0.073073387 -0.34160697 0
0.33269453 -0.014305115 -0.35180289 0
0.43018723 0.028888702 -0.35496712 0
0.52136183 0.054238319 -0.34931394 0
0.61531138 0.037355423 -0.34863371 0
0.70472407 0.018173218 -0.34595913 0
0.81810427 0.019274712 -0.34290516 0
0.93250942 -0.011920929 -0.34267271 0
0.96623373 0.05406189 -0.34446824 0
0.44167542 0.083100319 -0.3562884 0
0.53612089 0.12633228 -0.3520616 0
0.62903786 0.12711716 -0.34722462 0
0.725986 0.13382626 -0.34664825 0
0.83774161 0.13351154 -0.33967903 0
0.9818027 0.15141582 -0.34205073 0
0.54467511 0.25225544 -0.3438279 0
0.58758616 0.2024374 -0.34447622 0
0.73459768 0.27658176 -0.3429029 0
0.78376508 0.23350048 -0.33517525 0
0.88801837 0.20297813 -0.31845513 0
0.9740777 0.22883415 -0.29090023 0
0.62924314 0.33293629 -0.33665785 0
0.69167852 0.327878 -0.33899933 0
0.78947949 0.33783054 -0.3207891 0
0.88675857 0.30350208 -0.30985004 0
0.69883442 0.43918705 -0.33712837 0
0.8233819 0.46048069 -0.32532156 0
0.91924858 0.39116764 -0.3218751 0
0.95012569 0.45382118 -0.32691196 0
-0.440943 -0.48158169 -0.36973184 0
-0.3815484 -0.46489334 -0.3723774 0
-0.28264928 -0.47034931 -0.3733024 0
-0.17747998 -0.46948051 -0.37063742 0
-0.086577892 -0.44449329 -0.36899167 0
-0.38088012 -0.36215401 -0.36878359 0
-0.26082468 -0.37818527 -0.37252769 0
-0.17184925 -0.35995579 -0.37135178 0
-0.072885513 -0.38197994 -0.36831266 0
-0.015054941 -0.3251276 -0.36876187 0
-0.38394642 -0.26456165 -0.36666209 0
-0.28267479 -0.26357841 -0.36933002 0
-0.17341352 -0.2784481 -0.37044299 0
-0.077976227 -0.25849056 -0.3655366 0
-0.0037760735 -0.28135777 -0.36433399 0
0.072412491 -0.25660038 -0.36175177 0
-0.36894751 -0.17617607 -0.36342987 0
-0.27462292 -0.18033886 -0.36448184 0
-0.17137861 -0.15096474 -0.36651212 0
-0.088186741 -0.17542553 -0.36648604 0
0.027440548 -0.16090584 -0.36460853 0
0.11023331 -0.17235184 -0.3606801 0
-0.35656214 -0.080227852 -0.36072803 0
-0.29550982 -0.09299469 -0.36108014 0
-0.19404054 -0.078316689 -0.36454806 0
-0.079871893 -0.089243889 -0.36511913 0
0.0095596313 -0.075173378 -0.36182296 0
0.11111736 -0.081670761 -0.35711312 0
0.18206978 -0.068321228 -0.35706633 0
-0.34960032 0.011244774 -0.35772249 0
-0.28366232 0.030996323 -0.35879335 0
-0.18958068 0.018693924 -0.35913047 0
-0.094249249 0.0031528473 -0.35924098 0
0.028250456 0.035728455 -0.36201027 0
0.13544416 0.03574276 -0.35904872 0
0.19934249 0.03435421 -0.35386679 0
-0.34618688 0.1088419 -0.35483781 0
-0.28445053 0.13288021 -0.35369703 0
-0.18283129 0.13209915 -0.35719374 0
-0.086539984 0.12201881 -0.35730255 0
0.023151398 0.10949707 -0.35815838 0
0.12743068 0.13147831 -0.35634169 0
0.21701026 0.14268875 -0.35433048 0
0.29816771 0.12193775 -0.3508158 0
0.3853457 0.089263916 -0.35267299 0
-0.34412503 0.22347641 -0.35296389 0
-0.28487849 0.21945763 -0.35161453 0
-0.1828866 0.21960735 -0.35265145 0
-0.088351965 0.22618675 -0.35339001 0
0.018636942 0.24614143 -0.35157585 0
0.12084103 0.23644543 -0.35792667 0
0.22964001 0.24530983 -0.35390335 0
0.31544447 0.22510719 -0.3526426 0
0.40171885 0.22162819 -0.3480801 0
-0.3556819 0.33437061 -0.3477321 0
-0.26712441 0.31417847 -0.34701115 0
-0.18068552 0.31831264 -0.35011965 0
-0.10251117 0.32688999 -0.34634486 0
0.01407361 0.34025383 -0.35104731 0
0.15607142 0.32301903 -0.35265625 0
0.23957634 0.33785915 -0.35443872 0
0.32244611 0.30255795 -0.35105252 0
0.41522932 0.31783009 -0.34884015 0
0.50692391 0.33887768 -0.34357923 0
-0.36332154 0.43879414 -0.34653026 0
-0.27288699 0.44850349 -0.34638786 0
-0.16835237 0.42289543 -0.34698591 0
-0.0844841 0.439394 -0.34657168 0
0.030956984 0.42840004 -0.34932852 0
0.14768171 0.44756794 -0.34877959 0
0.2154212 0.40136623 -0.35428083 0
0.33470297 0.42263031 -0.35196367 0
0.42473197 0.41098022 -0.34873405 0
0.51323438 0.42736721 -0.34161481 0
0.22851038 0.49469185 -0.34828734 0
0.42701221 0.49086189 -0.34609193 0
0.023752451 -0.46865368 -0.36231175 0
0.11782646 -0.45725632 -0.35869789 0
0.23898745 -0.47029877 -0.35329619 0
0.40641761 -0.48297787 -0.3422142 0
0.51570559 -0.46821594 -0.34345579 0
0.62568808 -0.48472118 -0.34106818 0
0.7504034 -0.4881897 -0.33373326 0
0.86760712 -0.49002647 -0.3357541 0
0.039885044 -0.36781502 -0.36003655 0
0.095981121 -0.39872932 -0.3586829 0
0.21491647 -0.37116432 -0.35699698 0
0.33687401 -0.36932659 -0.35142091 0
0.43435121 -0.39770031 -0.34401071 0
0.55322409 -0.36557007 -0.34063563 0
0.65728068 -0.40184689 -0.33951929 0
0.7953186 -0.3650198 -0.33656904 0
0.90026021 -0.40518188 -0.33624402 0
0.056324005 -0.31108952 -0.35911515 0
0.12863493 -0.28977203 -0.35932863 0
0.21845651 -0.26216602 -0.3563996 0
0.29701138 -0.28264618 -0.35121396 0
0.43268752 -0.31106949 -0.34587058 0
0.48474646 -0.23607159 -0.34657833 0
0.58260465 -0.2766304 -0.34022897 0
0.70201874 -0.27207565 -0.33977434 0
0.8241713 -0.28274536 -0.32880515 0
0.93671179 -0.30635357 -0.33530039 0
0.14675069 -0.22065449 -0.35731968 0
0.23951674 -0.17670059 -0.35306385 0
0.32954121 -0.16462135 -0.3528496 0
0.4059155 -0.19859505 -0.34523171 0
0.50051951 -0.18247032 -0.34517625 0
0.61150861 -0.18304729 -0.3399289 0
0.73148751 -0.17926502 -0.33806539 0
0.85262489 -0.19504833 -0.33416811 0
0.96564555 -0.22276688 -0.33557221 0
0.22618437 -0.1091404 -0.35152474 0
0.3526113 -0.06252861 -0.35089979 0
0.43881607 -0.069090843 -0.34447539 0
0.52496195 -0.092655182 -0.34372008 0
0.63184667 -0.11057377 -0.33924925 0
0.750741 -0.1132164 -0.33729833 0
0.890728 -0.06892395 -0.33400568 0
0.31025887 0.0081787109 -0.34677437 0
0.46533442 0.051373482 -0.34707254 0
0.55041218 0.029548645 -0.34135142 0
0.65855885 -0.0089235306 -0.33985719 0
0.67316508 0.067004204 -0.33876103 0
0.78786182 0.025832176 -0.33791953 0
0.91447353 0.0046167374 -0.33253154 0
0.42668986 0.11198711 -0.34396541 0
0.53785968 0.12900829 -0.34266555 0
0.68192577 0.1156826 -0.3388961 0
0.80694199 0.13674259 -0.33439299 0
0.96452975 0.13471317 -0.32496011 0
0.97853637 0.14014816 -0.34168974 0
0.4903276 0.2310009 -0.34202182 0
0.5811739 0.22236156 -0.34087086 0
0.71196365 0.23140812 -0.33336601 0
0.8179481 0.22202396 -0.31282333 0
0.93156004 0.21942616 -0.29798561 0
0.99842262 0.26055717 -0.28404948 0
0.61215758 0.32054615 -0.33761007 0
0.76368546 0.31942654 -0.31933862 0
0.83700848 0.30813217 -0.30456844 0
0.88882184 0.35566711 -0.31050304 0
0.59633875 0.3892231 -0.3357361 0
0.68504691 0.40480614 -0.32981977 0
0.79772377 0.44396782 -0.32307535 0
0.93633246 0.45641041 -0.32030806 0
0.79993486 0.48476791 -0.32183775 0
-0.62571216 -0.49091148 -0.38574266 0
-0.56842017 -0.47165394 -0.38494357 0
-0.47207808 -0.48015022 -0.38415843 0
-0.36624336 -0.47850609 -0.38696122 0
-0.26568747 -0.46066093 -0.38515607 0
-0.20195079 -0.42404556 -0.38485485 0
-0.55963922 -0.37410641 -0.37975544 0
-0.45200253 -0.38393211 -0.380707 0
-0.35699129 -0.37764072 -0.38424149 0
-0.25938201 -0.37787628 -0.37841856 0
-0.16867971 -0.37815189 -0.38151965 0
-0.079936266 -0.3341608 -0.3812128 0
-0.54936528 -0.28799534 -0.37457252 0
-0.45339131 -0.2788868 -0.37777448 0
-0.36104488 -0.27636814 -0.38038045 0
-0.25989604 -0.25602245 -0.37704521 0
-0.1597805 -0.29489422 -0.37784714 0
-0.04843545 -0.26901436 -0.37908363 0
-0.0072405338 -0.24255085 -0.37824079 0
-0.54491973 -0.17578602 -0.37236729 0
-0.45890021 -0.16506386 -0.3740989 0
-0.35451221 -0.17254448 -0.37400842 0
-0.27355146 -0.16302395 -0.37334311 0
-0.15059781 -0.17147446 -0.37744719 0
-0.061310768 -0.195961 -0.37649435 0
0.013456821 -0.16865349 -0.37647861 0
0.1016891 -0.14687252 -0.37133852 0
-0.53460789 -0.10246754 -0.36738223 0
-0.4475162 -0.060306549 -0.37083668 0
-0.36896276 -0.076558113 -0.37330735 0
-0.26228261 -0.030087471 -0.37536421 0
-0.14516568 -0.088053703 -0.37306115 0
-0.025537491 -0.056214333 -0.37795237 0
0.033794165 -0.084535599 -0.37292719 0
0.11889386 -0.081025124 -0.37115303 0
-0.51428485 0.0053672791 -0.36945146 0
-0.46869636 0.036715508 -0.36623532 0
-0.35998392 0.0096635818 -0.36949217 0
-0.25684595 0.032824516 -0.37211379 0
-0.18585634 -0.017055511 -0.37319502 0
-0.064634323 0.026169777 -0.37485391 0
0.054021597 0.0025644302 -0.37276924 0
0.13865876 0.01037693 -0.36806735 0
0.23327422 0.031589508 -0.36817831 0
-0.51229548 0.11606312 -0.36191201 0
-0.46135497 0.1213932 -0.36778352 0
-0.35305786 0.12146759 -0.36476585 0
-0.25440311 0.13925266 -0.36532167 0
-0.17234802 0.11931801 -0.36965814 0
-0.061485767 0.1156044 -0.3682968 0
0.071018696 0.11892605 -0.36935699 0
0.15806389 0.11002636 -0.36626321 0
0.24791098 0.10808182 -0.36548796 0
0.34967113 0.16168976 -0.36213887 0
-0.50973439 0.24806786 -0.35874742 0
-0.4618175 0.22255039 -0.36487421 0
-0.35676408 0.22773838 -0.36075395 0
-0.25576639 0.23712635 -0.35993099 0
-0.17109871 0.22161961 -0.36430556 0
-0.063778639 0.22330093 -0.36367744 0
0.026393414 0.2100296 -0.36846176 0
0.18216729 0.22695732 -0.36916056 0
0.26674199 0.21506405 -0.36335874 0
0.35853243 0.21735001 -0.35987708 0
0.45997548 0.25346375 -0.36190811 0
-0.51138139 0.36545563 -0.35733426 0
-0.46311593 0.31879044 -0.36209351 0
-0.34522939 0.32133675 -0.36090258 0
-0.2502687 0.34391594 -0.35974389 0
-0.17120957 0.31688404 -0.36120713 0
-0.090693712 0.32172585 -0.36103082 0
0.041993856 0.32969189 -0.36434659 0
0.18755126 0.28339863 -0.36675495 0
0.25836849 0.33918285 -0.36702114 0
0.37591839 0.31750774 -0.35963368 0
0.46396565 0.28650856 -0.35932517 0
-0.51350951 0.44437027 -0.35723898 0
-0.44828439 0.41664314 -0.35733628 0
-0.34890747 0.42502594 -0.35832438 0
-0.2702198 0.41785622 -0.35949138 0
-0.17819357 0.44632721 -0.35595268 0
-0.068850517 0.43592453 -0.35598773 0
0.039598703 0.43439102 -0.36061662 0
0.18754721 0.46238995 -0.3609508 0
0.22966552 0.40996456 -0.36588889 0
0.34216142 0.4077177 -0.36090511 0
0.46022224 0.43944168 -0.35469687 0
0.60783434 0.49624538 -0.35178405 0
-0.15064955 -0.47420597 -0.38094941 0
-0.062873363 -0.48812866 -0.37695777 0
0.05862999 -0.46015358 -0.37251443 0
0.16643691 -0.48044395 -0.36669272 0
0.2608552 -0.45035934 -0.36909482 0
0.35576129 -0.4774313 -0.36048016 0
0.46021914 -0.48884773 -0.35775149 0
0.64206076 -0.48476887 -0.35005572 0
0.70930409 -0.46909237 -0.34740654 0
0.86818218 -0.44845772 -0.34595132 0
-0.073727846 -0.38027382 -0.37577435 0
0.028250456 -0.38730717 -0.37200996 0
0.10982513 -0.39653873 -0.3704688 0
0.23969531 -0.39497185 -0.36443627 0
0.3432889 -0.36804771 -0.36284316 0
0.44163227 -0.39302635 -0.35709041 0
0.50579095 -0.36748123 -0.35701224 0
0.63525677 -0.35337734 -0.35434103 0
0.74577618 -0.38007355 -0.34847432 0
0.91125607 -0.35114098 -0.34294081 0
0.063628435 -0.27797413 -0.3720479 0
0.1501503 -0.27288914 -0.36779892 0
0.23161125 -0.29236507 -0.36435735 0
0.31570768 -0.29600048 -0.35898498 0
0.42812467 -0.27176285 -0.35755584 0
0.53869939 -0.28368282 -0.35408857 0
0.66353965 -0.28574371 -0.34945562 0
0.78104353 -0.29031181 -0.34998009 0
0.80192542 -0.23712349 -0.34896797 0
0.94672799 -0.26159286 -0.34401453 0
0.082895041 -0.21129131 -0.36897409 0
0.18108869 -0.16423035 -0.36357078 0
0.26038575 -0.19781494 -0.36302418 0
0.35464621 -0.17220688 -0.36329252 0
0.45515561 -0.18759346 -0.35488582 0
0.581352 -0.16427708 -0.35299328 0
0.70767546 -0.16308784 -0.35159516 0
0.82651663 -0.1724844 -0.3461839 0
0.98295331 -0.1866684 -0.34358096 0
0.23233318 -0.084406853 -0.36420244 0
0.33961034 -0.069726944 -0.36228055 0
0.4545033 -0.072885513 -0.35800683 0
0.50401306 -0.032006264 -0.35486999 0
0.61348557 -0.06597805 -0.35211068 0
0.73787689 -0.075087547 -0.34825635 0
0.8636291 -0.0666008 -0.34574309 0
0.31533265 0.015821457 -0.35941505 0
0.39780331 -0.0011405945 -0.35442555 0
0.51464558 0.021445274 -0.3515937 0
0.64311671 0.040709496 -0.35116336 0
0.77115893 0.034713745 -0.34718183 0
0.8915565 0.01781559 -0.34477922 0
0.33158946 0.088042259 -0.3590641 0
0.42389083 0.098659515 -0.35828999 0
0.53966212 0.13686657 -0.35163561 0
0.66651273 0.14893723 -0.34981677 0
0.78762007 0.1048851 -0.34564736 0
0.79806399 0.15765667 -0.34362683 0
0.928123 0.10125256 -0.34617671 0
0.44277787 0.17881966 -0.35979629 0
0.56179643 0.23221779 -0.35386398 0
0.69145656 0.25499058 -0.35340753 0
0.76502943 0.22852135 -0.33265743 0
0.84505439 0.24061489 -0.32342923 0
0.93960047 0.2193222 -0.32219648 0
0.4618969 0.30182171 -0.35448009 0
0.57283425 0.30911255 -0.34916502 0
0.68038559 0.31729317 -0.34588778 0
0.76685929 0.31421566 -0.32877234 0
0.84085655 0.31020355 -0.31711903 0
0.97076511 0.33324909 -0.3130191 0
0.4692409 0.37827015 -0.34977597 0
0.59353423 0.42370415 -0.34943065 0
0.67857456 0.42374134 -0.33717489 0
0.79628086 0.40225792 -0.33468384 0
0.91744304 0.42314529 -0.32823652 0
0.81061935 0.49750519 -0.33417171 0
0.9575665 0.47530746 -0.33200568 0
-0.81641459 -0.46932602 -0.38379425 0
-0.84000731 -0.37239456 -0.38549325 0
-0.7664125 -0.39278126 -0.38100168 0
-0.6366818 -0.42419338 -0.38809291 0
-0.8315475 -0.33053112 -0.37657973 0
-0.78628922 -0.2872591 -0.37986428 0
-0.6941762 -0.29107094 -0.37910575 0
-0.59966207 -0.27961731 -0.38001552 0
-0.77256155 -0.19961166 -0.3771731 0
-0.66666913 -0.17701817 -0.37432665 0
-0.76501513 -0.10625267 -0.37468708 0
-0.66931629 -0.076007843 -0.37381226 0
-0.59605241 -0.094202042 -0.37129599 0
-0.76833248 0.015450478 -0.37105867 0
-0.690588 -0.0072469711 -0.36959547 0
-0.56287313 0.0040588379 -0.36902067 0
-0.47681808 0.027414322 -0.3693873 0
-0.39652658 0.048148155 -0.37600893 0
-0.76382995 0.11728764 -0.36660069 0
-0.68462086 0.092863083 -0.36474252 0
-0.56914258 0.098111153 -0.36791795 0
-0.46303177 0.14175129 -0.36726296 0
-0.39749217 0.093409538 -0.36926001 0
-0.32201576 0.10048485 -0.36995193 0
-0.76169586 0.21757889 -0.36418816 0
-0.67166209 0.21812439 -0.36580095 0
-0.56871796 0.19900703 -0.36224368 0
-0.47986579 0.20362949 -0.36311623 0
-0.39531422 0.22468472 -0.35989037 0
-0.27986622 0.22272301 -0.36362973 0
-0.77072954 0.30033493 -0.35866839 0
-0.6787622 0.32079124 -0.36205584 0
-0.56408215 0.30909252 -0.35992962 0
-0.45961952 0.3218956 -0.35953748 0
-0.38117552 0.34899139 -0.36211073 0
-0.29007769 0.29874229 -0.35999337 0
-0.14277768 0.27772713 -0.36631534 0
-0.7807045 0.41079426 -0.35487381 0
-0.6874764 0.41737843 -0.35612023 0
-0.55283737 0.42765427 -0.35878143 0
-0.45972419 0.43509769 -0.35725999 0
-0.38820887 0.42602348 -0.35671672 0
-0.27797651 0.41237354 -0.35853443 0
-0.044226885 0.49928474 -0.35824612 0
-0.77087283 -0.49469757 -0.3818112 0
-0.69636464 -0.49228954 -0.38234621 0
-0.56946659 -0.48044205 -0.38441899 0
-0.37494183 -0.49892807 -0.38428462 0
-0.28379416 -0.49913025 -0.38600722 0
-0.063549042 -0.48927689 -0.37559476 0
0.14927554 -0.48832798 -0.37013221 0
0.25211239 -0.49456501 -0.36394104 0
0.49306107 -0.44972801 -0.35858014 0
-0.77275252 -0.41079044 -0.37679368 0
-0.66918039 -0.41244793 -0.37878966 0
-0.58599472 -0.37599754 -0.3779332 0
-0.49700832 -0.40957165 -0.37903208 0
-0.3810885 -0.39809704 -0.38189986 0
-0.25263667 -0.39651203 -0.38375181 0
-0.17259383 -0.40792179 -0.37972331 0
-0.091308594 -0.40297222 -0.3797974 0
0.026917458 -0.3758831 -0.37757054 0
0.083646297 -0.39699554 -0.37005797 0
0.20764279 -0.40125656 -0.36583424 0
0.29200459 -0.38693237 -0.36070442 0
0.39071536 -0.39123535 -0.35681337 0
0.51387787 -0.40134811 -0.3530058 0
-0.65688133 -0.27503109 -0.37304169 0
-0.56566048 -0.28768253 -0.37294614 0
-0.46605968 -0.29808331 -0.37949556 0
-0.38703847 -0.28136253 -0.37890401 0
-0.28618097 -0.29184628 -0.38071823 0
-0.16747332 -0.29889107 -0.38102666 0
-0.069684505 -0.28749371 -0.37638113 0
0.02479744 -0.28765202 -0.37321773 0
0.11813688 -0.29412079 -0.3708564 0
0.2147727 -0.30481148 -0.36363539 0
0.31576896 -0.31819534 -0.35974029 0
0.41970611 -0.30867767 -0.35647076 0
0.56227899 -0.27567768 -0.35600972 0
-0.58450413 -0.19467926 -0.3722212 0
-0.48228812 -0.20070839 -0.37359828 0
-0.36573601 -0.17720413 -0.37433073 0
-0.29710913 -0.18564701 -0.37294364 0
-0.20284414 -0.19096088 -0.37881503 0
-0.081071615 -0.19303894 -0.37653038 0
0.059180021 -0.17325211 -0.37247711 0
0.15516329 -0.17460632 -0.36999986 0
0.24869013 -0.19754791 -0.36400959 0
0.35244679 -0.20540333 -0.35979638 0
0.44289255 -0.23936367 -0.35427284 0
0.59704804 -0.18621922 -0.35290691 0
0.73393464 -0.20596218 -0.35208255 0
-0.45651388 -0.097396851 -0.37037089 0
-0.36853027 -0.080652237 -0.3709603 0
-0.27717543 -0.067643166 -0.36926076 0
-0.18651628 -0.085658073 -0.37249699 0
-0.096989155 -0.12063789 -0.37379891 0
-0.0019254684 -0.10510445 -0.3728781 0
0.081435442 -0.092405319 -0.37100622 0
0.1864419 -0.062773705 -0.36776957 0
0.3126955 -0.09945488 -0.35951319 0
0.47519851 -0.14449406 -0.35669354 0
0.48208714 -0.12540245 -0.3518064 0
0.62842703 -0.10023785 -0.34851885 0
0.77047968 -0.11178017 -0.34870511 0
-0.34030175 0.0021591187 -0.36688563 0
-0.26842618 -0.0061407089 -0.36776844 0
-0.17610741 0.0036010742 -0.36760664 0
-0.078432798 -0.019713402 -0.37327978 0
0.028132439 0.02397728 -0.37352547 0
0.095537424 -0.032592773 -0.36815384 0
0.20623517 0.018348694 -0.36488435 0
0.3071928 0.011665344 -0.36069438 0
0.41163969 -0.0033597946 -0.3575238 0
0.5230751 0.0043458939 -0.35815021 0
0.65970731 -0.0050172806 -0.34987035 0
0.81218505 0.0080451965 -0.34784657 0
-0.3637259 0.10442162 -0.36053595 0
-0.2593348 0.091566086 -0.36405125 0
-0.15584207 0.12300491 -0.36967701 0
-0.061059713 0.10083485 -0.37153599 0
0.037436247 0.10928154 -0.36993545 0
0.12419724 0.080145836 -0.37062058 0
0.22754502 0.11116886 -0.36340496 0
0.33619523 0.12689781 -0.36099908 0
0.43176365 0.077874184 -0.35371026 0
0.53935194 0.08009243 -0.35197085 0
0.67612672 0.070816994 -0.34255451 0
0.6888895 0.11044121 -0.34842223 0
0.84168172 0.11252975 -0.34439141 0
-0.25765586 0.20870113 -0.35624892 0
-0.15362072 0.19272709 -0.36512718 0
-0.0589571 0.20346737 -0.3633478 0
0.046832085 0.20337009 -0.36737815 0
0.14751673 0.22105598 -0.36774263 0
0.24510789 0.19009972 -0.36346295 0
0.35231161 0.208848 -0.35716292 0
0.46712136 0.20759487 -0.35954928 0
0.56703329 0.19572067 -0.35099399 0
0.72103047 0.24223614 -0.34863532 0
0.83401155 0.21939278 -0.33914632 0
0.96234536 0.18809128 -0.33226055 0
-0.2496736 0.2642231 -0.35769162 0
-0.15212202 0.30777836 -0.35923558 0
-0.050546646 0.32312012 -0.36109379 0
0.051063538 0.31255722 -0.36228535 0
0.15484071 0.33255577 -0.36351418 0
0.26496935 0.29234695 -0.36278477 0
0.42860937 0.29294109 -0.35841164 0
0.48404837 0.30347347 -0.35249251 0
0.59166765 0.30314064 -0.34933868 0
0.68713808 0.2850132 -0.3377265 0
0.78726673 0.30214024 -0.32562858 0
-0.15799356 0.39498615 -0.35253882 0
-0.049823284 0.41100502 -0.35783431 0
0.048485756 0.39004135 -0.35679108 0
0.1547575 0.42584896 -0.35865027 0
0.28627992 0.42844868 -0.36238733 0
0.39311314 0.39878464 -0.35987255 0
0.49442387 0.35581398 -0.35176057 0
0.60972428 0.39643764 -0.34616789 0
0.71472192 0.40682697 -0.3371723 0
0.84466553 0.38771152 -0.33060482 0
0.96125197 0.35557365 -0.32026827 0
0.051534176 0.48845196 -0.35522112 0
0.27783298 0.47237301 -0.35527527 0
0.40915585 0.49278355 -0.35775131 0
0.72189379 0.48843098 -0.3295958 0
0.78537226 -0.45476913 -0.34836981 0
0.65052891 -0.41436577 -0.35067862 0
0.81275463 -0.40015411 -0.34305713 0
0.9484849 -0.43578625 -0.33915165 0
0.97904754 -0.36201286 -0.34138995 0
0.69038558 -0.32165527 -0.34764028 0
0.85266924 -0.30270958 -0.34449083 0
0.73616219 -0.20894146 -0.34304547 0
0.89442468 -0.19616127 -0.34664974 0
0.93883228 -0.089224815 -0.34441411 0
0.89210415 0.23880863 -0.31534922 0
0.92713332 0.28016949 -0.30392531 0
-0.93697286 -0.47798443 -0.37928104 0
-0.85837579 -0.4632082 -0.379022 0
-0.96323562 -0.37311935 -0.3787601 0
-0.85343337 -0.37051201 -0.37678283 0
-0.78134847 -0.39288712 -0.37736276 0
-0.93997264 -0.2736578 -0.37588432 0
-0.82441306 -0.26917744 -0.37408736 0
-0.74647856 -0.2669487 -0.37493852 0
-0.66128135 -0.25768757 -0.37764031 0
-0.9297545 -0.17176342 -0.37441486 0
-0.85384583 -0.17508888 -0.37281987 0
-0.75983906 -0.17549896 -0.36994371 0
-0.58581948 -0.14549541 -0.37260407 0
-0.92502999 -0.067947388 -0.37248221 0
-0.84762383 -0.067554474 -0.36946744 0
-0.73553467 -0.077145576 -0.36765146 0
-0.64393544 -0.081794739 -0.36640686 0
-0.57300639 -0.07357502 -0.36704484 0
-0.91842532 0.014482498 -0.36718422 0
-0.84040809 0.023350716 -0.3643859 0
-0.73920822 0.033715248 -0.36369857 0
-0.64998174 0.01417923 -0.36403975 0
-0.55599117 0.019416809 -0.36511293 0
-0.4851613 0.011728287 -0.36449251 0
-0.91707873 0.1062746 -0.36070147 0
-0.83886385 0.12848759 -0.36266649 0
-0.75165033 0.13664722 -0.36180466 0
-0.64858079 0.11948872 -0.36107758 0
-0.54590797 0.11571884 -0.35962871 0
-0.46944976 0.12462425 -0.36059293 0
-0.39654446 0.1181078 -0.3636232 0
-0.91428661 0.23735905 -0.35660076 0
-0.84063983 0.23429108 -0.35655853 0
-0.76836634 0.21462822 -0.35969239 0
-0.63454223 0.22247696 -0.35732955 0
-0.52583885 0.23975754 -0.36189163 0
-0.4616375 0.22801781 -0.35559723 0
-0.35486126 0.24192905 -0.35822034 0
-0.91742158 0.33340359 -0.35326833 0
-0.83669424 0.35249329 -0.35588199 0
-0.75583339 0.32425308 -0.35433486 0
-0.6606164 0.32831573 -0.35541287 0
-0.54000974 0.32857227 -0.35842353 0
-0.45697856 0.31973171 -0.35220882 0
-0.38225031 0.31384373 -0.3540552 0
-0.28472495 0.31118488 -0.35908976 0
-0.19049811 0.29401398 -0.35971212 0
-0.9223659 0.422925 -0.3510254 0
-0.8354187 0.43562126 -0.35192612 0
-0.73978448 0.43738079 -0.350862 0
-0.65247059 0.45774841 -0.35082892 0
-0.55485868 0.42429256 -0.3564713 0
-0.44760609 0.42013264 -0.3529337 0
-0.37391448 0.42742062 -0.3528932 0
-0.27909875 0.41287613 -0.35543466 0
-0.18507075 0.44028282 -0.35275936 0
-0.45169401 0.48935795 -0.34873101 0
-0.28256226 0.49708652 -0.34927717 0
-0.7505424 -0.44874001 -0.37637079 0
-0.64809346 -0.48293209 -0.37794361 0
-0.52862406 -0.46486282 -0.38108289 0
-0.43652105 -0.46273232 -0.37950179 0
-0.34327292 -0.47257233 -0.37963474 0
-0.25418949 -0.477911 -0.37812522 0
-0.17228079 -0.46831417 -0.37681577 0
-0.082420588 -0.48776913 -0.37000597 0
0.034373999 -0.44451904 -0.36806539 0
0.13344598 -0.46303368 -0.36400875 0
0.22461104 -0.48676682 -0.36158437 0
0.35268688 -0.48570824 -0.35622963 0
-0.7366519 -0.38335705 -0.37166262 0
-0.6546216 -0.40808773 -0.37601435 0
-0.54612017 -0.37975979 -0.37395224 0
-0.43817139 -0.36682987 -0.37329295 0
-0.3173964 -0.3896904 -0.3775093 0
-0.21445012 -0.37038231 -0.37701961 0
-0.13788819 -0.37826729 -0.37267521 0
-0.054770708 -0.41462612 -0.37006786 0
0.062003613 -0.37144756 -0.36759999 0
0.16715598 -0.37726498 -0.36093134 0
0.26498795 -0.38910294 -0.35597253 0
0.38008809 -0.42043686 -0.35349095 0
0.40897226 -0.34348679 -0.35574961 0
0.53260827 -0.38507175 -0.34805816 0
-0.61573434 -0.26179314 -0.37120783 0
-0.54631543 -0.26756668 -0.3687346 0
-0.47413111 -0.27587032 -0.37224004 0
-0.38586116 -0.28438473 -0.37037176 0
-0.28886342 -0.28598213 -0.37413275 0
-0.16399431 -0.29319859 -0.3738851 0
-0.033104181 -0.2842989 -0.37273538 0
0.084864616 -0.30879116 -0.36551267 0
0.20119286 -0.28269386 -0.36244839 0
0.30772305 -0.27045536 -0.36009601 0
0.43515205 -0.27515507 -0.35386902 0
0.57582378 -0.28118992 -0.35025015 0
-0.64530063 -0.18946362 -0.36535341 0
-0.53038263 -0.19720745 -0.36586305 0
-0.45279551 -0.18191242 -0.3683607 0
-0.36284637 -0.17855644 -0.36507794 0
-0.25908041 -0.16831398 -0.37322807 0
-0.16174388 -0.17893982 -0.37430859 0
-0.07357955 -0.18548584 -0.37225759 0
0.016341448 -0.20919609 -0.36642548 0
0.12142086 -0.20157433 -0.36549401 0
0.23294067 -0.19071293 -0.36099991 0
0.33413148 -0.1971302 -0.35449544 0
0.46946931 -0.18848991 -0.34848315 0
0.62359166 -0.17281628 -0.34454587 0
-0.6494813 -0.087423325 -0.36126328 0
-0.50841522 -0.1053896 -0.36625379 0
-0.43017483 -0.064358711 -0.36464906 0
-0.32591438 -0.032749176 -0.37140289 0
-0.24246168 -0.076062202 -0.36753139 0
-0.14451408 -0.087654114 -0.3687602 0
-0.042806387 -0.07461071 -0.3704547 0
0.056355953 -0.079133987 -0.36704668 0
0.15611863 -0.093391418 -0.36576355 0
0.26283741 -0.098643303 -0.35658407 0
0.37459445 -0.074736595 -0.35187602 0
0.49854207 -0.11307526 -0.3478159 0
0.65881538 -0.087733269 -0.33982736 0
0.79253316 -0.13914776 -0.34797263 0
-0.44042063 0.018299103 -0.36125898 0
-0.32490373 0.013645172 -0.36331442 0
-0.22301888 0.035949707 -0.36471233 0
-0.126858 0.0067615509 -0.3664535 0
-0.020580292 0.042132378 -0.36725342 0
0.086428404 0.030732155 -0.36413959 0
0.18991971 0.022721291 -0.36321113 0
0.29485393 0.0035524368 -0.36087286 0
0.35623431 0.037180901 -0.35378939 0
0.4162724 0.062011719 -0.35042328 0
0.54112864 0.010783195 -0.35224226 0
0.70128703 0.037424088 -0.34025067 0
0.70805097 0.053460121 -0.35119778 0
0.85077834 0.00061893463 -0.34432274 0
-0.40241933 0.13734436 -0.35601693 0
-0.30922079 0.13752651 -0.35925883 0
-0.21211839 0.12059402 -0.36154559 0
-0.10843158 0.11362648 -0.3656542 0
-0.0045905113 0.12897015 -0.36726877 0
0.10604382 0.10708237 -0.36344415 0
0.21382713 0.11875725 -0.35747203 0
0.32258224 0.10635662 -0.35429803 0
0.4386375 0.13838959 -0.35181117 0
0.55993772 0.082086563 -0.34383461 0
0.90846896 0.14266968 -0.34189039 0
-0.20428038 0.18815613 -0.35967553 0
-0.1506083 0.24645996 -0.3562018 0
-0.043473721 0.22862053 -0.36311078 0
0.011188269 0.23570061 -0.36587107 0
0.12687302 0.19770336 -0.36438796 0
0.24411559 0.23865128 -0.35836878 0
0.35376191 0.22426891 -0.3546792 0
0.46255374 0.2253294 -0.35190079 0
0.59084773 0.20072746 -0.34208477 0
0.74154472 0.19946384 -0.34209713 0
0.89726138 0.22169971 -0.33737531 0
-0.2014122 0.29962635 -0.35200566 0
-0.1928184 0.35771942 -0.35350245 0
-0.040634632 0.33321285 -0.35505265 0
0.010453463 0.30048847 -0.35833734 0
0.13793302 0.31404018 -0.35903397 0
0.26244044 0.31972599 -0.35787043 0
0.38670063 0.35325909 -0.35667342 0
0.48883939 0.33097744 -0.34968877 0
0.61767793 0.32699776 -0.34074184 0
0.71800089 0.31957245 -0.32959825 0
0.83621502 0.289258 -0.3189081 0
-0.087300777 0.4199791 -0.35208887 0
0.013707876 0.41256046 -0.35194042 0
0.1510582 0.43262577 -0.35769993 0
0.28150582 0.42806053 -0.35568857 0
0.39368391 0.40305042 -0.35059679 0
0.50585294 0.40748978 -0.34702274 0
0.51781106 0.46059895 -0.34669214 0
0.62944436 0.40313053 -0.33680701 0
0.7498889 0.39908504 -0.32872224 0
0.88883209 0.38088131 -0.32141909 0
0.9283576 0.41454887 -0.31944743 0
0.76553535 0.48125362 -0.32545435 0
0.49155712 -0.48229599 -0.34621859 0
0.63995695 -0.4887619 -0.34496492 0
0.80624008 -0.45201588 -0.34431407 0
0.68974519 -0.38488102 -0.34273851 0
0.82770944 -0.41401482 -0.34090096 0
0.73622084 -0.28434181 -0.34000114 0
0.87655759 -0.30632114 -0.34164712 0
0.92327309 -0.20794487 -0.33783287 0
0.80553222 -0.11706161 -0.34115437 0
0.98908591 -0.087851524 -0.3427853 0
0.86327529 0.026402473 -0.33337194 0
0.9385345 0.23059559 -0.31169131 0
0.87017751 0.28159523 -0.29635778 0
0.97188497 0.28917789 -0.27946529 0
-0.91068721 -0.48895645 -0.3897796 0
-0.85220981 -0.44359684 -0.38846686 0
-0.90757132 -0.37116814 -0.38735741 0
-0.79155326 -0.35126686 -0.38667813 0
-0.90113854 -0.28180599 -0.38372225 0
-0.80666423 -0.27027702 -0.3791571 0
-0.74196243 -0.2828846 -0.38130209 0
-0.98987293 -0.17098999 -0.38153449 0
-0.89345646 -0.17695999 -0.3821868 0
-0.81551957 -0.1650238 -0.37861976 0
-0.7191391 -0.17935944 -0.37739813 0
-0.58639908 -0.21271706 -0.38387498 0
-0.99507523 -0.045571327 -0.38140085 0
-0.9222033 -0.080554008 -0.37940791 0
-0.79460931 -0.072307587 -0.37564054 0
-0.69812751 -0.074771881 -0.37586957 0
-0.63218904 -0.087002754 -0.37343627 0
-0.91147327 0.015144348 -0.37440065 0
-0.79660559 0.023143768 -0.36980087 0
-0.68762016 0.0082683563 -0.37142998 0
-0.61109614 0.023398399 -0.37339634 0
-0.54321694 0.025431633 -0.37073457 0
-0.89957571 0.12139893 -0.36790943 0
-0.81083345 0.13786507 -0.36911461 0
-0.70269012 0.1328249 -0.36823484 0
-0.60552835 0.10983276 -0.36562234 0
-0.53172374 0.10525799 -0.36867547 0
-0.90675592 0.20193481 -0.36202624 0
-0.81242561 0.21748924 -0.36384666 0
-0.71738172 0.20931435 -0.3639591 0
-0.59494376 0.21333313 -0.36310971 0
-0.51190805 0.24471855 -0.36837429 0
-0.43188143 0.2215929 -0.36346683 0
-0.33380151 0.21099281 -0.36803877 0
-0.90314531 0.3277607 -0.36271441 0
-0.80680275 0.32345295 -0.36318883 0
-0.70704007 0.33252239 -0.36470041 0
-0.5816772 0.33247471 -0.36373779 0
-0.51622319 0.33068562 -0.35941792 0
-0.41659164 0.33029652 -0.36460769 0
-0.3283093 0.32028866 -0.36111018 0
-0.98880506 0.44369888 -0.35590875 0
-0.89858103 0.42899036 -0.35886195 0
-0.81186914 0.41564083 -0.35920745 0
-0.67646289 0.42005062 -0.36210147 0
-0.5813868 0.45036888 -0.35976827 0
-0.50590491 0.45234489 -0.35983863 0
-0.41600275 0.42226601 -0.3597163 0
-0.32124043 0.42615604 -0.35853836 0
-0.21921992 0.43291759 -0.36001489 0
-0.86742949 -0.49073219 -0.38761675 0
-0.81190038 -0.45402336 -0.38357621 0
-0.71780777 -0.49115181 -0.38744205 0
-0.59301043 -0.47672558 -0.38279825 0
-0.47453976 -0.46981812 -0.38555592 0
-0.37847352 -0.48190689 -0.38557699 0
-0.27265167 -0.45788383 -0.38743261 0
-0.17485762 -0.45583439 -0.38737956 0
-0.068826199 -0.44644165 -0.38315153 0
0.031376362 -0.46925831 -0.37527642 0
0.13312244 -0.46678448 -0.37677786 0
0.26063704 -0.4764595 -0.3662996 0
0.40803123 -0.45185852 -0.35866663 0
-0.81018305 -0.36981773 -0.38088381 0
-0.69602609 -0.37149906 -0.38235879 0
-0.63370371 -0.38913631 -0.38288343 0
-0.51753545 -0.39678955 -0.38017809 0
-0.41252232 -0.37052155 -0.38094547 0
-0.29359174 -0.36289597 -0.38464224 0
-0.15561247 -0.40602398 -0.38353851 0
-0.11046958 -0.37549305 -0.37991169 0
-0.044462442 -0.38347912 -0.37737668 0
0.096494198 -0.38492966 -0.37540314 0
0.17415357 -0.36165047 -0.37227184 0
0.28856659 -0.40677643 -0.36270028 0
0.44428778 -0.35183144 -0.36450288 0
-0.69205189 -0.28327847 -0.37674838 0
-0.61318731 -0.308465 -0.38037366 0
-0.51779127 -0.28099251 -0.37983793 0
-0.41664481 -0.26024342 -0.37935296 0
-0.3213954 -0.27947712 -0.38093391 0
-0.22748089 -0.2992363 -0.38298538 0
-0.11241889 -0.28105354 -0.3796407 0
-0.0091600418 -0.28073025 -0.37717307 0
0.1048305 -0.26569748 -0.37310612 0
0.20372891 -0.28138828 -0.3664268 0
0.3359282 -0.27544594 -0.3650423 0
0.46738362 -0.29446888 -0.35909289 0
-0.65839362 -0.20693207 -0.37291363 0
-0.60205674 -0.18119812 -0.37355557 0
-0.49809694 -0.19106197 -0.3757233 0
-0.39915562 -0.17276001 -0.37400198 0
-0.29858804 -0.17501545 -0.37628117 0
-0.20106316 -0.17961788 -0.37666312 0
-0.088130713 -0.20448112 -0.37920007 0
0.022748232 -0.18142223 -0.37298623 0
0.12825036 -0.19435787 -0.36734325 0
0.22751117 -0.21138 -0.36417866 0
0.2519598 -0.13653851 -0.36700734 0
0.36788511 -0.1847868 -0.36052957 0
0.51183009 -0.1817894 -0.35761157 0
0.67427635 -0.17858505 -0.35161984 0
-0.56332183 -0.073238373 -0.37031102 0
-0.47236919 -0.064439774 -0.37228179 0
-0.37200642 -0.052659035 -0.37550893 0
-0.28274703 -0.081357956 -0.37057754 0
-0.17471814 -0.05164814 -0.37446189 0
-0.064217091 -0.12302971 -0.37890342 0
-0.045956135 -0.049536705 -0.38149595 0
0.063596249 -0.050848961 -0.37953842 0
0.16773057 -0.067639351 -0.36955473 0
0.2760191 -0.058866501 -0.36522001 0
0.40339208 -0.07716465 -0.36234921 0
0.54070711 -0.10900688 -0.35493261 0
0.56506181 -0.042092323 -0.35598275 0
0.706671 -0.099281311 -0.34882051 0
-0.46562982 -0.0065689087 -0.36626944 0
-0.38294601 0.035964966 -0.37121072 0
-0.26578808 0.017536163 -0.36864328 0
-0.17082047 -0.0052480698 -0.36883584 0
-0.040524244 0.012791634 -0.37337086 0
0.081147909 0.018544197 -0.37361097 0
0.19252086 0.022543907 -0.36526811 0
0.29717875 0.013012886 -0.36328593 0
0.42064548 -0.020716667 -0.35694146 0
0.58413959 0.015114784 -0.35506603 0
0.75666857 0.038137436 -0.3550033 0
0.92124534 0.048268318 -0.35022298 0
-0.3988874 0.11230373 -0.36568895 0
-0.2525363 0.11198235 -0.36636829 0
-0.15168858 0.10719681 -0.36843836 0
-0.025223255 0.12846088 -0.36804846 0
0.10989046 0.13626862 -0.37072131 0
0.21934986 0.12571621 -0.36340967 0
0.32125306 0.098534584 -0.3626413 0
0.45383358 0.087644577 -0.35948452 0
0.60775757 0.10059357 -0.35273802 0
0.76784039 0.074857712 -0.34969324 0
0.96172595 0.096340179 -0.35047147 0
-0.43596339 0.20531464 -0.36187616 0
-0.33723187 0.24308109 -0.36184707 0
-0.24547362 0.19835663 -0.36218274 0
-0.14237571 0.21553135 -0.3627902 0
-0.016700745 0.20631218 -0.3649269 0
0.12772393 0.23596668 -0.37066087 0
0.22984815 0.17791367 -0.35850501 0
0.34723163 0.19438934 -0.3627345 0
0.35736108 0.23921871 -0.35993862 0
0.48836184 0.2098732 -0.3590501 0
0.64110231 0.22760105 -0.35087559 0
0.79828286 0.1852808 -0.3496533 0
0.97317338 0.17645168 -0.34858662 0
-0.34050989 0.31592751 -0.35332412 0
-0.2318747 0.30860329 -0.36152416 0
-0.12912512 0.32969093 -0.36205226 0
-0.0046641827 0.29302597 -0.36496076 0
0.1341815 0.3266716 -0.36555108 0
0.26901507 0.32238579 -0.36647174 0
0.37756562 0.32310009 -0.35933578 0
0.52263594 0.33714294 -0.3593713 0
0.64381003 0.32905293 -0.34664491 0
0.76957035 0.31785679 -0.33736601 0
-0.2272048 0.37610149 -0.35889199 0
-0.12594128 0.42197418 -0.35798541 0
0.0029320717 0.41672421 -0.36025771 0
0.13717818 0.44224453 -0.35785055 0
0.28891063 0.42708397 -0.36446264 0
0.39167881 0.39458179 -0.35581791 0
0.54399967 0.42679596 -0.35750228 0
0.66876101 0.43587399 -0.34650785 0
0.79033852 0.38569736 -0.32748687 0
0.91931152 0.38868618 -0.32918212 0
0.96624589 0.44630718 -0.33126664 0
0.41220808 0.47576809 -0.3589223 0
0.67024875 0.46483898 -0.33545014 0
0.88819647 -0.47099495 -0.35053572 0
0.57312799 -0.40755653 -0.35836363 0
0.72822404 -0.41319084 -0.35030818 0
0.75118208 -0.36623573 -0.34793371 0
0.92559934 -0.40020657 -0.3464005 0
0.61360884 -0.32359695 -0.35298362 0
0.78463292 -0.28764534 -0.34917116 0
0.96770263 -0.31452465 -0.34320813 0
0.65011144 -0.23823547 -0.35166058 0
0.82678556 -0.18684864 -0.35004434 0
0.87159395 -0.074745178 -0.35237977 0
0.89494014 -0.019503593 -0.34978792 0
0.89132047 0.23293018 -0.3314403 0
0.97719693 0.220438 -0.30756789 0
0.83400011 0.29653263 -0.31889334 0
0.99733853 0.29711342 -0.28853151 0
-0.91744781 -0.45940876 -0.38582501 0
-0.99414706 -0.37145519 -0.38374728 0
-0.90222406 -0.40818977 -0.38364682 0
-0.85156035 -0.35430527 -0.38275334 0
-0.90389681 -0.28484726 -0.38149366 0
-0.81294417 -0.29343319 -0.38173187 0
-0.91291595 -0.17644024 -0.37877902 0
-0.81188726 -0.19382572 -0.3786211 0
-0.74750495 -0.19841194 -0.37559873 0
-0.89892554 -0.085798264 -0.37362435 0
-0.79094362 -0.083667755 -0.3740896 0
-0.72705126 -0.088223457 -0.37062314 0
-0.99974155 0.029004097 -0.37214845 0
-0.9002254 -8.8691711e-05 -0.36992943 0
-0.80694818 -0.003745079 -0.3673358 0
-0.70759416 0.013363838 -0.37008619 0
-0.62489247 0.0040464401 -0.36850205 0
-0.91590047 0.086015701 -0.3670277 0
-0.79853272 0.1211195 -0.36890554 0
-0.69617486 0.093374252 -0.36813137 0
-0.60814691 0.096876144 -0.36761853 0
-0.51199293 0.085603714 -0.37288889 0
-0.9039309 0.19639969 -0.36657131 0
-0.79711843 0.20797443 -0.36294901 0
-0.68683267 0.20805168 -0.36261785 0
-0.59666991 0.22149849 -0.360479 0
-0.50470781 0.18974495 -0.36226761 0
-0.39995956 0.23421383 -0.3626565 0
-0.9963367 0.31661701 -0.36107799 0
-0.90597224 0.27967262 -0.36099467 0
-0.81482434 0.29196262 -0.35947263 0
-0.69861507 0.3317852 -0.36239606 0
-0.58556151 0.31726837 -0.35960585 0
-0.48809123 0.31753349 -0.36090767 0
-0.39621472 0.30870628 -0.35704353 0
-0.29230857 0.28324986 -0.36602807 0
-0.90258694 0.39071178 -0.3593553 0
-0.79122925 0.39871025 -0.3579002 0
-0.67885065 0.40025806 -0.35643351 0
-0.57931471 0.39339256 -0.3584007 0
-0.48203135 0.402215 -0.35803381 0
-0.37889791 0.394063 -0.36143214 0
-0.27974701 0.4561739 -0.35680583 0
-0.1538434 0.44395733 -0.36174127 0
-0.69741488 0.494977 -0.35412845 0
-0.57359838 0.49898148 -0.3576923 0
-0.7429688 -0.48895931 -0.37964621 0
-0.61575651 -0.47239494 -0.38536403 0
-0.55298424 -0.46662331 -0.37819025 0
-0.45046282 -0.45518112 -0.39022177 0
-0.34185243 -0.49643326 -0.38585874 0
-0.21460962 -0.45978832 -0.38468972 0
0.003133297 -0.45150852 -0.37352645 0
0.41541433 -0.4584341 -0.36177662 0
-0.79791689 -0.39727497 -0.38143733 0
-0.70863533 -0.37760639 -0.38209769 0
-0.62468696 -0.39113522 -0.38188452 0
-0.53034663 -0.38922119 -0.37792546 0
-0.43559957 -0.40413189 -0.38120863 0
-0.30976272 -0.39416504 -0.3841854 0
-0.18778419 -0.39116383 -0.37958655 0
-0.084767818 -0.40591717 -0.37960753 0
0.029820204 -0.38333797 -0.37073252 0
0.13799167 -0.44256306 -0.36782482 0
0.16439009 -0.37609863 -0.36478385 0
0.27934766 -0.43397713 -0.36397535 0
0.45661974 -0.36359501 -0.35592827 0
-0.76575375 -0.27156639 -0.37542447 0
-0.68795991 -0.29540157 -0.37622213 0
-0.59546256 -0.27333164 -0.37631857 0
-0.50713611 -0.30362988 -0.37496519 0
-0.40904403 -0.30609703 -0.37559533 0
-0.28261256 -0.29898643 -0.3818897 0
-0.15159345 -0.28768158 -0.38227114 0
-0.045543432 -0.30084419 -0.37431723 0
0.059271812 -0.30037022 -0.3741087 0
0.20641208 -0.26240063 -0.36353105 0
0.32498598 -0.31946373 -0.36055607 0
0.47779989 -0.31256104 -0.35385057 0
-0.69171453 -0.18926144 -0.37202975 0
-0.57026839 -0.16444683 -0.37014857 0
-0.47972846 -0.19783211 -0.37479013 0
-0.38186574 -0.2007246 -0.37492698 0
-0.26072097 -0.2107935 -0.37773949 0
-0.12950301 -0.20730305 -0.3771455 0
-0.0018291473 -0.17159748 -0.37644634 0
0.084996939 -0.22833252 -0.37208086 0
0.23483109 -0.18205452 -0.36142918 0
0.36679959 -0.20720387 -0.35882375 0
0.51998234 -0.21123886 -0.35511521 0
-0.62268949 -0.095970154 -0.36868989 0
-0.48646426 -0.081856728 -0.3712979 0
-0.38921762 -0.084494591 -0.37198177 0
-0.24095678 -0.11849594 -0.37304613 0
-0.097996235 -0.071800232 -0.37450722 0
0.019913673 -0.10192966 -0.37004098 0
0.13369846 -0.081995964 -0.37125027 0
0.27226329 -0.069996834 -0.36428189 0
0.4053762 -0.099001884 -0.35591155 0
0.55172324 -0.13825703 -0.35226807 0
0.57839561 -0.072178841 -0.35160348 0
-0.53642321 -0.0079278946 -0.36695004 0
-0.4349699 0.021452904 -0.3671937 0
-0.34608936 -0.020310402 -0.3679921 0
-0.2157104 0.0073709488 -0.37020364 0
