# .PCD v0.7 - Point Cloud Data file format
VERSION 0.7
FIELDS x y z intensity
SIZE 4 4 4 4
TYPE F F F F
COUNT 1 1 1 1
WIDTH 1298
HEIGHT 1
VIEWPOINT 0 0 0 1 0 0 0
POINTS 1298
DATA ascii
-0.99604607 0.35365513 -0.10148382 0
-0.90045357 0.25734854 -0.13659286 0
-0.99639702 0.25748798 -0.099684715 0
-0.90692902 0.15742481 -0.13292599 0
-0.99512863 0.15445352 -0.0999403 0
-0.9069891 0.059720367 -0.13156605 0
-0.98831844 0.059098631 -0.1020627 0
-0.84345627 -0.092024863 -0.16052914 0
-0.90954876 -0.038627982 -0.13124037 0
-0.99403572 -0.043497384 -0.10102701 0
-0.90712643 -0.13628244 -0.13116503 0
-0.99733162 -0.14035997 -0.09901762 0
-0.83134747 -0.30076051 -0.16424513 0
-0.90316772 -0.24411795 -0.13282871 0
-0.83795166 -0.35454154 -0.158916 0
-0.89493752 -0.34664819 -0.13643265 0
-0.99978447 -0.33984476 -0.097589016 0
-0.82241535 -0.4572618 -0.16340637 0
-0.89756775 -0.44119403 -0.13463163 0
-0.99549866 -0.43838176 -0.098814487 0
0.88392353 -0.44828695 -0.75153828 0
0.96582031 -0.460958 -0.78729582 0
0.91234493 -0.35427168 -0.76245022 0
0.96313095 -0.35202551 -0.78118753 0
0.90856934 -0.23755062 -0.75601959 0
0.96724606 -0.25480691 -0.77941132 0
0.89420414 -0.14615351 -0.74550962 0
0.97036743 -0.16065854 -0.77777719 0
0.72076321 0.47917652 -0.63495588 0
0.79936504 0.48845986 -0.65169525 0
0.88963318 0.47103029 -0.68167114 0
0.43025875 -0.049896747 -0.39382172 0
0.48069572 -0.035338402 -0.40489292 0
0.54184437 -0.019503206 -0.42694664 0
0.34504604 0.038958907 -0.32427692 0
0.40757275 0.064614564 -0.35772705 0
0.56448555 0.021996379 -0.44118977 0
0.39543343 0.15662289 -0.35784435 0
0.41397953 0.24822751 -0.37664032 0
0.46021652 0.24141821 -0.37961864 0
0.4267149 0.32844052 -0.39089298 0
0.47510529 0.35023934 -0.41595936 0
0.72566509 -0.46276662 -0.67832851 0
0.82716084 -0.46280459 -0.72168207 0
0.92643929 -0.45014033 -0.76401234 0
0.99365807 -0.45211428 -0.79341221 0
0.74129677 -0.35086662 -0.68179893 0
0.82306957 -0.35891908 -0.71724606 0
0.91672611 -0.34373802 -0.75563717 0
0.99860191 -0.35290843 -0.79170036 0
0.7615366 -0.25035569 -0.68914557 0
0.84044266 -0.26732904 -0.72321892 0
0.92671204 -0.26138356 -0.75943756 0
0.99475956 -0.24594733 -0.78562832 0
0.835145 -0.19413844 -0.71789265 0
0.9103899 -0.17734042 -0.7481432 0
0.99179363 -0.17253307 -0.78164101 0
0.41147327 -0.10966462 -0.42704487 0
0.62082672 -0.15502557 -0.58591604 0
0.40561676 0.34912807 -0.43637419 0
0.4236908 0.40057641 -0.45576477 0
0.67948723 0.47802687 -0.61866045 0
0.77119637 0.47911227 -0.63765335 0
0.86976147 0.48917347 -0.6715517 0
0.9640522 0.4910765 -0.71004963 0
0.43291187 -0.119849 -0.43011475 0
0.33844566 -0.025989145 -0.34888268 0
0.41829014 -0.053771257 -0.39020729 0
0.52400684 -0.0396429 -0.41812611 0
0.3362875 0.045696914 -0.33896351 0
0.4448595 0.053499073 -0.36847591 0
0.5870924 0.020017296 -0.44497013 0
0.35057163 0.14087823 -0.36005783 0
0.40644455 0.15529481 -0.36225986 0
0.36082077 0.2372359 -0.38670731 0
0.41731739 0.24889892 -0.38134956 0
0.3706789 0.31328198 -0.39989901 0
0.42328358 0.33998236 -0.40298939 0
0.48007679 0.35318926 -0.40438271 0
0.51863575 -0.4740454 -0.59445 0
0.60220528 -0.45519099 -0.629004 0
0.66296673 -0.46071616 -0.65557861 0
0.77171898 -0.47968611 -0.70307732 0
0.84142494 -0.47679019 -0.73170471 0
0.96174335 -0.4787097 -0.78423643 0
0.52161694 -0.37337983 -0.59171343 0
0.60077858 -0.35394296 -0.62685299 0
0.69404602 -0.36787772 -0.66624546 0
0.77368832 -0.36842358 -0.70011759 0
0.86844921 -0.38150367 -0.74197483 0
0.96316719 -0.36102435 -0.78037167 0
0.5288229 -0.26433477 -0.59156418 0
0.59504986 -0.27971613 -0.62165594 0
0.67769814 -0.25901273 -0.65700388 0
0.78347492 -0.26450363 -0.70234871 0
0.86669064 -0.26760086 -0.73749065 0
0.96876717 -0.27160257 -0.78010511 0
0.96269894 -0.21198407 -0.77513885 0
0.35730553 -0.12809393 -0.44174099 0
0.41846466 -0.16990623 -0.47229052 0
0.59926319 -0.2002573 -0.59270382 0
0.26478767 -0.034514904 -0.38512278 0
0.30937195 -0.094475836 -0.4124403 0
0.26325703 0.057595134 -0.38440514 0
0.26391125 0.11528751 -0.38863373 0
0.32064533 0.16262868 -0.41006422 0
0.27393246 0.20808563 -0.40179968 0
0.32673264 0.24418032 -0.42572784 0
0.34552002 0.33032313 -0.43974447 0
0.40144062 0.37167946 -0.46719933 0
0.41944885 0.43223342 -0.50207376 0
0.55934906 0.46730602 -0.58544588 0
0.79710007 0.43519446 -0.65634489 0
0.89046192 0.46117631 -0.68517971 0
0.39140129 -0.11402997 -0.42330503 0
0.45389462 -0.14924231 -0.45069504 0
0.29223824 -0.054298282 -0.38023567 0
0.34357071 -0.052068472 -0.37074566 0
0.43572807 -0.082875162 -0.40611744 0
0.51010609 -0.052603871 -0.41530895 0
0.27973461 0.031521797 -0.36096382 0
0.35163403 0.042268068 -0.34388447 0
0.552701 0.0013920665 -0.42550278 0
0.29071522 0.13534558 -0.39018869 0
0.36017895 0.13301942 -0.36810303 0
0.36543941 0.23464993 -0.38576221 0
0.43445587 0.21270674 -0.38135147 0
0.36501694 0.31773716 -0.40031385 0
0.44886494 0.33087346 -0.41345692 0
0.34007263 -0.44506845 -0.53992796 0
0.42525291 -0.45267189 -0.57074976 0
0.5097599 -0.46951711 -0.59942675 0
0.60413361 -0.46226728 -0.63934946 0
0.68530273 -0.45640567 -0.67294598 0
0.79712296 -0.45157841 -0.72092628 0
0.8860321 -0.46516117 -0.75813389 0
0.34863567 -0.34565216 -0.54255676 0
0.44035053 -0.34507719 -0.57462597 0
0.53949547 -0.38271955 -0.61103296 0
0.59667969 -0.33850431 -0.63112831 0
0.69437599 -0.34444132 -0.67337894 0
0.80340862 -0.3545388 -0.72117996 0
0.90029335 -0.36948347 -0.76199484 0
0.99536324 -0.32598174 -0.79916143 0
0.36609364 -0.261574 -0.54918575 0
0.41947365 -0.26405168 -0.57163858 0
0.51829624 -0.27590984 -0.60182285 0
0.6967268 -0.24695989 -0.67190647 0
0.80359459 -0.2568531 -0.71863604 0
0.88956833 -0.25764644 -0.75269318 0
0.89108181 -0.19868889 -0.75154209 0
0.98976517 -0.17972735 -0.79159069 0
0.3210516 0.47463474 -0.53044605 0
0.50114346 -0.3490051 -0.59037018 0
0.3806057 -0.21027553 -0.51977253 0
0.42772388 -0.24507055 -0.55817604 0
0.51225758 -0.25056666 -0.59267664 0
0.60381794 -0.24965903 -0.63225269 0
0.27635956 -0.13334063 -0.46023083 0
0.37370872 -0.15378943 -0.47765636 0
0.65019131 -0.17009705 -0.6152997 0
0.21710968 -0.014214665 -0.41132355 0
0.25606537 -0.057485968 -0.42052841 0
0.20346355 0.044752926 -0.40406752 0
0.24641037 0.063538283 -0.39778519 0
0.20301247 0.12499228 -0.41492891 0
0.25181484 0.15836567 -0.41590309 0
0.20099163 0.22118884 -0.42709637 0
0.2735672 0.2498883 -0.43900776 0
0.32929802 0.28268957 -0.44036531 0
0.28143024 0.33351693 -0.46503067 0
0.33988857 0.36123976 -0.47430086 0
0.4169569 0.38601393 -0.46741772 0
0.34757996 0.44344708 -0.5194664 0
0.43154812 0.46190915 -0.54006433 0
0.64561653 0.46001869 -0.62274075 0
0.71630001 0.48342139 -0.63736486 0
0.91292763 0.4729065 -0.69893932 0
0.40748119 -0.1246013 -0.44973326 0
0.44682884 -0.13621867 -0.45606184 0
0.30386543 -0.030678988 -0.37913465 0
0.38621712 -0.071181148 -0.40724659 0
0.47043419 -0.050410211 -0.41380119 0
0.54193974 -0.050241351 -0.43749428 0
0.29346085 0.047973871 -0.36172152 0
0.38864326 0.07891798 -0.36307621 0
0.48721218 0.024196327 -0.40520573 0
0.30991364 0.13810319 -0.3848381 0
0.38630867 0.16274074 -0.37662506 0
0.31572056 0.24599966 -0.40580082 0
0.38028908 0.24888235 -0.39150715 0
0.31382275 0.33995399 -0.41717768 0
0.40113735 0.31417 -0.41471767 0
0.45519543 0.35455176 -0.43241596 0
0.19818878 -0.4674955 -0.49137306 0
0.26036835 -0.44827572 -0.51204824 0
0.37091541 -0.45277101 -0.55230856 0
0.4596777 -0.44807753 -0.57992744 0
0.52274704 -0.40947261 -0.60153198 0
0.61990166 -0.44983932 -0.64159822 0
0.71998501 -0.44471851 -0.68383837 0
0.83118916 -0.43661845 -0.73122168 0
0.98437595 -0.45415568 -0.79872513 0
0.2012434 -0.35971883 -0.48852015 0
0.26535988 -0.33685312 -0.51475859 0
0.36890888 -0.35701019 -0.55093479 0
0.46358299 -0.34922418 -0.58465099 0
0.53247452 -0.34156263 -0.60422993 0
0.62072182 -0.36408454 -0.6391511 0
0.7368803 -0.3527447 -0.68940735 0
0.83886147 -0.35534406 -0.73280382 0
0.96040916 -0.34000507 -0.7823329 0
0.97589397 -0.30892134 -0.78924799 0
0.2603569 -0.24316716 -0.51183653 0
0.36084652 -0.24942619 -0.54751158 0
0.46245003 -0.25179622 -0.58220053 0
0.53493881 -0.26576635 -0.60320234 0
0.62250423 -0.26769164 -0.6373601 0
0.73015499 -0.26270181 -0.68348646 0
0.83044434 -0.26011437 -0.72591782 0
0.98421478 -0.25959989 -0.79202271 0
0.24764061 -0.16448292 -0.50792408 0
0.35928535 -0.19853637 -0.54573059 0
0.20806313 0.27681085 -0.48336077 0
0.26157761 0.34033772 -0.5114789 0
0.2097187 0.43876782 -0.4978075 0
0.27031708 0.45863709 -0.5161109 0
0.36639977 0.45308572 -0.54250669 0
0.42513371 0.45186651 -0.56132841 0
0.39952469 -0.21220109 -0.52879143 0
0.21135902 -0.11874843 -0.45691824 0
0.29046059 -0.13848689 -0.46919012 0
0.40065384 -0.15455431 -0.48571491 0
0.44171238 -0.18693084 -0.51497746 0
0.71078968 -0.19627321 -0.64563704 0
0.19499874 -0.042333931 -0.43923044 0
0.28271008 -0.05429548 -0.43175077 0
0.36559868 -0.098096818 -0.44170237 0
0.19831276 0.052517653 -0.42517853 0
0.27014828 0.046511531 -0.40900803 0
0.20083332 0.13317522 -0.44661188 0
0.27583885 0.14171696 -0.4316659 0
0.1965189 0.22300681 -0.45729971 0
0.2956295 0.24699166 -0.45994616 0
0.37473869 0.25534651 -0.44995737 0
0.29219055 0.32761368 -0.4897337 0
0.37055874 0.34792453 -0.47574425 0
0.30978298 0.41333008 -0.49134016 0
0.3858614 0.43412703 -0.53293991 0
0.46692276 0.43708888 -0.53199291 0
0.52770615 0.48015916 -0.58493233 0
0.66936111 0.46229431 -0.62962055 0
0.76310158 0.43783945 -0.66099739 0
0.81466961 0.46184808 -0.66808224 0
0.45840359 -0.12507087 -0.46139717 0
0.3349905 -0.025575697 -0.37630558 0
0.41878414 -0.065855324 -0.41413593 0
0.51068115 -0.081930339 -0.42930317 0
0.57212257 -0.032784939 -0.44377613 0
0.31570053 0.047258377 -0.37704802 0
0.39711666 0.055147529 -0.35775185 0
0.56129265 -0.0004684329 -0.43741798 0
0.33737373 0.14519608 -0.39397621 0
0.41366863 0.14631644 -0.38499069 0
0.34944725 0.27355811 -0.40759611 0
0.41735172 0.23956165 -0.40495491 0
0.49308205 0.24642846 -0.40127563 0
0.3410368 0.32089457 -0.41546345 0
0.42628288 0.33110723 -0.42560005 0
0.49658108 0.34821266 -0.44807816 0
0.068624496 -0.42981362 -0.44228745 0
0.16387749 -0.42995435 -0.47851276 0
0.2302599 -0.44977239 -0.49884748 0
0.33371925 -0.47517166 -0.53607941 0
0.43929005 -0.48906067 -0.56727314 0
0.078827858 -0.34306768 -0.44842672 0
0.17246914 -0.34155545 -0.48031855 0
0.25569344 -0.35295537 -0.50538731 0
0.35811043 -0.39469981 -0.54394436 0
0.44583988 -0.40830368 -0.57248545 0
0.52513885 -0.43111768 -0.6002059 0
0.63179684 -0.4503381 -0.64615965 0
0.76077461 -0.47226974 -0.70181799 0
0.77947617 -0.4249813 -0.70960045 0
0.10052681 -0.23363319 -0.45365572 0
0.18756962 -0.24017295 -0.4859786 0
0.27999973 -0.2728003 -0.51523161 0
0.37999535 -0.29127574 -0.5486517 0
0.46616459 -0.30251849 -0.58024454 0
0.55705357 -0.3387388 -0.61079407 0
0.61746597 -0.32711026 -0.63529396 0
0.79640484 -0.36712226 -0.71704197 0
0.92792034 -0.38233817 -0.77215767 0
0.11675739 -0.13155046 -0.46159029 0
0.19536591 -0.15867177 -0.49001026 0
0.29940224 -0.20329717 -0.52347088 0
0.38651752 -0.22024035 -0.55047894 0
0.47084141 -0.24905768 -0.58141756 0
0.64428139 -0.26285678 -0.64783287 0
0.75405788 -0.23786786 -0.69215679 0
0.91480541 -0.2804879 -0.76259565 0
0.08100605 -0.0040627718 -0.44033146 0
0.09024334 -0.025458187 -0.44954014 0
0.88839722 -0.19059607 -0.74663448 0
0.068228722 0.08248052 -0.43086433 0
0.081694603 0.18885529 -0.44457769 0
0.10051441 0.28334576 -0.45508909 0
0.17675781 0.27753687 -0.47937679 0
0.099527359 0.38466176 -0.46075535 0
0.16841316 0.36795843 -0.47986126 0
0.10603523 0.46582574 -0.4657774 0
0.21409225 0.4556585 -0.49938631 0
0.28175449 0.44085535 -0.51498127 0
0.52789497 -0.28469273 -0.59757233 0
0.14783764 -0.099279046 -0.43799734 0
0.22694969 -0.13468656 -0.45108795 0
0.32855511 -0.15621251 -0.47250986 0
0.42073727 -0.17832741 -0.48930311 0
0.53407097 -0.25159726 -0.60006142 0
0.087283134 0.013939768 -0.41752911 0
0.15373135 -0.037679732 -0.42641068 0
0.24667645 -0.054280072 -0.41303062 0
0.30333805 -0.093138427 -0.4285202 0
0.089268684 0.077547103 -0.41860628 0
0.15760994 0.059607625 -0.41104555 0
0.24387264 0.055571675 -0.40270376 0
0.10124207 0.17191419 -0.42747307 0
0.17893314 0.15411159 -0.43256521 0
0.26052094 0.15696838 -0.41995859 0
0.20636082 0.25823835 -0.45649576 0
0.2909584 0.25173852 -0.44120121 0
0.21529007 0.36070725 -0.47919559 0
0.29747677 0.34543854 -0.46321678 0
0.39594555 0.36418018 -0.4600811 0
0.25305939 0.40316933 -0.49398232 0
0.30627441 0.4163622 -0.48996544 0
0.4073534 0.42075813 -0.51603842 0
0.52963257 0.49606016 -0.5799942 0
0.58616829 0.47596788 -0.59686089 0
0.69764328 0.47847813 -0.63131571 0
0.84081459 0.43819019 -0.67373037 0
0.28410435 -0.032825649 -0.37751913 0
0.36750984 -0.064138263 -0.38811684 0
0.43514633 -0.094003767 -0.41961098 0
0.2174387 0.073686033 -0.37308884 0
0.29636097 0.041880429 -0.35674477 0
0.36759949 0.060260743 -0.35969257 0
0.48295403 -0.013493061 -0.40415382 0
0.32761288 0.13890621 -0.38017559 0
0.39213276 0.15339428 -0.36507797 0
0.34771729 0.24127764 -0.39119053 0
0.40523624 0.2276355 -0.38534164 0
0.34418488 0.32176676 -0.41539049 0
0.42838764 0.32587686 -0.40795803 0
0.39631844 0.40026569 -0.42933178 0
0.070908546 -0.49854466 -0.43358326 0
0.086277962 -0.37291521 -0.43292856 0
0.14807701 -0.4391067 -0.45710421 0
0.14419937 -0.28939119 -0.45625687 0
0.20510578 -0.37274346 -0.47671127 0
0.2823925 -0.460372 -0.50273752 0
0.35173607 -0.48309791 -0.52679873 0
0.1426363 -0.17392984 -0.45430279 0
0.21040249 -0.22668436 -0.47828865 0
0.27200031 -0.2927548 -0.49948072 0
0.33025837 -0.37829691 -0.51964951 0
0.41087341 -0.44194803 -0.54641962 0
0.14948463 -0.091363668 -0.45570707 0
0.23426723 -0.16471872 -0.485672 0
0.34770012 -0.24263173 -0.52677584 0
0.40928555 -0.29807121 -0.54521513 0
0.45373631 -0.35480809 -0.55822611 0
0.53922558 -0.43036449 -0.59216595 0
0.52735233 -0.31971538 -0.58763885 0
0.60741234 -0.35874388 -0.61828041 0
0.70601273 -0.43465203 -0.66214609 0
0.69045448 -0.48911172 -0.65705156 0
0.15284824 0.26306584 -0.45181465 0
0.60726833 -0.2697936 -0.61534309 0
0.70621204 -0.26903212 -0.65689039 0
0.72184944 -0.35626033 -0.66761875 0
0.81472588 -0.37268662 -0.70360231 0
0.84589005 -0.49875075 -0.72478342 0
0.14971256 0.41739124 -0.45838165 0
0.19347668 0.32622516 -0.46961546 0
0.84885597 -0.30626339 -0.7190938 0
0.85322475 -0.36002591 -0.7229619 0
0.19015121 0.48458466 -0.4760561 0
0.26751328 0.41378796 -0.49778032 0
0.85526276 -0.26657721 -0.72093821 0
0.31950569 0.46616906 -0.5124402 0
0.99335003 -0.24457085 -0.77645636 0
0.11471939 -0.067986965 -0.42469168 0
0.16818619 -0.12205952 -0.43052435 0
0.10871983 0.052058429 -0.40547514 0
0.1598196 -0.010295391 -0.4059701 0
0.22612476 -0.07433179 -0.41300917 0
0.28215981 -0.15105543 -0.44646168 0
0.37758827 -0.20080107 -0.49351168 0
0.10765648 0.18654954 -0.41938448 0
0.15237617 0.11357245 -0.40950251 0
0.23256397 0.072227895 -0.39263153 0
0.25741291 -0.023479968 -0.3963604 0
0.34527493 -0.11363447 -0.41941309 0
0.40626812 -0.16958624 -0.4633317 0
0.15876198 0.22282803 -0.4342556 0
0.22467136 0.19891745 -0.4265995 0
0.27204323 0.14184096 -0.4024272 0
0.2420454 0.33714277 -0.47445631 0
0.28487587 0.27365366 -0.43875265 0
0.30152416 0.38489884 -0.46238041 0
0.33674812 0.34084556 -0.45558977 0
0.39608383 0.41297308 -0.48290253 0
0.47074604 0.47937697 -0.54290152 0
0.59892082 0.48857099 -0.58010578 0
0.70858002 0.42739335 -0.62580919 0
0.7464056 0.4916614 -0.62579393 0
0.84190845 0.42671469 -0.65564442 0
0.83185863 0.49981827 -0.65188503 0
0.94564724 0.47288981 -0.69420242 0
0.28296185 -0.053952605 -0.37761879 0
0.27962399 0.043303668 -0.34313393 0
0.31065273 -0.015461892 -0.34607315 0
0.40827942 -0.097399771 -0.40141678 0
0.28584957 0.18268418 -0.3792367 0
0.34100723 0.12673753 -0.36693001 0
0.36395931 0.060930401 -0.35310555 0
0.4699192 -0.032675147 -0.38713074 0
0.34588146 0.26368546 -0.38084126 0
0.38525009 0.19985229 -0.37379265 0
0.57519341 -0.015048742 -0.42428684 0
0.39259911 0.31312901 -0.40385818 0
0.45156288 0.267342 -0.38676834 0
0.44445419 0.38260019 -0.43764591 0
0.48633766 0.33888546 -0.40873146 0
-0.081993103 -0.36857474 -0.39907598 0
-0.020651817 -0.41568998 -0.41637325 0
0.033790588 -0.48358136 -0.43316126 0
-0.047482491 -0.22779343 -0.41085625 0
-0.025176048 -0.2820549 -0.41498804 0
0.050211906 -0.36982971 -0.43717909 0
0.10499096 -0.40151134 -0.4516449 0
0.16488647 -0.49522465 -0.4749341 0
-0.020421028 -0.16140503 -0.41730118 0
0.04764843 -0.21656555 -0.43689823 0
0.11598682 -0.28258717 -0.45932531 0
0.18175983 -0.38203895 -0.48173332 0
0.2581377 -0.45960087 -0.50693607 0
0.3284874 -0.47088924 -0.52976322 0
-0.014316559 -0.019752055 -0.41568565 0
0.041172981 -0.083911061 -0.43405104 0
0.13597202 -0.16212505 -0.46318388 0
0.18268967 -0.21289679 -0.48168182 0
0.23747826 -0.29704627 -0.50107241 0
0.28394222 -0.35055739 -0.51447868 0
0.36193466 -0.38665324 -0.54226208 0
0.42370033 -0.48704824 -0.5656867 0
0.0023937225 0.14000577 -0.42248821 0
0.040939331 0.05545947 -0.43873453 0
0.08206749 -0.024184436 -0.44855928 0
0.14999771 -0.10309854 -0.47168875 0
0.25045776 -0.18094468 -0.50309706 0
0.30677605 -0.27744693 -0.52286148 0
0.36463833 -0.30587795 -0.54456902 0
0.47033119 -0.36219352 -0.58319426 0
-0.0012178421 0.25958729 -0.41979504 0
0.0605793 0.18937197 -0.43989086 0
0.072232246 0.15368557 -0.43854761 0
0.66817284 -0.41804817 -0.65755272 0
0.66627598 -0.49664924 -0.66061926 0
-0.0061779022 0.43772605 -0.41849804 0
0.042710304 0.34119353 -0.43910217 0
0.10036087 0.27534392 -0.45449448 0
0.70220089 -0.34791884 -0.67213106 0
0.82329178 -0.47663724 -0.72617674 0
0.03351593 0.49390027 -0.43953753 0
0.11197281 0.41071516 -0.46253109 0
0.16194248 0.32395086 -0.47423887 0
0.85142517 -0.33205944 -0.73459959 0
0.85241127 -0.42171252 -0.73835945 0
0.1553297 0.49060106 -0.47648287 0
0.2237978 0.42605853 -0.49722338 0
0.32217312 0.42598048 -0.53063631 0
0.13476849 -0.10418361 -0.43405342 0
0.33059311 -0.40307629 -0.52734756 0
0.076335907 0.059016496 -0.41916561 0
0.1280098 -0.011340439 -0.41873598 0
0.21491146 -0.064495236 -0.41883039 0
0.25532818 -0.14628875 -0.45152617 0
0.33971786 -0.20993808 -0.50393152 0
0.3747406 -0.25779745 -0.54328442 0
0.42740345 -0.39267066 -0.56300688 0
0.52027988 -0.43275529 -0.59560442 0
0.12276077 0.12875485 -0.42170668 0
0.20173359 0.05976212 -0.39893103 0
0.2340889 -0.0034476519 -0.3912673 0
0.34208965 -0.12796655 -0.4421277 0
0.39611912 -0.17440337 -0.47640657 0
0.50710297 -0.27518129 -0.59005833 0
0.54909801 -0.33975518 -0.60582876 0
0.15040207 0.2803587 -0.46053791 0
0.2019186 0.20600414 -0.43465424 0
0.23468018 0.13916817 -0.41359806 0
0.21350574 0.33182615 -0.48243999 0
0.25919342 0.27791077 -0.45864534 0
0.31020355 0.22233215 -0.43254614 0
0.24853134 0.40631458 -0.47912312 0
0.31581688 0.35323066 -0.4543891 0
0.3663826 0.41690135 -0.50788927 0
0.50111198 0.43764406 -0.55495453 0
0.66019821 0.43668959 -0.61941195 0
0.77682209 0.4209404 -0.64822865 0
0.87880611 0.44484994 -0.67980003 0
0.2581358 -0.062931538 -0.3882966 0
0.25882053 0.051582724 -0.35630941 0
0.29786777 -0.013753563 -0.3568821 0
0.36069965 -0.076372474 -0.39843607 0
0.41653347 -0.12178111 -0.42998028 0
0.30130482 0.12615347 -0.37780619 0
0.35319233 0.08478725 -0.35529804 0
0.32584381 0.2869592 -0.40064383 0
0.35576725 0.20703894 -0.38486481 0
0.35894394 0.32829216 -0.41282511 0
0.41912746 0.28926137 -0.39117622 0
0.41444874 0.37620229 -0.43130827 0
0.48489857 0.33012894 -0.42530823 0
-0.27778053 -0.44837278 -0.34249592 0
-0.22742653 -0.31261197 -0.35633898 0
-0.21366596 -0.39230689 -0.36139917 0
-0.14013386 -0.44738218 -0.38546991 0
-0.19424915 -0.24434197 -0.3686533 0
-0.14171982 -0.31503934 -0.3870945 0
-0.076219559 -0.38880453 -0.40464497 0
-0.0046167374 -0.43384501 -0.42414331 0
-0.18638706 -0.13447988 -0.36670494 0
-0.13451576 -0.18446186 -0.38915682 0
-0.061411858 -0.24546242 -0.40960264 0
0.0013723373 -0.32307386 -0.42640543 0
0.053380966 -0.38323313 -0.43906355 0
0.14887047 -0.45268381 -0.47147846 0
-0.12832737 -0.044157684 -0.39082289 0
-0.065060616 -0.11139384 -0.40886974 0
0.018173218 -0.19253448 -0.43129349 0
0.069684982 -0.25863945 -0.44688034 0
0.13149166 -0.32298228 -0.46619511 0
0.22200394 -0.38860688 -0.49776649 0
0.26546764 -0.48159009 -0.51223278 0
-0.11532879 0.10746917 -0.39104223 0
-0.05698967 0.028354079 -0.41180372 0
0.0055456161 -0.039639682 -0.42952538 0
0.05150032 -0.10314962 -0.44045305 0
0.13162136 -0.16960734 -0.46422148 0
0.19215775 -0.23175529 -0.48812866 0
0.24440002 -0.28716502 -0.50398302 0
0.31291771 -0.37386674 -0.53003454 0
-0.11567497 0.25788513 -0.38559961 0
-0.057518959 0.18162128 -0.40823698 0
0.0011520386 0.10103697 -0.42517567 0
0.058578491 0.02130264 -0.44095421 0
0.15092564 -0.12146819 -0.47502995 0
0.2705698 -0.23983932 -0.51498461 0
0.33552456 -0.2715812 -0.53666067 0
-0.065138817 0.32517788 -0.40764856 0
-0.024090767 0.26249647 -0.41780663 0
0.050949097 0.19631433 -0.43965673 0
0.74324131 -0.47839671 -0.69184875 0
-0.059334755 0.45014128 -0.41101503 0
-0.0035772324 0.38185713 -0.42830086 0
0.051598549 0.32446608 -0.44355011 0
0.11814213 0.24898222 -0.46347952 0
0.77838993 -0.39335304 -0.70535755 0
0.75733185 -0.43509889 -0.69646072 0
0.054254532 0.45309258 -0.44517946 0
0.12226105 0.40948781 -0.46927643 0
0.17202759 0.33248195 -0.48166561 0
0.81205177 -0.37216613 -0.72152615 0
0.9708147 -0.49294606 -0.79068089 0
0.19023991 0.45427218 -0.49004316 0
0.27827644 0.45020002 -0.51610851 0
0.2279129 -0.48694021 -0.49436808 0
0.25964451 -0.42124429 -0.50599194 0
0.34588432 -0.46594465 -0.53585148 0
0.096869469 -0.068499714 -0.42797422 0
0.19102287 -0.16997021 -0.45878696 0
0.36867714 -0.41072842 -0.54417515 0
0.055778503 0.11387315 -0.41481733 0
0.093108177 0.025437862 -0.418437 0
0.15659428 -0.038416952 -0.42348909 0
0.2204237 -0.10224044 -0.43272734 0
0.3014946 -0.11601564 -0.42991161 0
0.33587742 -0.19860575 -0.49013329 0
0.39686298 -0.30747902 -0.55335331 0
0.48841 -0.37072426 -0.5855341 0
0.49092579 -0.45510969 -0.59091806 0
0.097499847 0.16116723 -0.43190193 0
0.14989281 0.10862023 -0.4222703 0
0.20453358 0.042496353 -0.40658617 0
0.26557446 -0.0402551 -0.40248537 0
0.40438557 -0.20042634 -0.49691105 0
0.50857449 -0.32348892 -0.59315252 0
0.61951351 -0.37519053 -0.63694096 0
0.60713863 -0.45047599 -0.6339159 0
0.15980148 0.22560418 -0.45353079 0
0.22716618 0.17624542 -0.43690109 0
0.25417233 0.11103907 -0.43505573 0
0.63672161 -0.30595911 -0.64282179 0
0.23219585 0.29746115 -0.46863556 0
0.26580811 0.25653443 -0.44770622 0
0.28024197 0.38559365 -0.49036932 0
0.33432293 0.32633206 -0.45832586 0
0.34234619 0.45082802 -0.52736759 0
0.4039135 0.40647438 -0.50201273 0
0.49904633 0.43794867 -0.5474968 0
0.60211945 0.46629554 -0.59772301 0
0.72319698 0.40287739 -0.64433193 0
0.74274254 0.47988379 -0.63721752 0
0.78783989 0.39851013 -0.65417957 0
0.90551472 0.46099749 -0.69237423 0
0.27355194 0.04471609 -0.36388302 0
0.30566216 -0.030002654 -0.36391926 0
0.37016869 -0.097911656 -0.41115856 0
0.2769928 0.17576572 -0.39395761 0
0.31222153 0.10955766 -0.38092661 0
0.37350082 0.077176422 -0.34984589 0
0.31317616 0.25052476 -0.40507603 0
0.38416862 0.18140504 -0.38201427 0
0.40068531 0.31340501 -0.41407871 0
0.42097759 0.2590642 -0.37926769 0
0.47048473 0.32064644 -0.43169403 0
-0.43298912 -0.47382948 -0.29031324 0
-0.36160278 -0.39480105 -0.31721878 0
-0.32432365 -0.44406053 -0.32802677 0
-0.32376385 -0.30871442 -0.32709837 0
-0.26332188 -0.36249134 -0.34402704 0
-0.19914055 -0.45407462 -0.36357355 0
-0.30534077 -0.17919427 -0.3301878 0
-0.24835682 -0.25088468 -0.35084295 0
-0.17508221 -0.30899689 -0.37488508 0
-0.14363766 -0.38401967 -0.38042355 0
-0.067930222 -0.4292725 -0.39906406 0
-0.23945427 -0.10746178 -0.35554695 0
-0.18260384 -0.16899967 -0.37056541 0
-0.12918949 -0.24907625 -0.38413477 0
-0.049893379 -0.3279286 -0.4077301 0
0.021766663 -0.40272757 -0.43004847 0
0.080612183 -0.46428403 -0.44921827 0
-0.21325111 0.027118087 -0.36409521 0
-0.20265293 -0.035056531 -0.36550665 0
-0.11268997 -0.10158578 -0.39238262 0
-0.057302475 -0.1761125 -0.40742064 0
0.016087532 -0.23020923 -0.42690086 0
0.05578804 -0.30133981 -0.43581343 0
0.15485668 -0.39513105 -0.47287178 0
0.20498371 -0.4679288 -0.49000978 0
-0.21434879 0.1544798 -0.35727549 0
-0.17039776 0.1100699 -0.3742938 0
-0.12617397 0.029504716 -0.39082241 0
-0.060263634 -0.023841053 -0.40525436 0
0.016716957 -0.1103588 -0.42752886 0
0.073816299 -0.17384624 -0.44205999 0
0.13856983 -0.24592721 -0.4650383 0
0.20415878 -0.30440727 -0.4883275 0
0.27113533 -0.40812367 -0.51148129 0
0.34633255 -0.46481508 -0.53567314 0
-0.15858173 0.25113127 -0.37828445 0
-0.12195301 0.17921516 -0.39070129 0
-0.061209679 0.12402061 -0.40587997 0
0.012813568 0.046449959 -0.42600584 0
0.065930367 -0.03398326 -0.44047976 0
0.12301445 -0.13123655 -0.45821285 0
0.22433853 -0.22147217 -0.4942565 0
0.31879234 -0.27041361 -0.5281105 0
0.31568909 -0.32480517 -0.52920485 0
0.39937305 -0.35234287 -0.55586338 0
0.49237347 -0.44672617 -0.58983898 0
-0.15286446 0.37525964 -0.38132763 0
-0.11672688 0.3330642 -0.38881302 0
-0.047785759 0.24411404 -0.40852308 0
0.027021408 0.16949159 -0.43048811 0
0.064624786 0.11209339 -0.43433475 0
0.61696053 -0.43243682 -0.63669443 0
-0.11396027 0.46341252 -0.39543724 0
-0.051880836 0.40799794 -0.41198826 0
0.016592026 0.31608891 -0.43023539 0
0.074661255 0.25422806 -0.44316912 0
0.038656235 0.44625267 -0.4408679 0
0.089440346 0.39269185 -0.4519763 0
0.1632967 0.3121776 -0.47538424 0
0.17321587 0.24787837 -0.47423267 0
0.84826183 -0.4167794 -0.73622179 0
0.82460308 -0.46039525 -0.72622538 0
0.16661644 0.4756642 -0.47926664 0
0.22839165 0.38685605 -0.49970007 0
0.85044479 -0.35744509 -0.73481846 0
0.26161003 0.44759494 -0.50586939 0
0.26040268 -0.3179414 -0.50143147 0
0.060023308 0.050053269 -0.41465569 0
0.10450363 -0.01698187 -0.41367579 0
0.15562248 -0.10703954 -0.42804241 0
0.22373962 -0.1378741 -0.43513632 0
0.35588455 -0.36430871 -0.53488064 0
0.43843365 -0.45498064 -0.56364679 0
0.098614693 0.11994311 -0.41970539 0
0.16327286 0.048595488 -0.40038919 0
0.22651958 -0.038954616 -0.40052414 0
0.26230717 -0.10164499 -0.40707541 0
0.34752655 -0.17984387 -0.47393131 0
0.40724277 -0.28300223 -0.55618095 0
0.48986626 -0.30698183 -0.58108664 0
0.49716187 -0.39623109 -0.58946371 0
0.59014988 -0.46303385 -0.62469482 0
0.13670444 0.2331295 -0.45369959 0
0.18440151 0.18008608 -0.42921877 0
0.21790028 0.11477467 -0.42390013 0
0.62560558 -0.35088965 -0.63739061 0
0.1696291 0.27716413 -0.45220518 0
0.25897312 0.2423715 -0.4458642 0
0.29108524 0.166935 -0.4102354 0
0.24958038 0.35771182 -0.47680616 0
0.30068111 0.32158479 -0.4514513 0
0.30959034 0.45176673 -0.5083909 0
0.38031197 0.37521881 -0.48136616 0
0.43056679 0.44422355 -0.53651524 0
0.55531883 0.47688296 -0.58496141 0
0.63758469 0.41736901 -0.61161232 0
0.71769333 0.45767811 -0.62843561 0
0.73931885 0.38214967 -0.6416707 0
0.83889675 0.35815108 -0.66865921 0
0.79767609 0.44883624 -0.64546967 0
0.23204517 0.028010637 -0.38202381 0
0.28113842 -0.023279369 -0.36138916 0
0.34521675 -0.095707595 -0.40522575 0
0.4099474 -0.14716649 -0.44345379 0
0.28481007 0.10488802 -0.37636805 0
0.3313055 0.045443207 -0.35459328 0
0.43069649 -0.10805297 -0.40331745 0
0.30639458 0.26736954 -0.39317846 0
0.35120201 0.17702684 -0.37204647 0
0.37995338 0.11120147 -0.36702442 0
0.34459877 0.29493695 -0.40157604 0
0.40977192 0.25283146 -0.38525867 0
0.4115591 0.37092161 -0.43852758 0
0.42876911 0.32161671 -0.39993477 0
-0.51116467 -0.47650316 -0.25901175 0
-0.44054985 -0.45928401 -0.29095507 0
-0.38444901 -0.33884758 -0.30779171 0
-0.35838413 -0.41762063 -0.31840897 0
-0.31602097 -0.19393 -0.32885313 0
-0.30059624 -0.29445857 -0.33421135 0
-0.28562355 -0.38094276 -0.33780575 0
-0.22510815 -0.45537046 -0.35745525 0
-0.25182915 -0.090353161 -0.35260105 0
-0.25278759 -0.14199609 -0.34982014 0
-0.21161079 -0.23426366 -0.36078548 0
-0.18056011 -0.33465058 -0.36767769 0
-0.13827515 -0.43847504 -0.38216352 0
-0.21081161 0.050727725 -0.3631053 0
-0.19704533 -0.03437987 -0.36750031 0
-0.15414524 -0.1179184 -0.38033295 0
-0.12425232 -0.20251334 -0.38711786 0
-0.099514008 -0.28844884 -0.39353848 0
-0.024307251 -0.38710859 -0.41945028 0
-0.029826164 -0.47284153 -0.41463995 0
-0.17130375 0.20325756 -0.37313843 0
-0.14316845 0.11455175 -0.38250351 0
-0.12953949 0.016012549 -0.38845778 0
-0.053704262 -0.057719707 -0.40830183 0
-0.041038513 -0.14571804 -0.41524458 0
-0.0080099106 -0.24119595 -0.42296886 0
0.039438248 -0.33542222 -0.43236971 0
0.086295128 -0.43938705 -0.44705963 0
-0.12803364 0.33641902 -0.38446665 0
-0.10709763 0.25288123 -0.3943882 0
-0.057817459 0.16027248 -0.40812826 0
-0.03704834 0.064737082 -0.41447401 0
-0.0017299652 -0.021201313 -0.4255538 0
0.054645538 -0.11581466 -0.43933868 0
0.069776535 -0.22337314 -0.44245529 0
0.12707901 -0.30348969 -0.46216631 0
0.17331982 -0.38277194 -0.47750711 0
0.23466969 -0.46588144 -0.49754477 0
-0.10123348 0.46813658 -0.3944273 0
-0.049246788 0.38071325 -0.41139221 0
-0.018584251 0.29092216 -0.41750097 0
0.014387131 0.18240893 -0.42670441 0
0.048772812 0.097466648 -0.43028069 0
0.059693336 -0.0048543811 -0.43795681 0
0.11490536 -0.075374216 -0.45593882 0
0.18016148 -0.18739298 -0.47830725 0
0.2036438 -0.25395602 -0.484478 0
0.24960041 -0.33291766 -0.5013299 0
0.26262379 -0.40924239 -0.50721407 0
0.031744957 0.41707009 -0.43363762 0
0.07479763 0.32661206 -0.44610023 0
0.095486641 0.2429598 -0.45138264 0
0.11070538 0.16857886 -0.45123529 0
0.32102108 -0.24901968 -0.52632332 0
0.37177181 -0.33142877 -0.54769754 0
0.35754299 -0.41461268 -0.53769875 0
0.13036251 0.44871441 -0.4691329 0
0.16045475 0.37962565 -0.47561598 0
0.17996788 0.29328805 -0.47370815 0
0.41637325 -0.27041253 -0.5579567 0
0.48256969 -0.46304929 -0.58471632 0
0.23215485 0.39582714 -0.49741125 0
0.28730297 0.31823501 -0.50750875 0
0.61594677 -0.44300312 -0.63396692 0
0.2937336 0.44969741 -0.51726246 0
0.63451004 -0.36069193 -0.63907766 0
0.83903599 -0.42640671 -0.72820616 0
0.86616325 -0.38784191 -0.73987293 0
0.09713459 0.094336778 -0.41505098 0
0.11778164 0.0059258342 -0.41939545 0
0.16188908 -0.086701334 -0.43382978 0
0.19482994 -0.12780905 -0.44123316 0
0.1355238 0.21382695 -0.43841743 0
0.16858292 0.14886513 -0.42875719 0
0.20030308 0.053551435 -0.40488911 0
0.24765301 -0.054812104 -0.41432428 0
0.24561501 -0.12609613 -0.44282484 0
0.22328949 0.25671741 -0.46636343 0
0.25591087 0.19679689 -0.42519379 0
0.30856228 0.11824626 -0.4133749 0
0.38244057 -0.16118193 -0.47641039 0
0.48251152 -0.34196275 -0.577456 0
0.28324032 0.39477885 -0.49586868 0
0.30393505 0.30823857 -0.45826149 0
0.32359219 0.22781256 -0.41832304 0
0.50026894 -0.27761415 -0.5821867 0
0.34378529 0.45089746 -0.50650644 0
0.37769604 0.37938637 -0.47272968 0
0.4253273 0.48796442 -0.53829813 0
0.44787693 0.42571521 -0.50779772 0
0.53400326 0.457436 -0.58304787 0
0.59535027 0.48404109 -0.59430695 0
0.68268013 0.38353953 -0.62455845 0
0.75022316 0.40727785 -0.64775515 0
0.79163837 0.35190794 -0.65829611 0
0.87330627 0.46443343 -0.67389774 0
0.25597286 0.050131768 -0.36586094 0
0.30203247 -0.021977842 -0.35937595 0
0.31964493 0.17362806 -0.38651371 0
0.33521938 0.084523976 -0.36594486 0
0.33636475 0.031554073 -0.35632229 0
0.42840481 -0.099911541 -0.41993141 0
0.34584332 0.30958164 -0.39264441 0
0.38306713 0.21423167 -0.38467884 0
0.39224434 0.11920652 -0.36057758 0
0.41552544 0.34196848 -0.41783714 0
0.44471073 0.27804106 -0.39973259 0
0.47749805 0.36322308 -0.43878269 0
-0.65472221 -0.47919938 -0.2138176 0
-0.59614468 -0.36630934 -0.23524332 0
-0.58142376 -0.43438435 -0.23862171 0
-0.52665806 -0.30553171 -0.26248503 0
-0.48312759 -0.37912413 -0.27750683 0
-0.44782734 -0.47778443 -0.29014587 0
-0.44983387 -0.20237079 -0.29225636 0
-0.43276405 -0.25961861 -0.2985096 0
-0.41006279 -0.33583462 -0.30323553 0
-0.34638119 -0.43262395 -0.32335234 0
-0.36721802 -0.061427593 -0.3212676 0
-0.38900566 -0.13014603 -0.31331062 0
-0.34788132 -0.21744654 -0.32188225 0
-0.31982899 -0.3183884 -0.32954741 0
-0.26336193 -0.3911466 -0.34596109 0
-0.32959747 0.023587823 -0.33303499 0
-0.30318356 -0.085335761 -0.34199858 0
-0.26055241 -0.1909413 -0.35170698 0
-0.22007656 -0.27456397 -0.36678648 0
-0.18677998 -0.35871208 -0.37323856 0
-0.13816357 -0.44717881 -0.38655758 0
-0.2900629 0.14913556 -0.34246969 0
-0.25129986 0.049319297 -0.35670853 0
-0.22564316 -0.040547639 -0.36059523 0
-0.17837524 -0.14931515 -0.37701607 0
-0.12518501 -0.22699052 -0.39087915 0
-0.10455132 -0.32592756 -0.39559746 0
-0.052121162 -0.41056895 -0.40914679 0
-0.24285984 0.33460286 -0.35289717 0
-0.2256794 0.2642343 -0.3608942 0
-0.20388699 0.17962381 -0.36813164 0
-0.16947269 0.085953325 -0.37966108 0
-0.13384724 0.013498336 -0.38621759 0
-0.096205711 -0.097348154 -0.39794779 0
-0.03745079 -0.18602109 -0.41296196 0
-0.010557175 -0.2936987 -0.41945553 0
0.040830612 -0.36425251 -0.43538332 0
0.055739403 -0.45756748 -0.439291 0
-0.19356918 0.40655822 -0.3688817 0
-0.16417503 0.32227972 -0.37475061 0
-0.11485004 0.21049052 -0.39256001 0
-0.074548721 0.12327245 -0.40436268 0
-0.041447639 0.043843269 -0.41355991 0
-0.0073184967 -0.065349132 -0.42416811 0
0.056591034 -0.15420783 -0.44075632 0
0.066908836 -0.23524991 -0.44172478 0
0.12607002 -0.31072485 -0.45662403 0
0.1271677 -0.39638793 -0.46299791 0
-0.11031628 0.44354475 -0.39404917 0
-0.067285538 0.35551682 -0.40480518 0
-0.040369034 0.24719837 -0.41345835 0
0.015242577 0.17008495 -0.42459202 0
0.034964561 0.078109175 -0.43326283 0
0.054900169 -0.038903892 -0.43953276 0
0.12016582 -0.091737419 -0.46129608 0
0.17146206 -0.20388424 -0.47918415 0
0.18893147 -0.28726953 -0.48526382 0
0.24519062 -0.39705792 -0.50355911 0
0.30950928 -0.4905366 -0.52436018 0
-0.009803772 0.47991854 -0.42627573 0
0.017539024 0.39587432 -0.43213654 0
0.055579185 0.28149679 -0.44430161 0
0.089152336 0.22543952 -0.44715929 0
0.23399544 -0.19299036 -0.50118685 0
0.28472328 -0.28280139 -0.5151701 0
0.36506081 -0.42028332 -0.54600048 0
0.12145615 0.42658699 -0.46609402 0
0.1566391 0.33591577 -0.47080946 0
0.14828777 0.2584177 -0.47809601 0
0.38778591 -0.28911212 -0.54858017 0
0.45854282 -0.4605591 -0.57696629 0
0.20240307 0.46847299 -0.48885393 0
0.24991798 0.39174956 -0.50417757 0
0.28578186 0.43480134 -0.51133919 0
0.68008232 -0.38211855 -0.6626792 0
0.66620255 -0.4677588 -0.66045904 0
0.90654373 -0.49473909 -0.76326084 0
0.063714027 0.1542581 -0.41656971 0
0.074002266 0.078896672 -0.41998005 0
0.10814953 -0.0049340427 -0.42000341 0
0.16589451 -0.093158036 -0.43226814 0
0.21003246 -0.17736447 -0.45875645 0
0.11879349 0.19729453 -0.43484116 0
0.16120148 0.11216792 -0.41574001 0
0.19337559 0.039067566 -0.39980364 0
0.23775959 -0.064407527 -0.4138298 0
0.22409534 -0.1291157 -0.43709469 0
0.22823143 0.24085891 -0.45169258 0
0.24584866 0.15621844 -0.43050337 0
0.39669609 -0.18996835 -0.48707485 0
0.46576118 -0.37121737 -0.57466412 0
0.26862431 0.35759982 -0.46888161 0
0.29857922 0.28039861 -0.44492054 0
0.30565262 0.19103864 -0.42063236 0
0.49036694 -0.30838701 -0.58232832 0
0.3428154 0.40326628 -0.48477268 0
0.38912392 0.35360074 -0.47178221 0
0.41345501 0.45328274 -0.53532648 0
0.46246052 0.38517666 -0.50131035 0
0.51712322 0.49848634 -0.56937981 0
0.52461147 0.43474686 -0.5740428 0
0.61306572 0.46825948 -0.60177946 0
0.68754005 0.39286408 -0.61907291 0
0.70738602 0.47590396 -0.62621021 0
0.80672169 0.4044458 -0.6545372 0
0.78830242 0.33962142 -0.64677906 0
0.83428669 0.45853439 -0.66705799 0
0.24410725 0.037778854 -0.35568237 0
0.28600311 -0.041782051 -0.37439728 0
0.29562855 0.14561763 -0.38124704 0
0.31285858 0.06716755 -0.36066532 0
0.30446911 -0.01530686 -0.34754467 0
0.40390396 -0.11369759 -0.41815662 0
0.34029865 0.24542144 -0.38235474 0
0.37599945 0.19780439 -0.37568665 0
0.37298298 0.1000644 -0.35104656 0
0.40480232 0.3153308 -0.40070438 0
0.42840862 0.2695336 -0.37231159 0
0.47738361 0.32806832 -0.42226601 0
-0.78917789 -0.36483762 -0.16178513 0
-0.75461769 -0.45262593 -0.17613173 0
-0.71196556 -0.31851935 -0.19253683 0
-0.67517471 -0.41399077 -0.20412207 0
-0.62719536 -0.19500658 -0.22045231 0
-0.62989426 -0.27703074 -0.22270966 0
-0.58643627 -0.38859317 -0.23786449 0
-0.53205109 -0.49207669 -0.2573452 0
-0.56445503 -0.17045876 -0.24797201 0
-0.54570103 -0.23745567 -0.25299025 0
-0.50122452 -0.33263603 -0.26781654 0
-0.47630596 -0.44475868 -0.27668762 0
-0.47670555 -0.034684896 -0.28100443 0
-0.4908638 -0.11696169 -0.27505398 0
-0.44561672 -0.21468243 -0.2894249 0
-0.40682602 -0.28384936 -0.30254078 0
-0.37311268 -0.38776493 -0.3121419 0
-0.3403368 -0.47292918 -0.32510138 0
-0.43608761 0.013014078 -0.29775858 0
-0.38911629 -0.067409754 -0.31248522 0
-0.35994339 -0.16989928 -0.31902218 0
-0.31947231 -0.27317744 -0.32709551 0
-0.29174423 -0.33645692 -0.33516407 0
-0.24279976 -0.447447 -0.35246325 0
-0.37069988 0.1198023 -0.32101631 0
-0.35014629 0.049461603 -0.3245945 0
-0.32352352 -0.031627178 -0.33193016 0
-0.26064968 -0.12760931 -0.3526454 0
-0.25235367 -0.20773831 -0.34792566 0
-0.1828022 -0.30499032 -0.3689971 0
-0.16456604 -0.38915384 -0.37086535 0
-0.10974312 -0.48072055 -0.39270115 0
-0.32871342 0.28596795 -0.32760906 0
-0.3004694 0.18797514 -0.33887196 0
-0.27340031 0.10084468 -0.34511328 0
-0.23664665 -0.0060459077 -0.3561101 0
-0.20298672 -0.073443204 -0.36171341 0
-0.13616848 -0.18328968 -0.38083267 0
-0.12298107 -0.27053842 -0.38445234 0
-0.075974464 -0.3627933 -0.39986086 0
0.017395973 -0.45183179 -0.43030596 0
-0.29466152 0.48739776 -0.33049965 0
-0.27499866 0.40567356 -0.34214687 0
-0.2633791 0.31922963 -0.34490967 0
-0.21505451 0.23477522 -0.35674715 0
-0.17690468 0.13296118 -0.3708477 0
-0.14400196 0.037155807 -0.38074541 0
-0.10097218 -0.060472399 -0.39220762 0
-0.062360764 -0.13489217 -0.40179014 0
-0.025407791 -0.23225969 -0.41283751 0
0.015089989 -0.32156253 -0.42300177 0
0.068612099 -0.41213048 -0.43891716 0
-0.21423912 0.46107128 -0.35622835 0
-0.17047119 0.35911432 -0.37262154 0
-0.12381458 0.27201119 -0.38721657 0
-0.068058014 0.17513576 -0.39996815 0
-0.053911209 0.090080738 -0.40581703 0
-0.030451775 -0.0032698214 -0.41168928 0
0.035528183 -0.088407844 -0.432549 0
0.057451248 -0.1839034 -0.43791151 0
0.10890198 -0.28535885 -0.45342922 0
0.11583138 -0.35257116 -0.45097923 0
0.21173859 -0.48216194 -0.48983669 0
-0.1154108 0.48526204 -0.3879838 0
-0.08523941 0.40963337 -0.3968792 0
-0.043606758 0.30288008 -0.4096632 0
0.0060472488 0.2183359 -0.42384243 0
0.049279213 0.13863683 -0.43198299 0
0.064014435 0.01127401 -0.43932247 0
0.13344002 -0.13348746 -0.46013737 0
0.18546963 -0.24352083 -0.47640181 0
0.25594616 -0.3464047 -0.50044584 0
0.23468208 -0.41408208 -0.495296 0
0.027256966 0.44192719 -0.43369198 0
0.050569534 0.36807135 -0.438972 0
0.079043388 0.26472914 -0.44245529 0
0.25498009 -0.19071639 -0.50618505 0
0.30979633 -0.29774255 -0.52281761 0
0.38408947 -0.38913497 -0.54793882 0
0.35561085 -0.46449107 -0.53991461 0
0.11196136 0.47218004 -0.46140337 0
0.13828564 0.39381117 -0.46632576 0
0.17617226 0.31970382 -0.47033501 0
0.38743401 -0.25992844 -0.54916954 0
0.40648842 -0.30953988 -0.55331373 0
0.49476337 -0.49198127 -0.58749866 0
0.20900536 0.42042348 -0.48085928 0
0.5593214 -0.31109434 -0.60713577 0
0.54004192 -0.39900625 -0.60273886 0
0.33309746 0.48539171 -0.52396917 0
0.79441833 -0.41884017 -0.71105194 0
0.79340076 -0.48400399 -0.7155323 0
0.84305382 -0.38862062 -0.7331953 0
0.076008797 0.11461669 -0.41345024 0
0.11491394 0.034897536 -0.40799236 0
0.11925411 -0.059409887 -0.42784309 0
0.11233521 0.23713985 -0.43463755 0
0.15354252 0.16829044 -0.41341257 0
0.18408108 0.08647576 -0.38861322 0
0.20543098 -0.020115167 -0.41020679 0
0.25021553 -0.094343007 -0.44169474 0
0.31447983 -0.14359576 -0.48677826 0
0.20649719 0.2834827 -0.44397831 0
0.23463917 0.21533689 -0.40699244 0
0.48898983 -0.41326827 -0.57909346 0
0.27163792 0.40865934 -0.45218325 0
0.27992916 0.33825773 -0.44400406 0
0.33036041 0.45279536 -0.48165226 0
0.35360336 0.41092715 -0.43702555 0
0.40918159 0.49737188 -0.51725435 0
0.40977097 0.42649832 -0.46688175 0
0.56914234 0.48284027 -0.5845933 0
0.69086933 0.39218053 -0.62767887 0
0.74993896 0.46051857 -0.63864326 0
0.77669144 0.38378984 -0.64654303 0
0.24675465 0.070860684 -0.35587072 0
0.26860523 0.018255919 -0.35709572 0
0.29249001 0.18257743 -0.36473036 0
0.30331135 0.10747898 -0.34391594 0
0.31910515 0.01302442 -0.36579514 0
0.31136894 0.34462801 -0.38321924 0
0.35044861 0.2536796 -0.37871838 0
0.3700037 0.16222087 -0.35604191 0
0.39830875 0.45626318 -0.4343152 0
0.38952065 0.38326156 -0.401474 0
0.4168148 0.31387347 -0.38140678 0
-0.99372578 -0.37958485 -0.091364384 0
-0.97067261 -0.48514828 -0.098304272 0
-0.9029398 -0.33354673 -0.1252327 0
-0.88580608 -0.43222532 -0.13113213 0
-0.82574368 -0.28944561 -0.1529665 0
-0.78441238 -0.40080282 -0.16869974 0
-0.74935436 -0.49109247 -0.17911768 0
-0.78555775 -0.18706819 -0.16583347 0
-0.72885799 -0.27381983 -0.18750334 0
-0.71006012 -0.35423148 -0.19440031 0
-0.68151283 -0.43885788 -0.2024312 0
-0.70393467 -0.13633576 -0.19482851 0
-0.65971851 -0.2361972 -0.2130208 0
-0.61813641 -0.33976433 -0.22836208 0
-0.59815693 -0.39937526 -0.23346281 0
-0.63767719 -0.021952599 -0.22071981 0
-0.62418652 -0.092277139 -0.22544289 0
-0.55988789 -0.19269425 -0.24961329 0
-0.53396988 -0.28591415 -0.25735903 0
-0.49901199 -0.36723262 -0.27002192 0
-0.46902847 -0.46175846 -0.28025436 0
-0.56739998 0.044987619 -0.24965763 0
-0.52942181 -0.058456063 -0.26124001 0
-0.47712898 -0.17890158 -0.28068972 0
-0.424716 -0.24421799 -0.29727364 0
-0.4036417 -0.33288157 -0.30521297 0
-0.38180733 -0.41104987 -0.30886078 0
-0.50692463 0.12108392 -0.27395248 0
-0.46638107 0.065967798 -0.28784561 0
-0.42537403 -0.02092582 -0.30103493 0
-0.40132999 -0.095024824 -0.30735493 0
-0.35924816 -0.18293476 -0.32102585 0
-0.31256008 -0.29940817 -0.3329134 0
-0.29002666 -0.39132529 -0.33345747 0
-0.21945 -0.46222064 -0.35891771 0
-0.43934345 0.29548433 -0.29346657 0
-0.43233109 0.19368982 -0.30050564 0
-0.38075447 0.12168562 -0.3171525 0
-0.37134838 0.037326574 -0.31919909 0
-0.30579472 -0.06524837 -0.33688927 0
-0.27893353 -0.16573733 -0.34251308 0
-0.22925282 -0.24277502 -0.35519361 0
-0.20439625 -0.34285551 -0.36087036 0
-0.1455822 -0.42973879 -0.37720966 0
-0.39882565 0.42226219 -0.30326653 0
-0.37527847 0.33689213 -0.31494951 0
-0.3415451 0.24723616 -0.32645416 0
-0.30348301 0.16003332 -0.33792925 0
-0.26173306 0.051917851 -0.35049534 0
-0.22523975 -0.04580763 -0.35720253 0
-0.17139435 -0.13756657 -0.37542772 0
-0.12746048 -0.22133681 -0.38592577 0
-0.10771179 -0.33126664 -0.39144516 0
-0.067894936 -0.39963123 -0.40387917 0
-0.033638 -0.49030811 -0.41123104 0
-0.31600189 0.45925072 -0.33282709 0
-0.28969193 0.37073612 -0.34028292 0
-0.23726845 0.27821985 -0.3553071 0
-0.22800541 0.19969833 -0.35711193 0
-0.18323612 0.10356233 -0.36916065 0
-0.14491558 0.02108258 -0.38416624 0
-0.096846581 -0.081564516 -0.39538431 0
-0.052102089 -0.19920123 -0.41163588 0
-0.026111603 -0.26570818 -0.41170311 0
0.036036491 -0.34344986 -0.42865896 0
0.05442524 -0.44619623 -0.43720818 0
-0.19764996 0.42112711 -0.36457682 0
-0.16090965 0.3221679 -0.37664557 0
-0.12027645 0.23840114 -0.38810349 0
-0.089421272 0.12285945 -0.40013266 0
-0.042256355 0.031770676 -0.4117794 0
-0.027763367 -0.024381936 -0.4087615 0
0.018181801 -0.11831981 -0.42583847 0
0.061636925 -0.22395015 -0.43998623 0
0.11811066 -0.31868714 -0.45639992 0
0.12908554 -0.41833144 -0.46075916 0
0.21830177 -0.49983102 -0.49238205 0
-0.11622715 0.44314283 -0.38731194 0
-0.076416969 0.34076425 -0.4029398 0
-0.021413803 0.29931244 -0.41448832 0
-0.0073862076 0.19752094 -0.41984892 0
0.042144775 0.10252282 -0.42630625 0
0.06484127 -0.014187247 -0.43669748 0
0.11073589 -0.097396195 -0.43682432 0
0.13468742 -0.1940884 -0.46360111 0
0.20752525 -0.27122802 -0.48663902 0
0.24728298 -0.36202538 -0.50079632 0
0.22615814 -0.43797842 -0.49099112 0
0.0080518723 0.40755746 -0.43071127 0
0.081461906 0.3088772 -0.44877148 0
0.094907761 0.21987659 -0.44020367 0
0.10960007 0.14695799 -0.43664026 0
0.247015 -0.23632598 -0.50290632 0
0.32181549 -0.29918367 -0.52591705 0
0.40231895 -0.48314002 -0.55629683 0
0.11535549 0.434778 -0.45978165 0
0.13544846 0.33345345 -0.4628706 0
0.18928242 0.30778915 -0.47094822 0
0.45320511 -0.39604798 -0.5739193 0
0.17600822 0.48592758 -0.48164129 0
0.22563553 0.38216695 -0.48720741 0
0.47614765 -0.30664247 -0.57821417 0
0.60445786 -0.48911166 -0.63210964 0
0.30991459 0.43722427 -0.51769972 0
0.6537466 -0.43225622 -0.65171957 0
0.36351204 0.46558321 -0.53339148 0
0.10078526 0.071787357 -0.40278864 0
0.11567497 -0.015564293 -0.42186737 0
0.12908077 -0.07668063 -0.42085266 0
0.1862278 -0.12727436 -0.43356466 0
0.15026188 0.13064706 -0.41589403 0
0.20019627 0.048948348 -0.39381456 0
0.20956898 -0.051015645 -0.41448784 0
0.23965454 -0.1076763 -0.42918777 0
0.20689583 0.23344818 -0.44511175 0
0.23419571 0.16915086 -0.42035389 0
0.27014446 0.10565844 -0.39829731 0
0.3783617 -0.17994115 -0.48248959 0
0.24312687 0.3954643 -0.47169876 0
0.28889275 0.30162811 -0.44602871 0
0.28209114 0.22910389 -0.42365742 0
0.32557678 0.40662003 -0.48952961 0
0.36908627 0.36355266 -0.44878006 0
0.42447948 0.47755653 -0.53405714 0
0.41929054 0.3990564 -0.51574469 0
0.60418224 0.35241261 -0.59570599 0
0.65784168 0.46128529 -0.61876631 0
0.65792656 0.37135243 -0.60963345 0
0.74826622 0.41405004 -0.64038038 0
0.78725147 0.28404829 -0.63661575 0
0.87629986 0.43692437 -0.6776638 0
0.84750462 0.31850731 -0.66699028 0
0.91279793 0.47015512 -0.69490719 0
0.2572422 0.014763564 -0.36432791 0
0.2805233 -0.041419417 -0.36351728 0
0.29470921 0.14171848 -0.36572981 0
0.31696987 0.074729204 -0.36175346 0
0.33872223 0.018234611 -0.3332634 0
0.34474277 0.27631763 -0.39997864 0
0.35886097 0.20861936 -0.37876892 0
0.39271832 0.14055657 -0.35273743 0
0.40553761 0.31432331 -0.39901257 0
0.43175507 0.25268492 -0.36610699 0
-0.98402882 -0.411163 -0.09707737 0
-0.95665741 -0.47469714 -0.10607195 0
-0.96204758 -0.17515966 -0.10696507 0
-0.9396677 -0.28076649 -0.11543655 0
-0.89743137 -0.35704052 -0.13018465 0
-0.85997295 -0.44975397 -0.14355087 0
-0.90565586 -0.091488183 -0.12724304 0
-0.88190651 -0.14355248 -0.1384697 0
-0.84854889 -0.24017915 -0.14928055 0
-0.79866219 -0.32615095 -0.16592836 0
-0.77485466 -0.41600353 -0.1749835 0
-0.83365822 -0.013816357 -0.15226173 0
-0.79429436 -0.10759634 -0.16795921 0
-0.77335739 -0.18758067 -0.17455912 0
-0.73441887 -0.29031119 -0.19099474 0
-0.67122459 -0.39559945 -0.21344328 0
-0.65358829 -0.45873347 -0.21524191 0
-0.72638512 0.019756407 -0.19574594 0
-0.70891762 -0.056964546 -0.19944477 0
-0.68750286 -0.16071731 -0.20683193 0
-0.6431942 -0.25002325 -0.22057629 0
-0.58858681 -0.35997665 -0.23922968 0
-0.58922768 -0.4410052 -0.24257755 0
-0.52651501 -0.49023083 -0.26255512 0
-0.6698122 0.13863769 -0.21663761 0
-0.68058777 0.072675854 -0.21090698 0
-0.61980152 -0.028214753 -0.23437405 0
-0.60093689 -0.11035675 -0.23707199 0
-0.55899715 -0.19911379 -0.25361967 0
-0.53485203 -0.29523769 -0.26143169 0
-0.4748621 -0.39024952 -0.28324318 0
-0.41569328 -0.47408974 -0.30527592 0
-0.62862015 0.21165344 -0.2312665 0
-0.57960224 0.12382671 -0.25150108 0
-0.54066181 -0.0014356673 -0.26406479 0
-0.52927303 -0.10772863 -0.26882792 0
-0.46003628 -0.16043651 -0.29216862 0
-0.41575718 -0.27570331 -0.30699062 0
-0.38797283 -0.36395454 -0.31367826 0
-0.35356426 -0.44382739 -0.32352448 0
-0.54757786 0.3077175 -0.26305914 0
-0.53601456 0.23171502 -0.26808167 0
-0.49857616 0.16078392 -0.28024817 0
-0.47978687 0.065082222 -0.28685188 0
-0.42161274 -0.039024472 -0.30649805 0
-0.38252163 -0.10950643 -0.32116079 0
-0.3423233 -0.20688975 -0.32657003 0
-0.28994751 -0.30844527 -0.34278774 0
-0.26390171 -0.41195503 -0.34684086 0
-0.48783207 0.42984504 -0.28134775 0
-0.47484112 0.36262861 -0.28938913 0
-0.44363689 0.28238967 -0.30016947 0
-0.40266418 0.18169817 -0.31351233 0
-0.36580467 0.072368741 -0.32680035 0
-0.33914185 -0.0072059035 -0.33659363 0
-0.30099201 -0.10156476 -0.34334373 0
-0.24055386 -0.193468 -0.36412191 0
-0.21302795 -0.24455678 -0.36704636 0
-0.16475964 -0.35405898 -0.38110828 0
