# .PCD v0.7 - Point Cloud Data file format
VERSION 0.7
FIELDS x y z intensity
SIZE 4 4 4 4
TYPE F F F F
COUNT 1 1 1 1
WIDTH 1296
HEIGHT 1
VIEWPOINT 0 0 0 1 0 0 0
POINTS 1296
DATA ascii
0.85726833 0.043336868 -0.37183237 0
0.93137121 0.037571907 -0.37366688 0
0.84823132 0.1546936 -0.36898851 0
0.94227886 0.14740372 -0.37078536 0
0.82229614 0.25842762 -0.36242592 0
0.92368555 0.23900986 -0.36485195 0
0.76972198 0.34158134 -0.35753536 0
0.8408556 0.35623741 -0.35583687 0
0.93429232 0.34121895 -0.35789418 0
0.71889067 0.4459753 -0.35024261 0
0.83030224 0.44542313 -0.35121155 0
0.92294025 0.4299202 -0.35087776 0
0.22610903 -0.45304298 -0.32747567 0
0.30787754 -0.46609688 -0.33320189 0
0.38968182 -0.46028614 -0.3497746 0
0.48248386 -0.45522785 -0.36455262 0
0.60101748 -0.45012474 -0.37829268 0
0.71067953 -0.46233749 -0.37540436 0
0.81050396 -0.47600746 -0.37191451 0
0.89916134 -0.45081997 -0.37190652 0
0.3261323 -0.37944984 -0.35659468 0
0.4267211 -0.34985256 -0.37592578 0
0.50694466 -0.34516335 -0.38113141 0
0.60530806 -0.35120296 -0.37844288 0
0.72047663 -0.35345364 -0.37639606 0
0.80365038 -0.37203789 -0.37375271 0
0.92649603 -0.36235237 -0.37244737 0
0.11569452 -0.22622204 -0.29095042 0
0.33084679 -0.23500538 -0.3819375 0
0.41726494 -0.23175812 -0.38233542 0
0.50949287 -0.25604153 -0.38157976 0
0.61088133 -0.25632477 -0.37819195 0
0.70674133 -0.26044178 -0.37528253 0
0.81119156 -0.25654697 -0.37523103 0
0.89968109 -0.2709198 -0.37209392 0
0.38919449 -0.15145969 -0.38397372 0
0.51076841 -0.15808868 -0.38251662 0
0.61371326 -0.15153885 -0.3796351 0
0.68661976 -0.1502676 -0.37767899 0
0.80225945 -0.15124321 -0.37588954 0
0.90295362 -0.15247917 -0.37209976 0
0.99076796 -0.16246414 -0.37114525 0
0.34325743 -0.055973053 -0.38099575 0
0.41924906 -0.052685738 -0.38212395 0
0.51580143 -0.06361866 -0.38215017 0
0.61960936 -0.053913116 -0.38009989 0
0.70589447 -0.058382034 -0.37709045 0
0.81991911 -0.048106194 -0.37725759 0
0.89453363 -0.055801392 -0.37320757 0
0.33703089 0.042778969 -0.37638056 0
0.44567728 0.05570507 -0.37959778 0
0.51475048 0.047554016 -0.37784958 0
0.6161375 0.035750389 -0.37910247 0
0.72981215 0.048412323 -0.37867129 0
0.81791925 0.052265167 -0.37639213 0
0.90027857 0.042536736 -0.37398911 0
0.33106184 0.16253471 -0.3721478 0
0.41982508 0.14909363 -0.37442803 0
0.50849867 0.1441288 -0.37357092 0
0.61599302 0.13794899 -0.37356973 0
0.71949816 0.14442444 -0.37258625 0
0.83217812 0.14279461 -0.37488246 0
0.91566372 0.15994358 -0.3713603 0
0.31395674 0.24933815 -0.36656773 0
0.41120911 0.24800301 -0.36723447 0
0.49764395 0.24104881 -0.3681978 0
0.60901642 0.23685646 -0.36838377 0
0.72182083 0.23276424 -0.36800122 0
0.82274103 0.2546463 -0.36709332 0
0.89935017 0.23422718 -0.36745596 0
0.25894737 0.33354092 -0.36024928 0
0.32113552 0.3409977 -0.36301851 0
0.42321253 0.354249 -0.36191905 0
0.51802921 0.33537197 -0.36376977 0
0.61822653 0.34663773 -0.36174417 0
0.71770716 0.34157848 -0.36278057 0
0.80186462 0.33851814 -0.36216199 0
0.93222284 0.33895683 -0.3628 0
0.99314451 0.32414436 -0.36215508 0
0.23272324 0.4726038 -0.3544333 0
0.30565596 0.44091892 -0.35722768 0
0.40463305 0.44364643 -0.35731685 0
0.50641918 0.45043755 -0.35611713 0
0.61304998 0.45089245 -0.35594332 0
0.69339848 0.41513443 -0.35580242 0
0.8513813 0.4368782 -0.356915 0
0.92291689 0.40517139 -0.35694444 0
0.025021076 -0.4609766 -0.27332747 0
0.089021683 -0.4517765 -0.27755547 0
0.05165863 -0.3483696 -0.2765981 0
0.06815052 -0.33849049 -0.27783751 0
0.11133385 -0.25555325 -0.282763 0
-0.17233562 -0.39080334 -0.3127259 0
-0.084627151 -0.32309246 -0.32468295 0
0.43980694 -0.33688164 -0.38561654 0
0.4975853 -0.34232998 -0.38750196 0
-0.031510353 -0.25667286 -0.33452415 0
0.019290924 -0.210886 -0.34190524 0
0.19403553 -0.21032715 -0.35356843 0
0.37938213 -0.21553612 -0.39192903 0
0.44302034 -0.23608112 -0.3896383 0
0.52119017 -0.25452709 -0.38859272 0
0.050684452 -0.17879295 -0.35300148 0
0.13294172 -0.14530849 -0.38609588 0
0.23893404 -0.14246273 -0.39189768 0
0.34306145 -0.15716457 -0.3906877 0
0.43816423 -0.13529491 -0.389745 0
0.51798058 -0.15980339 -0.38926578 0
0.13421249 -0.053749084 -0.38906753 0
0.23252773 -0.047862053 -0.38862264 0
0.35075998 -0.048207283 -0.3897866 0
0.43428898 -0.053564072 -0.38973093 0
0.54714775 -0.050187111 -0.38981295 0
0.072844505 0.035513878 -0.38288975 0
0.13924551 0.045314789 -0.38446021 0
0.23217583 0.05416584 -0.384758 0
0.33506489 0.049067497 -0.38536739 0
0.45389652 0.056084633 -0.38625634 0
0.52462626 0.048750877 -0.38550794 0
0.07647419 0.17410755 -0.37871242 0
0.11884069 0.14660168 -0.37973547 0
0.23317862 0.15195465 -0.38113582 0
0.34298563 0.15054512 -0.38042676 0
0.43827486 0.15404224 -0.38121331 0
0.052444458 0.25323296 -0.3733604 0
0.12881708 0.24415398 -0.37552631 0
0.23545551 0.24895096 -0.37475836 0
0.33386707 0.25730419 -0.37332058 0
0.42310762 0.24671555 -0.37562478 0
0.055436134 0.35831451 -0.36838651 0
0.14804173 0.34281254 -0.37006021 0
0.24834967 0.35830975 -0.3695693 0
0.34083366 0.36087894 -0.36916125 0
0.039185047 0.45932388 -0.36316717 0
0.13329506 0.45757198 -0.36253202 0
0.23598862 0.44538212 -0.36325288 0
0.32337904 0.43670464 -0.36345899 0
-0.25003242 -0.46916676 -0.27467966 0
-0.14913559 -0.44375134 -0.28504682 0
-0.064220905 -0.44690418 -0.27951229 0
0.052848816 -0.43808174 -0.28240669 0
0.23712254 -0.47526073 -0.33074856 0
0.32758093 -0.45015717 -0.34779775 0
0.4282136 -0.46050072 -0.36049414 0
0.53932858 -0.42949486 -0.38577104 0
0.61585093 -0.45050144 -0.38453162 0
0.74046707 -0.44685936 -0.38273108 0
0.85533476 -0.43854237 -0.37933826 0
0.96722984 -0.45989323 -0.37930274 0
-0.13182592 -0.38678646 -0.31301939 0
-0.056124687 -0.35332584 -0.30064487 0
0.027899265 -0.34307671 -0.28752387 0
0.11309528 -0.30437183 -0.28800404 0
0.34966898 -0.39561081 -0.36704588 0
0.45784712 -0.40048122 -0.37640381 0
0.54282665 -0.36080074 -0.38532281 0
0.62495327 -0.33765316 -0.3840977 0
0.7244215 -0.36838627 -0.3842696 0
0.82813072 -0.35188675 -0.37960458 0
0.9421792 -0.35440731 -0.38054907 0
-0.028594971 -0.28751469 -0.31734335 0
0.050672531 -0.24900818 -0.31054461 0
0.12031603 -0.22124386 -0.29960203 0
0.57710266 -0.24927998 -0.3870697 0
0.65610647 -0.25868225 -0.38393426 0
0.76828814 -0.26635647 -0.38344002 0
0.82561731 -0.24695492 -0.38235998 0
0.94558001 -0.25115108 -0.37820232 0
0.080620766 -0.18521023 -0.33506274 0
0.57207537 -0.13632488 -0.3862133 0
0.64544249 -0.15259171 -0.38743234 0
0.73730326 -0.15716934 -0.38465977 0
0.82118607 -0.13765144 -0.38219345 0
0.94803333 -0.15676212 -0.37980127 0
0.57957363 -0.066139221 -0.38667798 0
0.6530695 -0.043927193 -0.38642132 0
0.74078608 -0.061000824 -0.38519025 0
0.82869673 -0.048846245 -0.38207364 0
0.91750526 -0.059503555 -0.37968898 0
0.5831008 0.062381744 -0.38451755 0
0.63015318 0.05177784 -0.3855871 0
0.73660469 0.046792984 -0.38521695 0
0.82367325 0.033576965 -0.38349366 0
0.92739439 0.050365448 -0.3805027 0
0.48507643 0.17302704 -0.37696099 0
0.54756498 0.1336689 -0.38128185 0
0.6526804 0.15078831 -0.37960112 0
0.73579264 0.1579752 -0.37969446 0
0.84226751 0.14557838 -0.38100314 0
0.94207478 0.14202309 -0.37893367 0
0.99947453 0.16174412 -0.37820363 0
0.47561646 0.27599907 -0.37234914 0
0.54707861 0.23901463 -0.37584054 0
0.63391638 0.25085735 -0.37386799 0
0.72500181 0.24603271 -0.37381399 0
0.81991625 0.24841499 -0.37348413 0
0.95847082 0.25289631 -0.37411177 0
0.4364481 0.36081982 -0.36925483 0
0.54727364 0.34699821 -0.36976266 0
0.64173985 0.34623337 -0.36980176 0
0.75095224 0.35078812 -0.36737859 0
0.83920717 0.32569981 -0.36888862 0
0.94411612 0.34105587 -0.36938298 0
0.37228346 0.44440746 -0.36318469 0
0.44676065 0.4497261 -0.36198997 0
0.55905914 0.44848251 -0.36298573 0
0.64314318 0.43515968 -0.36497796 0
0.73396301 0.43898201 -0.36240828 0
0.85224247 0.44824696 -0.36251712 0
0.92351437 0.44768143 -0.36191332 0
0.38418102 -0.44712639 -0.35066092 0
0.44288826 -0.45210838 -0.36044645 0
0.5340991 -0.43675709 -0.37525916 0
0.64079142 -0.45604038 -0.37391281 0
0.76724434 -0.42210388 -0.3732208 0
0.47978544 -0.28508759 -0.37799037 0
0.53336906 -0.33729362 -0.37918532 0
0.65101242 -0.3261013 -0.37700212 0
0.73877573 -0.35929203 -0.37397659 0
0.81140518 -0.31411934 -0.37393761 0
0.33251429 -0.2157259 -0.38042533 0
0.45916986 -0.20594692 -0.38104975 0
0.53946543 -0.23900032 -0.37814331 0
0.65761328 -0.25343418 -0.37552118 0
0.70986843 -0.20100212 -0.37531471 0
0.19456482 -0.10407639 -0.38249779 0
0.23336506 -0.14819908 -0.38303339 0
0.33963251 -0.12725544 -0.38178456 0
0.43299627 -0.13794899 -0.38137424 0
0.54065275 -0.13192177 -0.37997019 0
0.63521862 -0.14936829 -0.37674367 0
0.71000671 -0.12102985 -0.37597609 0
0.18941975 -0.057735443 -0.3806901 0
0.25039911 -0.033844948 -0.37961984 0
0.34210825 -0.024645805 -0.37950778 0
0.44699097 -0.042773247 -0.37948215 0
0.55561876 -0.048048019 -0.37869239 0
0.61841249 -0.038896561 -0.37668777 0
0.71594524 -0.036403656 -0.3772676 0
0.15925217 0.050656319 -0.37523806 0
0.23387909 0.065028191 -0.37493765 0
0.32571936 0.07964325 -0.37554157 0
0.43294048 0.062124252 -0.37645483 0
0.54379177 0.048911095 -0.37636602 0
0.62027073 0.052050591 -0.37618554 0
0.15190792 0.16636372 -0.37037981 0
0.23291779 0.16234875 -0.3704623 0
0.34616518 0.15728188 -0.37084293 0
0.45623589 0.14316273 -0.37247515 0
0.073555946 0.24614429 -0.36348319 0
0.15866184 0.26908588 -0.36515415 0
0.23019838 0.24330044 -0.36519802 0
0.33075333 0.21912575 -0.36841166 0
0.075379848 0.36077499 -0.3610363 0
0.12913704 0.33631992 -0.36115074 0
-0.20489788 -0.47731972 -0.26280677 0
-0.13600159 -0.44100094 -0.27632427 0
-0.063912392 -0.4181881 -0.27198446 0
0.035489082 -0.43730068 -0.27257943 0
0.36639452 -0.46112728 -0.34175014 0
0.88072872 -0.4454174 -0.37024987 0
0.97447634 -0.42082787 -0.36906433 0
-0.052959442 -0.3445015 -0.29442263 0
0.040083408 -0.32837296 -0.27982271 0
0.11672354 -0.32001305 -0.27946925 0
0.8789463 -0.33567524 -0.37033677 0
0.95117664 -0.3385582 -0.36731136 0
-0.017912388 -0.28435802 -0.31022203 0
0.051024914 -0.24135399 -0.30553913 0
0.13525867 -0.21628284 -0.28837597 0
0.8354907 -0.2266655 -0.37282896 0
0.98000526 -0.23438263 -0.36963439 0
0.77674913 -0.13486481 -0.37272608 0
0.87355185 -0.13956261 -0.37134159 0
0.95308018 -0.12969971 -0.36870241 0
0.68452215 0.0099000931 -0.37571645 0
0.78585958 -0.0483284 -0.37427461 0
0.87884855 -0.027108192 -0.37297392 0
0.95811892 -0.012171745 -0.37044454 0
0.58353233 0.11293507 -0.3713702 0
0.6369195 0.097604752 -0.37634254 0
0.75048447 0.054940224 -0.37445903 0
0.87126303 0.079363823 -0.3737005 0
0.9445281 0.072061539 -0.3707484 0
0.42692661 0.19791317 -0.36854768 0
0.54071712 0.17249393 -0.370116 0
0.65817785 0.15923119 -0.37033594 0
0.74593592 0.15262699 -0.37275672 0
0.8306489 0.16107559 -0.3690263 0
0.9405632 0.16743469 -0.36979723 0
0.19307375 0.30845547 -0.35730267 0
0.25876236 0.28812504 -0.36156845 0
0.33819532 0.26637363 -0.3624382 0
0.45123291 0.25483894 -0.36468351 0
0.55487776 0.27648354 -0.36353004 0
0.65199041 0.25838089 -0.36499298 0
0.7550559 0.25318623 -0.3638978 0
0.8791914 0.24372482 -0.36309659 0
0.98934412 0.27154255 -0.36366236 0
0.14541101 0.37506008 -0.35785973 0
0.25066423 0.36658382 -0.35963929 0
0.36379671 0.36283875 -0.35959816 0
0.43708277 0.35935879 -0.35825157 0
0.53871346 0.38210964 -0.35761321 0
0.64366531 0.34886456 -0.35995495 0
0.73499441 0.35614586 -0.35714316 0
0.8578763 0.35663319 -0.35923672 0
0.94107962 0.37707615 -0.35786903 0
-0.013112068 0.48768806 -0.35158741 0
0.043507576 0.47032738 -0.35359645 0
0.13135386 0.46497154 -0.35349345 0
0.24614 0.47027206 -0.35288215 0
0.33157587 0.44320583 -0.35402942 0
0.44304132 0.47005367 -0.35229373 0
0.55744171 0.4550457 -0.35232651 0
0.67987156 0.46534348 -0.35468829 0
0.72727966 0.44843483 -0.35496557 0
0.84364891 0.46898556 -0.35243368 0
0.59443521 -0.49999523 -0.37639844 0
-0.10067511 -0.40135956 -0.28100944 0
0.0037574768 -0.46646309 -0.27312541 0
0.28767729 -0.45242119 -0.33694816 0
0.37568998 -0.44475269 -0.34991682 0
0.50329018 -0.40621853 -0.37467086 0
0.61175966 -0.40656662 -0.3783735 0
0.67853451 -0.4328146 -0.37482893 0
0.7856636 -0.40531445 -0.37422919 0
0.88305092 -0.4221096 -0.37294674 0
0.9617095 -0.44160652 -0.36921656 0
-0.077946663 -0.35604191 -0.28984809 0
-0.024687767 -0.30413437 -0.29492223 0
0.50734997 -0.31001186 -0.37986445 0
0.58437777 -0.33108902 -0.3773247 0
0.67036772 -0.32556343 -0.37555349 0
0.7483077 -0.31907368 -0.37286592 0
0.87631989 -0.32875633 -0.37365687 0
0.96809578 -0.33507156 -0.37066615 0
0.020643234 -0.22394848 -0.31282139 0
0.075379848 -0.22721577 -0.29529035 0
0.20511723 -0.17818451 -0.38363326 0
0.31133032 -0.18126774 -0.38555551 0
0.34394217 -0.2092762 -0.38211942 0
0.49131727 -0.20865154 -0.3816812 0
0.57658148 -0.22529602 -0.37827086 0
0.64663267 -0.22105789 -0.37552059 0
0.7885313 -0.21352196 -0.37472081 0
0.87764454 -0.20999241 -0.37104738 0
0.95705128 -0.23178482 -0.37118804 0
0.20183706 -0.10965633 -0.38364887 0
0.30026102 -0.13387012 -0.38336504 0
0.38237715 -0.12195301 -0.38279867 0
0.47807837 -0.1262579 -0.38263154 0
0.59202862 -0.10884953 -0.38124025 0
0.70076799 -0.12885952 -0.37684739 0
0.79772186 -0.069252014 -0.37331474 0
0.84696102 -0.11819458 -0.37543368 0
0.94915915 -0.10642052 -0.37310886 0
0.17783403 -0.02337265 -0.38043833 0
0.29560852 -0.030670166 -0.3825171 0
0.39169264 -0.015106201 -0.38237131 0
0.46372271 -0.013287544 -0.3809185 0
0.54825687 -0.017747879 -0.37996078 0
0.65810061 -0.025568962 -0.37751722 0
0.77197981 -0.016139984 -0.37645173 0
0.91956377 -0.065740585 -0.372123 0
0.18684769 0.069753647 -0.37740266 0
0.30990124 0.074412346 -0.37861061 0
0.3764987 0.093906403 -0.37610686 0
0.47187042 0.08506012 -0.37655008 0
0.58642197 0.084348679 -0.3774308 0
0.68504095 0.069374084 -0.37801695 0
0.78868914 0.10101414 -0.37598777 0
0.90065193 0.076797485 -0.37430859 0
0.11657333 0.1793375 -0.37233222 0
0.18136168 0.18018818 -0.37203765 0
0.27276802 0.16825199 -0.37178349 0
0.40860748 0.1854763 -0.37042058 0
0.49763107 0.17938614 -0.37000346 0
0.56388807 0.16723251 -0.37188518 0
0.66998386 0.17827702 -0.3703475 0
0.80352736 0.17816734 -0.37014985 0
0.9586606 0.18933678 -0.36977398 0
0.097655296 0.27530003 -0.36747551 0
0.19342232 0.29861546 -0.36563897 0
0.27290106 0.27107906 -0.36673021 0
0.38203812 0.28554916 -0.36621428 0
0.45710802 0.30003262 -0.36516929 0
0.56674623 0.28097916 -0.36576176 0
0.66615152 0.27434635 -0.36603343 0
0.79239702 0.27214909 -0.36536598 0
0.90668106 0.28600693 -0.3649348 0
0.022392273 0.37903976 -0.36189198 0
0.10569572 0.38806629 -0.36033225 0
0.19658852 0.36969376 -0.36169994 0
0.27772713 0.37843513 -0.36209822 0
0.36977005 0.37825012 -0.36091352 0
0.48748016 0.37875652 -0.3598727 0
0.5883379 0.37408638 -0.35968292 0
0.67092705 0.40608311 -0.35511124 0
0.77808237 0.37386227 -0.36050355 0
0.83982038 0.33813953 -0.35946035 0
0.9478302 0.37993526 -0.35820532 0
-0.01884985 0.48711872 -0.35544431 0
0.080407619 0.46741104 -0.35713935 0
0.17202139 0.47901344 -0.35535729 0
0.2820344 0.48876286 -0.35652936 0
0.36110544 0.4664917 -0.35467327 0
0.48953438 0.49223423 -0.35366583 0
0.55216026 0.45785809 -0.35418963 0
0.66139221 0.48035717 -0.35407376 0
0.78272724 0.47632408 -0.35456133 0
0.9010601 0.49763584 -0.35436368 0
0.97908306 0.4835043 -0.35430777 0
-0.093093395 -0.43680191 -0.26893806 0
-0.0080356598 -0.4123106 -0.27307987 0
-0.004295826 -0.3227272 -0.27950573 0
0.078452587 -0.30389214 -0.28008306 0
0.052343845 -0.25120258 -0.28105509 0
0.56745863 -0.48414803 -0.37940836 0
0.53377056 -0.42257023 -0.38188779 0
0.68303347 -0.44869041 -0.3791362 0
-0.26736307 -0.4575243 -0.27327275 0
-0.18111086 -0.43088627 -0.28731132 0
-0.091702461 -0.4278307 -0.27881682 0
-0.014662743 -0.42654991 -0.2752775 0
0.39039087 -0.44641972 -0.35443223 0
0.55414057 -0.39772797 -0.3795656 0
0.65678596 -0.41738701 -0.37779105 0
0.78495359 -0.42727089 -0.37819421 0
0.87789345 -0.43002605 -0.37442601 0
-0.13708353 -0.3396244 -0.32033634 0
-0.063827991 -0.32531929 -0.30793798 0
0.0073952675 -0.3127985 -0.28997922 0
0.08263588 -0.28987885 -0.28319371 0
0.54399109 -0.30673313 -0.38022852 0
0.6154995 -0.34990501 -0.38018298 0
0.69793415 -0.3154583 -0.37815535 0
0.81956291 -0.3235178 -0.37554574 0
0.91687155 -0.3577919 -0.37799025 0
0.9902873 -0.31885624 -0.37384117 0
-0.064564705 -0.24790478 -0.33732808 0
0.015982628 -0.23824596 -0.31724083 0
0.094593048 -0.21063614 -0.30396736 0
0.31689215 -0.19614792 -0.38470328 0
0.41996145 -0.21508312 -0.38500369 0
0.52440929 -0.21799278 -0.38429499 0
0.61034107 -0.21897984 -0.38073874 0
0.69914722 -0.2434864 -0.37953687 0
0.8058753 -0.22831726 -0.37649846 0
0.9542923 -0.1943531 -0.3735199 0
0.026312351 -0.14884853 -0.36552405 0
0.12372065 -0.11583614 -0.3876332 0
0.21296263 -0.14257622 -0.38806534 0
0.31332302 -0.12275314 -0.38812768 0
0.41250324 -0.11134148 -0.38713145 0
0.51323652 -0.14773369 -0.38362086 0
0.6365056 -0.10064983 -0.38218629 0
0.72499084 -0.14428139 -0.3794173 0
0.83035707 -0.10128117 -0.37767673 0
0.94859314 -0.081171036 -0.37584329 0
0.039804459 -0.011891365 -0.3826648 0
0.10045576 -0.041471481 -0.38438499 0
0.20779133 -0.028003693 -0.38392556 0
0.31076956 -0.025953293 -0.38442075 0
0.44639826 -0.04722023 -0.38579786 0
0.52179003 -0.055068016 -0.38366389 0
0.63068724 -0.024188042 -0.38357079 0
0.70411587 -0.023066521 -0.38092029 0
0.8293891 -0.029855728 -0.37934685 0
0.92186022 -0.016698837 -0.3758539 0
-0.051651478 0.10264778 -0.37361085 0
0.030333519 0.064266205 -0.38067257 0
0.11696768 0.066727638 -0.37944412 0
0.23472786 0.066999435 -0.38049996 0
0.3337636 0.088150024 -0.38015926 0
0.40421867 0.033221245 -0.38194942 0
0.51012945 0.063694 -0.38255358 0
0.61279011 0.063794136 -0.38273406 0
0.7117939 0.081166267 -0.37820876 0
0.80854464 0.044542313 -0.38000047 0
0.90751362 0.090704918 -0.37784624 0
-0.073276043 0.13905144 -0.37144864 0
0.021224976 0.179883 -0.37490284 0
0.089455605 0.15511227 -0.37530613 0
0.19824219 0.16884136 -0.37490118 0
0.31036663 0.15872955 -0.37606275 0
0.42267036 0.17644024 -0.37395537 0
0.52632332 0.15865231 -0.37472057 0
0.62184429 0.18215179 -0.37464893 0
0.72256851 0.17025471 -0.37652194 0
0.83352947 0.17681313 -0.37230682 0
0.93797493 0.20798111 -0.37014651 0
0.99352074 0.16365814 -0.37467241 0
-0.075874805 0.26395988 -0.36998355 0
0.020899296 0.26718998 -0.37084663 0
0.11479092 0.27338982 -0.36914837 0
0.20960379 0.26610279 -0.36783278 0
0.3307023 0.24409771 -0.37300777 0
0.40244722 0.28757668 -0.36863387 0
0.51629972 0.24276447 -0.37060595 0
0.56814766 0.2873373 -0.36948836 0
0.67880106 0.27255917 -0.36918807 0
0.78853846 0.27508926 -0.36818576 0
0.90393257 0.28727245 -0.36718285 0
-0.1499815 0.38322926 -0.36295033 0
-0.07468462 0.38509941 -0.36518657 0
0.011654854 0.36758137 -0.36481178 0
0.1218667 0.36030102 -0.36229753 0
0.23292875 0.36237144 -0.36419761 0
0.33903646 0.35878086 -0.36554265 0
0.43489456 0.37281322 -0.36559665 0
0.50336838 0.36499977 -0.36400199 0
0.62991953 0.36224651 -0.36490381 0
0.71895266 0.36202049 -0.36251259 0
0.83037806 0.36861038 -0.36139572 0
0.95727825 0.38059521 -0.36146462 0
0.98263216 0.33010483 -0.36343646 0
-0.1981616 0.47101498 -0.35748696 0
-0.085296154 0.46943474 -0.35869694 0
0.027795315 0.47471333 -0.35759783 0
0.13005543 0.46925449 -0.35782278 0
0.20082998 0.46712399 -0.35935867 0
0.3140583 0.4563694 -0.36068356 0
0.39795208 0.4487772 -0.35900068 0
0.52759504 0.47457409 -0.35683393 0
0.63128948 0.47464371 -0.3586868 0
0.67954397 0.42986488 -0.35935426 0
0.80392647 0.48184109 -0.35628057 0
0.91025782 0.44695187 -0.35798335 0
-0.45980263 -0.44282341 -0.28418565 0
-0.36969757 -0.43218994 -0.29838085 0
-0.26067066 -0.4186554 -0.30296648 0
-0.15449047 -0.40152836 -0.3050108 0
-0.072063923 -0.39225483 -0.29012585 0
0.37931156 -0.4790926 -0.3493259 0
0.52525902 -0.4393959 -0.37899184 0
0.64072418 -0.43446541 -0.37715983 0
0.74391317 -0.40986061 -0.37431037 0
0.86555386 -0.43148804 -0.37183988 0
0.97975779 -0.43643665 -0.37006867 0
-0.25490904 -0.35810852 -0.3444823 0
-0.15910721 -0.34198666 -0.33279061 0
-0.061769009 -0.32247257 -0.31110919 0
0.58426905 -0.28337002 -0.37534034 0
0.61291122 -0.34818554 -0.37632811 0
0.72524357 -0.33806324 -0.37403858 0
0.86465216 -0.319561 -0.3733722 0
0.97844648 -0.32166958 -0.37117672 0
-0.15009451 -0.2523632 -0.37058592 0
-0.054785728 -0.2402668 -0.34526753 0
0.034058094 -0.23125648 -0.3185246 0
0.21207762 -0.20334911 -0.38191748 0
0.32521057 -0.20574951 -0.38294554 0
0.44289827 -0.20022869 -0.38399053 0
0.51788092 -0.22963524 -0.38111317 0
0.61906672 -0.21849632 -0.37865794 0
0.73820877 -0.22665119 -0.37667644 0
0.8412466 -0.21946144 -0.37353981 0
0.95997095 -0.21130943 -0.37159109 0
-0.13934326 -0.13397503 -0.38351989 0
-0.047576427 -0.13067722 -0.38179362 0
0.029064178 -0.15196228 -0.37298763 0
0.13277626 -0.14367008 -0.38351393 0
0.23687983 -0.12847233 -0.38094568 0
0.33729839 -0.15359402 -0.38076913 0
0.44682026 -0.14533043 -0.38136828 0
0.50859499 -0.16454506 -0.38154197 0
0.61645889 -0.13773918 -0.37674332 0
0.75165606 -0.11791897 -0.37462008 0
0.82293653 -0.14500523 -0.37375808 0
0.9402957 -0.13742733 -0.37179112 0
-0.22101402 -0.035330772 -0.37452614 0
-0.16299772 -0.049370766 -0.37958276 0
-0.053515434 -0.029766083 -0.3794831 0
0.056132317 -0.025294304 -0.3806181 0
0.15975857 -0.033528328 -0.38098824 0
0.25873661 -0.030895233 -0.38041461 0
0.36998796 0.0039920807 -0.37941611 0
0.44347906 -0.036718369 -0.38142884 0
0.58232069 -0.0091981888 -0.37994683 0
0.65463066 -0.037174225 -0.37808406 0
0.81945658 -0.0054979324 -0.37651217 0
0.91502428 -0.031680107 -0.37250674 0
-0.24388647 0.067584991 -0.37073064 0
-0.15755796 0.053866386 -0.37482107 0
-0.07118988 0.063577652 -0.37597501 0
0.049526215 0.068759918 -0.37575734 0
0.14030123 0.05419445 -0.37626112 0
0.23657894 0.068792343 -0.37495458 0
0.37804174 0.086014748 -0.37888622 0
0.42073488 0.086693764 -0.37513888 0
0.53875351 0.083838463 -0.37554264 0
0.65101004 0.084396362 -0.37495172 0
0.7713294 0.1136713 -0.37421608 0
0.83446264 0.095040321 -0.37452567 0
0.95880985 0.10562801 -0.37281585 0
-0.24240351 0.16630268 -0.36763346 0
-0.13926172 0.15341187 -0.36918294 0
-0.034885406 0.15866566 -0.37218916 0
0.031211853 0.13918209 -0.37241578 0
0.13305187 0.15091801 -0.37225926 0
0.21242666 0.17616844 -0.3714751 0
0.34546471 0.1655817 -0.37137818 0
0.53940487 0.19273567 -0.37085915 0
0.62832355 0.15957546 -0.3720963 0
0.76121235 0.18518066 -0.36782551 0
0.83350849 0.1730938 -0.36878455 0
0.98364639 0.18336201 -0.36849678 0
-0.32794523 0.29175663 -0.36110497 0
-0.24409294 0.27926445 -0.36528504 0
-0.15055466 0.26496506 -0.36527359 0
-0.059406757 0.24520588 -0.36745572 0
0.058595657 0.25011444 -0.36819065 0
0.15051746 0.27224636 -0.36678779 0
0.24412489 0.27902985 -0.36517906 0
0.33339357 0.2480135 -0.36805594 0
0.44545889 0.26199341 -0.36567056 0
0.57121372 0.27489948 -0.36625719 0
0.64900446 0.30272388 -0.36265051 0
0.7369442 0.25354481 -0.36681414 0
0.96278048 0.27527142 -0.36619616 0
-0.33930874 0.37528515 -0.35954154 0
-0.25145817 0.37811184 -0.36131644 0
-0.14009237 0.36723804 -0.36292231 0
-0.050686836 0.3565855 -0.36321676 0
0.048734188 0.35819244 -0.36153424 0
0.16854715 0.41148567 -0.35779774 0
0.23800039 0.36607647 -0.36030006 0
0.36117983 0.36864185 -0.36086559 0
0.43667841 0.34086895 -0.36411488 0
0.5300684 0.37211704 -0.36215425 0
0.61624193 0.37485123 -0.35957444 0
0.73665047 0.34796524 -0.35987008 0
0.83272266 0.40440083 -0.35562479 0
0.91726875 0.35121727 -0.36224222 0
-0.42618847 0.49766922 -0.35194075 0
-0.37249613 0.45150089 -0.35647011 0
-0.26830149 0.46978092 -0.35544801 0
-0.13759804 0.45015049 -0.35627174 0
-0.040042877 0.44921589 -0.35639238 0
0.055812836 0.47907162 -0.35373318 0
0.15431261 0.48030186 -0.35397661 0
0.24467373 0.46393681 -0.35663414 0
0.3459096 0.47862244 -0.35601366 0
0.45205688 0.47683907 -0.353266 0
0.57938766 0.46805096 -0.35620224 0
0.66356134 0.49068832 -0.35361958 0
0.70861483 0.42713737 -0.35726845 0
-0.45579815 -0.46262646 -0.27274251 0
-0.34840059 -0.4631052 -0.27043033 0
-0.20722008 -0.44305325 -0.27908826 0
-0.16128778 -0.45194149 -0.27376914 0
-0.053042889 -0.42904186 -0.27238095 0
0.023722649 -0.4207201 -0.27403092 0
-0.020483971 -0.34449196 -0.28747869 0
0.048167229 -0.31854916 -0.28151822 0
0.067206383 -0.25337219 -0.2926693 0
0.10800886 -0.23015308 -0.29186249 0
0.7981801 0.47559452 -0.35278678 0
0.94433117 0.46891785 -0.35194516 0
-0.36190319 -0.38370323 -0.34069383 0
-0.62356567 -0.32234764 -0.32621348 0
-0.52952671 -0.32762527 -0.34719825 0
-0.42499447 -0.31003189 -0.36732513 0
-0.37498283 -0.32892132 -0.37285179 0
-0.24818468 -0.323349 -0.36868864 0
-0.17233849 -0.31068993 -0.35305369 0
-0.45439672 -0.21444511 -0.38087487 0
-0.33307505 -0.24061203 -0.38507539 0
-0.22548008 -0.22404671 -0.38843149 0
-0.12448549 -0.23076534 -0.3754735 0
-0.055015087 -0.18766308 -0.3765769 0
0.28458691 -0.1928978 -0.38753211 0
0.36173868 -0.18545437 -0.38543332 0
-0.50069189 -0.16859722 -0.37925178 0
-0.45358467 -0.12301445 -0.38194001 0
-0.34695864 -0.13065052 -0.38485777 0
-0.25270605 -0.11610508 -0.38567811 0
-0.1444149 -0.11952782 -0.38660276 0
-0.037786484 -0.11460972 -0.38641524 0
0.049859524 -0.12927055 -0.38010073 0
0.15880442 -0.12252235 -0.38631213 0
0.27058172 -0.12374878 -0.38732493 0
0.39520168 -0.095623016 -0.38875115 0
-0.52222824 0.022521973 -0.37670577 0
-0.44200516 -0.030402184 -0.38119388 0
-0.31910038 -0.018795967 -0.38161027 0
-0.25028849 -0.003370285 -0.38110042 0
-0.14981699 -0.010725975 -0.38109493 0
-0.040417671 -0.015851974 -0.38147771 0
0.055103779 -0.022397995 -0.38545442 0
0.15065527 -0.026151657 -0.38428104 0
0.24806738 -0.056256294 -0.38522363 0
-0.53022242 0.08796978 -0.37475419 0
-0.43366814 0.072654724 -0.37618029 0
-0.33267021 0.076540947 -0.37752187 0
-0.25484991 0.0837183 -0.37641013 0
-0.16507769 0.062003136 -0.37766039 0
-0.04835701 0.06534481 -0.37937391 0
0.036759853 0.088024139 -0.38034368 0
0.12541437 0.037430763 -0.38127553 0
-0.53842306 0.17824173 -0.3707608 0
-0.46172857 0.16966343 -0.37181222 0
-0.35265446 0.18322182 -0.37325096 0
-0.26828623 0.16918945 -0.37269342 0
-0.16633368 0.15762138 -0.3742795 0
-0.079060555 0.13841915 -0.37583435 0
-0.56330204 0.282341 -0.36690295 0
-0.46695089 0.27252197 -0.36749077 0
-0.34290171 0.25505638 -0.36954606 0
-0.6332469 0.36545086 -0.36264682 0
-0.55387545 0.36706734 -0.36458921 0
-0.48490238 0.34442997 -0.36600482 0
-0.62196684 -0.49878883 -0.27544236 0
0.042794228 -0.47693825 -0.278108 0
0.62752962 -0.46680355 -0.38139689 0
0.87065315 -0.48805141 -0.37544072 0
-0.81880713 -0.46213913 -0.26344001 0
-0.75218964 -0.40944958 -0.27325082 0
-0.63621759 -0.44759846 -0.29113114 0
-0.53219223 -0.42048073 -0.29851604 0
-0.4273572 -0.43281364 -0.29586339 0
-0.31371069 -0.42852592 -0.29868066 0
-0.2408576 -0.41577625 -0.30946898 0
-0.13594484 -0.40478611 -0.30201268 0
-0.056807995 -0.39405823 -0.28404999 0
0.036974907 -0.39561176 -0.27889895 0
0.59943771 -0.3647747 -0.3809098 0
0.62405825 -0.40873623 -0.38192701 0
0.72981548 -0.41008377 -0.37829697 0
0.81810904 -0.39500523 -0.37315452 0
0.96877813 -0.38416481 -0.37324357 0
-0.72350121 -0.3609848 -0.28802383 0
-0.64036942 -0.35101414 -0.3109864 0
-0.43984556 -0.36323547 -0.32856929 0
-0.18979216 -0.36135292 -0.33191168 0
-0.12497616 -0.31882 -0.33083963 0
-0.038500786 -0.31165981 -0.305143 0
0.034460068 -0.30541229 -0.28669739 0
0.56345129 -0.30737591 -0.37941718 0
0.70848942 -0.33555126 -0.37804627 0
0.72510242 -0.27138996 -0.38021469 0
0.85495853 -0.29097176 -0.37736285 0
0.92735052 -0.3057642 -0.37144697 0
-0.095024586 -0.25563908 -0.34346354 0
-0.0095939636 -0.21742058 -0.34312487 0
0.069977283 -0.21933174 -0.31407404 0
0.49115992 -0.19249535 -0.38637555 0
0.57629156 -0.18919659 -0.38228393 0
0.68892288 -0.20057869 -0.37915587 0
0.80303526 -0.19661999 -0.37578082 0
0.83673334 -0.23071766 -0.37729406 0
0.9498291 -0.2059536 -0.37467241 0
0.34540415 -0.069863319 -0.38561988 0
0.46575117 -0.10138988 -0.38620603 0
0.55703163 -0.090230942 -0.382936 0
0.68970442 -0.089755058 -0.38139606 0
0.85478544 -0.085134506 -0.37799084 0
0.93492699 -0.11888504 -0.37554467 0
0.2124176 -0.0014781952 -0.38155544 0
0.32509613 -0.030776024 -0.38343716 0
0.45616817 0.0013275146 -0.38600242 0
0.54126596 0.013368607 -0.38308954 0
0.64397192 0.028762817 -0.38069904 0
0.75152445 0.0022258759 -0.38029027 0
0.90693283 -0.011198044 -0.37620914 0
-0.01626873 0.11199284 -0.37579274 0
0.092085361 0.11809921 -0.37751079 0
0.11957645 0.081869125 -0.3801713 0
0.22244358 0.10247326 -0.37845933 0
0.34820795 0.087036133 -0.37984633 0
0.45292139 0.090418816 -0.3796351 0
0.5421052 0.099369049 -0.38175774 0
0.61841488 0.08316803 -0.37785387 0
0.74424314 0.10593033 -0.376683 0
0.88347292 0.072453499 -0.37666786 0
-0.14428234 0.19774055 -0.37176645 0
-0.040313721 0.16961384 -0.37315226 0
0.076127529 0.18026447 -0.37549484 0
0.14235878 0.17229748 -0.37368476 0
0.24014139 0.18300533 -0.37356794 0
0.32950926 0.19936371 -0.37279832 0
0.44688272 0.17789173 -0.37300897 0
0.5490489 0.20443726 -0.37078309 0
0.6255331 0.14964676 -0.37750089 0
0.70469189 0.19234467 -0.37255752 0
0.84451389 0.18840981 -0.37330961 0
0.94969702 0.20291233 -0.36839652 0
-0.41584539 0.31976128 -0.36525869 0
-0.33321428 0.28948021 -0.36650383 0
-0.22582865 0.28713512 -0.36976135 0
-0.16109371 0.27731514 -0.36910236 0
-0.05443716 0.27696228 -0.37080061 0
0.038444042 0.28878403 -0.36920178 0
0.15726662 0.27599812 -0.36867297 0
0.27363586 0.28094101 -0.36725605 0
0.39687777 0.29513264 -0.36758506 0
0.44511175 0.24053669 -0.37203217 0
0.55097008 0.29206753 -0.36992669 0
0.6352129 0.31815052 -0.36590648 0
0.75312805 0.27857685 -0.36875296 0
0.96061277 0.31223392 -0.36844909 0
-0.55740023 0.39796543 -0.36158454 0
-0.44293833 0.39128113 -0.36293459 0
-0.33946705 0.37920761 -0.36344969 0
-0.25197601 0.38008595 -0.36223423 0
-0.12117195 0.38514709 -0.36380053 0
-0.019984722 0.37938023 -0.36512697 0
0.030372143 0.39673328 -0.36163735 0
0.14775133 0.39436817 -0.3634038 0
0.24705172 0.37739468 -0.36402762 0
0.36766386 0.39500237 -0.36108553 0
0.53458691 0.39379978 -0.36429751 0
0.65918589 0.40879822 -0.36213171 0
0.74510479 0.37199497 -0.36407888 0
0.87394094 0.40943813 -0.36129189 0
-0.75735855 0.49306965 -0.35234857 0
-0.65570736 0.48217106 -0.35802829 0
-0.55684757 0.47725964 -0.35827863 0
-0.47016001 0.48374748 -0.35872316 0
-0.37949705 0.47281075 -0.35736823 0
-0.25634766 0.48687744 -0.35784781 0
-0.16450119 0.48585892 -0.35722828 0
-0.063631058 0.48217201 -0.35697746 0
0.13162231 0.4826622 -0.3576864 0
0.24482441 0.47826004 -0.35758281 0
0.51618338 0.47772694 -0.35558915 0
0.6433301 0.48374271 -0.35568142 0
0.80607891 0.4760561 -0.35587394 0
-0.63942528 -0.27943516 -0.35670495 0
-0.54276228 -0.27745914 -0.35969871 0
-0.41656542 -0.30415344 -0.37763107 0
-0.30650568 -0.31406593 -0.37545365 0
-0.25045586 -0.31791878 -0.37493241 0
-0.78477907 -0.26750183 -0.33887589 0
-0.70519543 -0.22877693 -0.36281449 0
-0.60730791 -0.22019958 -0.37371033 0
-0.48794699 -0.23190689 -0.37801933 0
-0.40621853 -0.21079731 -0.38088149 0
-0.31316328 -0.2404232 -0.38365352 0
-0.20235825 -0.2175169 -0.38706338 0
-0.1566143 -0.23826504 -0.38302797 0
-0.044739246 -0.17865276 -0.38611162 0
-0.69758415 -0.11458588 -0.37435675 0
-0.62251663 -0.13256836 -0.37432891 0
-0.51749659 -0.12262249 -0.37813073 0
-0.41139507 -0.1493721 -0.37919974 0
-0.32500696 -0.11896229 -0.38439691 0
-0.21576357 -0.12604427 -0.38327503 0
-0.14184618 -0.12544155 -0.3857094 0
-0.69602489 -0.013005257 -0.37583649 0
-0.62228346 -0.03762722 -0.37640148 0
-0.50886536 -0.018963814 -0.37741137 0
-0.43049192 -0.034292221 -0.37805331 0
-0.34401846 -0.021175385 -0.37819827 0
-0.26237535 -0.068516731 -0.38012755 0
-0.71938467 0.065297127 -0.37211454 0
-0.60767317 0.065742493 -0.37324655 0
-0.52064085 0.069805145 -0.372648 0
-0.43372583 0.056247711 -0.37478173 0
-0.72379875 0.16922951 -0.36975968 0
-0.63204765 0.15437698 -0.3693763 0
-0.81741095 0.26450729 -0.36266875 0
-0.74435186 0.23817158 -0.36674869 0
-0.89594698 -0.44171143 -0.28772628 0
-0.80589056 -0.42239285 -0.27684939 0
-0.70811462 -0.39085484 -0.27339017 0
-0.59598827 -0.43097115 -0.29699147 0
-0.51807022 -0.42311859 -0.2965579 0
-0.39283133 -0.42030811 -0.29906845 0
-0.30448008 -0.41516018 -0.30633247 0
-0.19415379 -0.41830826 -0.30108654 0
-0.10392094 -0.40759945 -0.29026377 0
0.60354471 -0.42154312 -0.37964499 0
0.72571564 -0.42840862 -0.37751234 0
0.85298824 -0.39676285 -0.37375712 0
-0.81271219 -0.33773804 -0.31526434 0
-0.71778965 -0.33171272 -0.30721641 0
-0.64236593 -0.32453537 -0.32630503 0
-0.54280663 -0.33792114 -0.33856153 0
-0.45480633 -0.33994865 -0.33928442 0
-0.29048634 -0.35345745 -0.35644186 0
-0.21075439 -0.33742142 -0.35414684 0
-0.10623646 -0.31918812 -0.33104181 0
-0.022241116 -0.30438137 -0.30534577 0
0.047195911 -0.28058338 -0.29082119 0
0.58773375 -0.34623432 -0.37981844 0
0.69493389 -0.31701183 -0.37742865 0
0.8377018 -0.30795574 -0.37443328 0
0.98994398 -0.29935265 -0.37171352 0
-0.74657249 -0.27476883 -0.33406866 0
-0.10016346 -0.2448616 -0.36226904 0
-0.0090270042 -0.22363281 -0.34304905 0
0.081809998 -0.19955826 -0.33670568 0
0.37164688 -0.20550537 -0.38293648 0
0.45219898 -0.22564888 -0.38336015 0
0.58210516 -0.20069313 -0.38208461 0
0.67359066 -0.20557785 -0.37818599 0
0.82108784 -0.19021034 -0.3757596 0
0.85614538 -0.2337656 -0.37709463 0
0.98165989 -0.19432545 -0.37297404 0
-0.077044487 -0.14841366 -0.3845917 0
-0.0016155243 -0.11812687 -0.38153565 0
0.089777946 -0.10591316 -0.38548207 0
0.25861979 -0.12077713 -0.38622808 0
0.36159182 -0.14683437 -0.38744938 0
0.47031784 -0.091233253 -0.38350892 0
0.55136919 -0.13202953 -0.38146758 0
0.66925859 -0.09086132 -0.38030887 0
0.79320097 -0.10769558 -0.37579024 0
0.95439482 -0.11262226 -0.37310696 0
-0.27049112 -0.026867867 -0.37869489 0
-0.23465061 0.0080823898 -0.37746882 0
-0.12183666 -0.021625519 -0.38037932 0
0.015416145 -0.032961845 -0.38305044 0
0.078306198 0.00092029572 -0.38052142 0
0.18895769 -0.030658722 -0.38287926 0
0.29793215 -0.041296005 -0.38315761 0
0.37581015 0.018872261 -0.37963223 0
0.47650385 0.011134148 -0.3826555 0
0.53244829 -0.020816803 -0.38264728 0
0.63972902 -0.017039299 -0.38009381 0
0.81071043 -0.01132679 -0.37911344 0
0.90120888 0.035014153 -0.37335205 0
0.95573711 -0.015272141 -0.37550294 0
-0.41892147 0.10435009 -0.37515032 0
-0.34000397 0.091821671 -0.37383544 0
-0.25230503 0.07692337 -0.374951 0
-0.15284157 0.082576752 -0.37464392 0
-0.021018505 0.080103874 -0.37676036 0
0.10218096 0.089337349 -0.3767345 0
0.14774323 0.035795212 -0.37871969 0
0.27150869 0.061290741 -0.37982702 0
0.38269281 0.11088943 -0.3755548 0
0.48321009 0.079916 -0.37726545 0
0.60297155 0.064739227 -0.37724173 0
0.78506899 0.076728821 -0.37875497 0
0.94168425 0.1070137 -0.37771332 0
-0.60965204 0.20294952 -0.36762822 0
-0.51228189 0.1669817 -0.36973214 0
-0.42310524 0.16226768 -0.37053037 0
-0.3462038 0.17120266 -0.371292 0
-0.24002886 0.18083191 -0.36963356 0
-0.12452126 0.19134331 -0.37112188 0
-0.024990559 0.16514969 -0.37256002 0
0.084364891 0.19264317 -0.37197459 0
0.16860151 0.18439007 -0.37013459 0
0.28985929 0.18087959 -0.37363803 0
0.40352535 0.20047665 -0.36937797 0
0.59668732 0.19014931 -0.37520647 0
0.70444727 0.20928955 -0.37141824 0
0.74075365 0.15981197 -0.37473929 0
0.87180519 0.18894291 -0.371804 0
-0.81173038 0.31560993 -0.36248159 0
-0.71300793 0.2693634 -0.36433935 0
-0.62159586 0.27659512 -0.3646853 0
-0.53562832 0.28404903 -0.36464536 0
-0.42042398 0.2675724 -0.36620152 0
-0.32324648 0.26964474 -0.36520886 0
-0.22925425 0.26502991 -0.36849129 0
-0.13957644 0.28839016 -0.36680281 0
-0.036706448 0.28042984 -0.36815381 0
0.061664581 0.28028965 -0.36899328 0
0.17232418 0.29553795 -0.36890709 0
0.25995207 0.29044628 -0.36676192 0
0.37652493 0.30474567 -0.36609924 0
0.5095768 0.27470303 -0.36749732 0
0.61396503 0.3082571 -0.36356008 0
0.67112589 0.26549053 -0.36832643 0
0.80519962 0.30394936 -0.36583638 0
-0.82105303 0.3711319 -0.35919821 0
-0.72185516 0.37713051 -0.35973263 0
-0.61914873 0.37005234 -0.36192286 0
-0.52176666 0.38307285 -0.36110866 0
-0.42981625 0.36955738 -0.36092687 0
-0.32386827 0.36585045 -0.36222816 0
-0.22532701 0.3707552 -0.3624779 0
-0.12324476 0.38549709 -0.36231351 0
-0.01224947 0.3767643 -0.3619256 0
0.10943937 0.37178993 -0.36305785 0
0.20946503 0.41162872 -0.36152625 0
0.28764439 0.38360786 -0.36158383 0
0.37831497 0.42980862 -0.35604954 0
0.45777321 0.37674809 -0.36256087 0
0.60130405 0.39448452 -0.36196792 0
-0.9022336 0.47188759 -0.35419345 0
-0.82836962 0.46888638 -0.35498321 0
-0.71767521 0.46953583 -0.35587156 0
-0.62753153 0.49096966 -0.35584843 0
-0.53122282 0.47481441 -0.35611558 0
-0.41767883 0.4690609 -0.35816216 0
-0.32856131 0.48295689 -0.35653722 0
-0.23709774 0.49827576 -0.35507882 0
-0.11038637 0.46243858 -0.35674381 0
0.055557728 0.45771122 -0.35798597 0
0.17714167 0.48009396 -0.3553499 0
0.30635786 0.47922325 -0.35909724 0
0.54445934 0.47214508 -0.35714889 0
-0.0054693222 -0.4173584 -0.27396154 0
0.014969826 -0.35087395 -0.27779818 0
0.13811636 -0.23325253 -0.28553843 0
0.99627256 0.20708942 -0.36751294 0
0.89715862 0.31526566 -0.35940242 0
0.99385834 0.28530693 -0.36688375 0
0.71991301 0.36929035 -0.35892677 0
0.74495888 0.44198513 -0.36044979 0
0.89122486 0.38977337 -0.35864484 0
0.8872447 0.45851994 -0.35810065 0
-0.98267746 -0.39591312 -0.3204844 0
-0.94653797 -0.35923195 -0.32963204 0
-0.88665009 -0.31729603 -0.33645815 0
-0.70285749 -0.27010632 -0.34085047 0
-0.40819597 -0.29512119 -0.37257719 0
-0.28009701 -0.30354595 -0.37625754 0
-0.21567965 -0.28494835 -0.37701261 0
-0.86471272 -0.24522495 -0.36300004 0
-0.80560303 -0.22231579 -0.3611657 0
-0.71435928 -0.21998596 -0.36697024 0
-0.60099649 -0.21013165 -0.37270635 0
-0.50056887 -0.21652985 -0.37702018 0
-0.38069391 -0.21764755 -0.38227838 0
-0.28368092 -0.18693638 -0.38587189 0
-0.20315361 -0.20856571 -0.38699597 0
-0.12649918 -0.21397972 -0.38179255 0
-0.86152124 -0.13379097 -0.37598169 0
-0.77596712 -0.11707211 -0.37587059 0
-0.68976784 -0.11118126 -0.37496537 0
-0.62746191 -0.11055088 -0.37487233 0
-0.52391624 -0.10824966 -0.37860394 0
-0.40972614 -0.11342716 -0.38210738 0
-0.3002162 -0.10074902 -0.38442093 0
-0.22688913 -0.11024761 -0.38367307 0
-0.10571718 -0.13781452 -0.38667941 0
-0.86395454 -0.036515236 -0.37727416 0
-0.8048563 -0.0070199966 -0.37533653 0
-0.71619272 -0.025933266 -0.3764357 0
-0.60465813 -0.023747444 -0.37762278 0
-0.49618292 -0.011254311 -0.37821746 0
-0.42146349 -0.012776375 -0.37873065 0
-0.33916569 -0.043511391 -0.38043404 0
-0.89090824 0.096862793 -0.37152958 0
-0.81390858 0.077968597 -0.37269974 0
-0.70936728 0.075435638 -0.37376904 0
-0.60678196 0.085532188 -0.37495029 0
-0.52213049 0.060965538 -0.37773216 0
-0.90749454 0.19008446 -0.36818671 0
-0.80844021 0.18316364 -0.36947203 0
-0.69464922 0.15937138 -0.37175035 0
-0.97313499 0.28210068 -0.36357272 0
-0.92861509 0.24727726 -0.36472845 0
-0.41926432 -0.49599838 -0.26137316 0
-0.29979229 -0.4683218 -0.27194691 0
0.63996553 -0.49066925 -0.37945902 0
0.78251314 -0.47749805 -0.37597609 0
-0.97780752 -0.42502975 -0.30479312 0
-0.89254093 -0.42714977 -0.29124308 0
-0.79303265 -0.41236115 -0.27718043 0
-0.7385993 -0.40755081 -0.26808786 0
-0.57050323 -0.42190647 -0.29600132 0
-0.48491478 -0.41011429 -0.3021208 0
-0.41185951 -0.4402523 -0.28496039 0
-0.30972195 -0.39272499 -0.32220387 0
-0.20482683 -0.41251945 -0.30410731 0
-0.10046005 -0.39744473 -0.29008389 0
-0.0082526207 -0.3951931 -0.27462888 0
0.61897469 -0.40012169 -0.38008261 0
0.75987577 -0.39695835 -0.37642586 0
0.90572643 -0.38861561 -0.37260413 0
0.96006441 -0.43528175 -0.37523484 0
-0.8680191 -0.36062908 -0.31505096 0
-0.7837491 -0.31251526 -0.31788588 0
-0.70889425 -0.33199501 -0.30779004 0
-0.58637476 -0.29265022 -0.3443743 0
-0.50043964 -0.35727024 -0.32711053 0
-0.44214678 -0.36080647 -0.3402313 0
-0.17969084 -0.31845379 -0.35271513 0
-0.10835552 -0.30470467 -0.33421862 0
-0.0095648766 -0.30183029 -0.29969692 0
0.60198116 -0.34289169 -0.38031125 0
0.72979546 -0.30862427 -0.37669134 0
0.89499712 -0.29061604 -0.37428844 0
-0.09436655 -0.22401237 -0.36551034 0
-0.021701336 -0.22623444 -0.33874178 0
0.074736118 -0.2029047 -0.32047093 0
0.18526554 -0.16486549 -0.38564539 0
0.31600046 -0.16370296 -0.38545227 0
0.53121901 -0.18722916 -0.37969971 0
0.5556674 -0.23754406 -0.37994146 0
0.70961189 -0.18570042 -0.37860608 0
0.75761032 -0.21691895 -0.38073623 0
0.9015913 -0.18384743 -0.37755549 0
-0.12496376 -0.092293739 -0.38451517 0
-0.015057087 -0.12873745 -0.38392246 0
0.071267605 -0.15039825 -0.38649571 0
0.17441559 -0.083717346 -0.38520539 0
0.31520081 -0.078884125 -0.38655341 0
0.41035175 -0.10085011 -0.38354504 0
0.52641106 -0.10284328 -0.386392 0
0.56036854 -0.1094923 -0.38350058 0
0.70560789 -0.083757401 -0.38112986 0
0.85121536 -0.135005 -0.37585497 0
0.87350988 -0.053359032 -0.37954009 0
-0.29014111 0.0015296936 -0.38038266 0
-0.20693827 -0.0098285675 -0.3793143 0
-0.091342449 -0.026387215 -0.3827914 0
0.0055155754 -0.038293839 -0.38240111 0
0.20615864 0.027509689 -0.38223207 0
0.28312016 -0.0026798248 -0.38393021 0
0.38193655 0.011777878 -0.38203573 0
0.54491043 0.010931969 -0.3852787 0
0.64025211 0.05116272 -0.37995136 0
0.67175531 0.0013074875 -0.3814826 0
0.8093152 0.019117355 -0.37784278 0
0.97799206 0.016864777 -0.37454426 0
-0.48441076 0.10297108 -0.37353075 0
-0.38572025 0.078347206 -0.37514305 0
-0.29910183 0.076238632 -0.37555552 0
-0.2275691 0.090748787 -0.37434614 0
-0.099213123 0.083150864 -0.37756693 0
-0.018403053 0.092428207 -0.37707174 0
0.11729813 0.074419975 -0.3794291 0
0.18186045 0.10942268 -0.37552297 0
0.33287716 0.085095406 -0.37785578 0
0.48922682 0.086214066 -0.38031137 0
0.60549259 0.10183525 -0.37695944 0
0.73836613 0.097239494 -0.37420428 0
0.89430761 0.13315487 -0.37200809 0
-0.79980326 0.20830154 -0.36569309 0
-0.71187496 0.22208595 -0.36827099 0
-0.59823084 0.16951275 -0.37082851 0
-0.50718784 0.21086216 -0.36932063 0
-0.42753983 0.17568207 -0.37081766 0
-0.30610085 0.19950771 -0.37056422 0
-0.17971039 0.18053532 -0.3727814 0
-0.055525303 0.24287891 -0.37316906 0
-0.012308598 0.20795918 -0.37272775 0
0.10629272 0.18936253 -0.37350559 0
0.24207306 0.24524975 -0.36950958 0
0.29825401 0.19609737 -0.3711307 0
0.41522598 0.18781853 -0.37385154 0
0.56684542 0.19444561 -0.37349939 0
0.68810225 0.2212801 -0.36997473 0
0.77066135 0.18879032 -0.37624407 0
0.85493135 0.2355814 -0.36894989 0
-0.98973942 0.32384872 -0.36188304 0
-0.87683773 0.30259895 -0.3628118 0
-0.81202984 0.28500748 -0.36462212 0
-0.69495249 0.27290916 -0.36544895 0
-0.58098984 0.29301453 -0.3659327 0
-0.50246572 0.28845024 -0.36533189 0
-0.38541842 0.27653694 -0.36708021 0
-0.29096413 0.31004238 -0.36777079 0
-0.1957922 0.27319908 -0.36875248 0
-0.11844444 0.2899189 -0.36819541 0
-0.0080246925 0.29630756 -0.368487 0
0.09624815 0.30857277 -0.3674314 0
0.19119215 0.30770206 -0.36522412 0
0.33994961 0.32276249 -0.3673265 0
0.47139454 0.29341888 -0.36587036 0
0.61442614 0.33547974 -0.36422503 0
0.66541052 0.28704357 -0.3680954 0
-0.90615416 0.38123608 -0.3599577 0
-0.80185747 0.37858582 -0.35988748 0
-0.68993521 0.37697315 -0.36145461 0
-0.60726643 0.37986469 -0.36159956 0
-0.5153594 0.39885235 -0.36053276 0
-0.41480827 0.37525558 -0.36223125 0
-0.29524755 0.36491966 -0.36400378 0
-0.21200418 0.38718891 -0.3637439 0
-0.10080576 0.40368176 -0.36262393 0
0.015853882 0.41668606 -0.36061609 0
0.095173359 0.4053297 -0.36208165 0
0.17719126 0.41281605 -0.35919988 0
0.27326155 0.38890743 -0.36203253 0
0.40415812 0.39732075 -0.36054933 0
0.5565753 0.38718414 -0.35989106 0
-0.92020559 0.48100758 -0.35441685 0
-0.80797052 0.49341774 -0.35518444 0
-0.71412897 0.47742558 -0.35679996 0
-0.63989353 0.47900486 -0.35598397 0
-0.52298498 0.48517132 -0.35813415 0
-0.39737988 0.49894619 -0.35675907 0
-0.31378889 0.4665556 -0.36099315 0
-0.23505116 0.49343681 -0.35531569 0
-0.12719536 0.48839664 -0.3580569 0
-0.023705006 0.48588753 -0.35731709 0
0.079536915 0.49730778 -0.3559624 0
0.34606647 0.466259 -0.35612285 0
0.092033386 -0.24578762 -0.28399837 0
0.80434179 0.32463455 -0.36518216 0
0.53500843 0.44152069 -0.35827065 0
0.69890308 0.42146587 -0.35753107 0
0.89995003 0.40774441 -0.35955012 0
0.501266 0.49272346 -0.35580623 0
0.61854553 0.49299622 -0.35182238 0
-0.94246101 -0.37165642 -0.31443691 0
-0.94277 -0.29932499 -0.34352291 0
-0.83824635 -0.29008865 -0.32829285 0
-0.68366337 -0.2624464 -0.33067405 0
-0.53728676 -0.26105118 -0.34799802 0
-0.39652205 -0.27681255 -0.36679542 0
-0.28046465 -0.28590393 -0.36948353 0
-0.23103189 -0.30369949 -0.35984576 0
-0.92005491 -0.19957256 -0.36614871 0
-0.82345915 -0.2008419 -0.35879809 0
-0.72415257 -0.19270706 -0.34938169 0
-0.61839151 -0.17490864 -0.36276478 0
-0.52330542 -0.18416023 -0.36582828 0
-0.41947412 -0.19384003 -0.36936349 0
-0.28479719 -0.191679 -0.37344611 0
-0.20843458 -0.16116238 -0.37405288 0
-0.13393259 -0.22197151 -0.37163591 0
-0.046485424 -0.16606236 -0.37915349 0
-0.9232173 -0.093698502 -0.37046403 0
-0.82878017 -0.10175323 -0.36773658 0
-0.73938274 -0.096768379 -0.36604851 0
-0.63484192 -0.076119423 -0.36494005 0
-0.53117609 -0.087772369 -0.36666536 0
-0.40751028 -0.080832481 -0.37142491 0
-0.29952145 -0.095996857 -0.37368977 0
-0.92674446 0.0090284348 -0.36619085 0
-0.85148048 0.017993927 -0.36536205 0
-0.73924398 0.007979393 -0.36671007 0
-0.62791014 0.028899193 -0.36654055 0
-0.5520587 0.021899223 -0.36687696 0
-0.44445372 -0.0013036728 -0.36900866 0
-0.34355688 -0.03147316 -0.37004066 0
-0.922575 0.10429764 -0.36255848 0
-0.82258987 0.10091305 -0.36167002 0
-0.73727417 0.088069916 -0.36314952 0
-0.66245604 0.085726738 -0.36348248 0
-0.92809391 0.1986599 -0.35951591 0
-0.83558083 0.15784645 -0.3602345 0
-0.96290684 0.25751877 -0.35892606 0
-0.9001298 -0.49999332 -0.25033927 0
-0.81994915 -0.48313808 -0.24300456 0
-0.64745998 -0.46559334 -0.2662015 0
-0.52152348 -0.49924088 -0.25909853 0
-0.40029478 -0.45461464 -0.25988078 0
-0.31106567 -0.45621204 -0.25852621 0
-0.20477438 -0.46241093 -0.25849319 0
-0.12447214 -0.46976566 -0.2655915 0
-0.040804386 -0.47316074 -0.25799358 0
0.68190527 -0.46657372 -0.36678243 0
0.81976891 -0.42145348 -0.36284411 0
0.84781981 -0.49359322 -0.36209166 0
-0.90627909 -0.41062355 -0.29000926 0
-0.83393097 -0.39610672 -0.28157604 0
-0.74680185 -0.37642193 -0.2726115 0
-0.58075809 -0.41844559 -0.2797519 0
-0.51779604 -0.4110775 -0.28294146 0
-0.43199348 -0.37601948 -0.29787183 0
-0.29206467 -0.38112164 -0.30911243 0
-0.22952318 -0.35927677 -0.3235352 0
-0.10564375 -0.36624718 -0.29550683 0
-0.01120472 -0.3643837 -0.26880372 0
0.12417221 -0.33323669 -0.27001035 0
0.78388262 -0.33037281 -0.36388338 0
0.98269892 -0.38420963 -0.35987234 0
-0.80186272 -0.32079697 -0.30501628 0
-0.73176908 -0.2980547 -0.30325961 0
-0.64558315 -0.30461121 -0.30372274 0
-0.56272364 -0.31415844 -0.31788397 0
-0.38188171 -0.31703281 -0.33205473 0
-0.12581444 -0.29624462 -0.33396447 0
-0.010131836 -0.26873398 -0.30392218 0
0.064790249 -0.23098087 -0.2958194 0
0.56782389 -0.22961807 -0.36793971 0
0.738029 -0.23877621 -0.36446655 0
0.9688406 -0.27192974 -0.36255622 0
-0.013323307 -0.18711185 -0.35090971 0
0.063337326 -0.1833992 -0.32440972 0
0.13207245 -0.15142155 -0.37409317 0
0.26579905 -0.16073322 -0.37286925 0
0.414958 -0.14888287 -0.37343252 0
0.43301773 -0.19720078 -0.37324655 0
0.57275009 -0.15177059 -0.37088847 0
0.75426149 -0.15701866 -0.36828792 0
0.88606644 -0.1478138 -0.3625139 0
0.99993086 -0.11328983 -0.35706842 0
-0.22867775 -0.052349091 -0.37180722 0
-0.11580133 -0.096506119 -0.37358689 0
0.010484695 -0.068947792 -0.3743521 0
0.17487717 -0.06374836 -0.37284493 0
0.25102091 -0.10046387 -0.37353718 0
0.37286758 -0.05340004 -0.37305605 0
0.52155638 -0.10449219 -0.36967325 0
0.52835512 -0.033417702 -0.37251914 0
0.69535542 -0.071109772 -0.36814415 0
0.86003351 -0.039776802 -0.36518705 0
0.98671293 -0.046261787 -0.35899985 0
-0.49898672 0.056428909 -0.36454988 0
-0.34003925 0.023629189 -0.36995387 0
-0.22580051 0.036786079 -0.36932242 0
-0.12411308 -0.0064411163 -0.36844647 0
-0.020415306 -0.019064903 -0.37193894 0
