# .PCD v0.7 - Point Cloud Data file format
VERSION 0.7
FIELDS x y z intensity
SIZE 4 4 4 4
TYPE F F F F
COUNT 1 1 1 1
WIDTH 1247
HEIGHT 1
VIEWPOINT 0 0 0 1 0 0 0
POINTS 1247
DATA ascii
0.94761086 0.044069767 0.66088438 0
0.86698341 0.019887924 0.67515373 0
0.92248726 -0.035918236 0.69371891 0
0.84411812 -0.035607338 0.70002055 0
0.78600121 -0.021720171 0.70500684 0
0.93031502 -0.13203335 0.71933484 0
0.84223366 -0.15981269 0.73071384 0
0.92322922 -0.26127934 0.74577379 0
0.88028526 -0.30190468 0.75358748 0
0.9535656 -0.30958605 0.7461884 0
0.87595558 -0.21768737 0.73930478 0
0.94787025 -0.21937561 0.73505306 0
0.8785038 -0.1097846 0.71348429 0
0.95283699 -0.12441969 0.71549916 0
0.8890419 -0.026539564 0.68597126 0
0.95739937 -0.035693884 0.6856513 0
0.91221046 0.043712139 0.65743208 0
0.98105431 0.060413599 0.64736032 0
0.99305344 0.11583996 0.62203002 0
0.83813858 -0.20541692 0.73863077 0
0.83127594 -0.12237334 0.71920156 0
0.78361893 -0.031835556 0.70399427 0
0.82105064 -0.036133289 0.70116591 0
0.82740402 0.042816401 0.67881322 0
0.95639801 -0.44656682 1.3743258 0
0.97405815 -0.39856577 1.3712924 0
0.95425606 -0.070490599 1.2820392 0
0.96269608 0.0025510788 1.2736819 0
0.97888947 0.1008091 1.2506399 0
0.97036934 0.18816781 1.2061267 0
0.99620628 0.40599537 1.1609843 0
0.93766403 -0.36048532 1.3666792 0
0.941782 -0.29567122 1.3628516 0
0.99198151 -0.26419711 1.3633513 0
0.95773888 -0.20164227 1.3588452 0
0.97313499 -0.10255122 1.3363848 0
0.94546127 0.04798007 1.267396 0
0.92096519 -0.29091477 0.76843596 0
0.99465561 -0.32324886 0.76286912 0
0.98570251 -0.24278855 0.75501561 0
0.994524 -0.12307358 0.7325058 0
0.92702103 -0.30401087 0.75321174 0
0.99848747 -0.32460165 0.74667978 0
0.9005146 -0.2313273 0.74513435 0
0.85422897 -0.14100838 0.73177719 0
0.91960716 -0.12590814 0.72240019 0
0.85409164 0.0042927265 0.68672013 0
0.91477966 -0.037704945 0.69868112 0
0.94014168 0.054488182 0.6613121 0
0.99104309 0.16177869 0.61742234 0
0.83317947 -0.22836804 0.75035501 0
0.82065773 -0.11095929 0.72493505 0
0.81542206 -0.03172183 0.70702267 0
0.78859329 0.02567935 0.69183016 0
0.99377441 -0.38966179 1.3761985 0
0.96158218 -0.010435343 1.2818723 0
0.97372627 0.18186212 1.2159469 0
0.93818665 0.26692653 1.1889577 0
0.98101425 0.39182401 1.172936 0
0.97151756 0.4561615 1.1342793 0
0.91958237 -0.3567543 1.372292 0
0.90506554 -0.27796483 1.3676026 0
0.96865082 -0.28320551 1.3697393 0
0.9277935 -0.174721 1.3627281 0
0.97194672 -0.21826267 1.3650937 0
0.96774101 -0.11015105 1.3427067 0
0.92529488 0.0014221668 1.2810037 0
0.98573685 -0.030341625 1.3120656 0
0.95170021 0.08233881 1.2662866 0
0.9447422 0.15059757 1.2519741 0
0.76151657 0.48630738 -0.54583549 0
0.8820343 0.46919107 -0.57629561 0
0.62630653 -0.47321582 -0.37624025 0
0.71399117 -0.49359035 -0.38273764 0
0.66267204 -0.38427591 -0.39932442 0
0.71672249 -0.3862834 -0.40244079 0
0.98388863 -0.42464948 -0.47239733 0
0.66477776 -0.2693243 -0.42080235 0
0.72643852 -0.29134774 -0.42154098 0
0.998703 -0.28264618 -0.50091672 0
0.65395355 -0.17807674 -0.43585706 0
0.73504639 -0.19943619 -0.44036865 0
0.82337952 0.21331239 -0.52486253 0
0.90787506 0.15806985 -0.53957105 0
0.80919647 0.25913715 -0.53146172 0
0.91888809 0.33670592 -0.57287574 0
0.97014427 0.41904879 -0.58899069 0
0.49703789 0.45500946 -0.524858 0
0.57758331 0.46042705 -0.51959634 0
0.67132568 0.43681884 -0.51720524 0
0.81469917 0.38871336 -0.5522697 0
0.82953262 0.49329638 -0.55488229 0
0.11639404 -0.0038352013 -0.26596141 0
0.16872978 0.0079257488 -0.26483417 0
0.23451424 0.01838851 -0.27108026 0
0.02085495 0.098513603 -0.24622679 0
0.091833115 0.11585593 -0.26488113 0
0.26290321 0.055477619 -0.28708911 0
0.086202621 0.20521331 -0.28930402 0
0.11520958 0.28991771 -0.32205224 0
0.15984344 0.2827909 -0.30980086 0
0.13662529 0.36459279 -0.34969854 0
0.19145203 0.38009501 -0.36381078 0
0.45317268 -0.47075057 -0.35106444 0
0.56258202 -0.48054981 -0.36176085 0
0.67040062 -0.47777224 -0.37502122 0
0.74292946 -0.48631763 -0.38230371 0
0.47634315 -0.36273074 -0.37499785 0
0.56412315 -0.37854314 -0.38228703 0
0.66560555 -0.37241793 -0.39409208 0
0.75358582 -0.38946319 -0.40167069 0
0.50428963 -0.2666719 -0.39862061 0
0.58835983 -0.29084706 -0.4034524 0
0.68156052 -0.29321742 -0.41330791 0
0.75509834 -0.28408265 -0.42129827 0
0.5865078 -0.21847439 -0.41657257 0
0.66816902 -0.20894146 -0.42654467 0
0.75587082 -0.21179867 -0.43503237 0
0.94572258 0.40803313 -0.57480597 0
0.10400772 -0.069812059 -0.28882623 0
0.34650421 -0.15034747 -0.36521792 0
0.13071632 0.37393546 -0.40279651 0
0.15684509 0.41946387 -0.42716694 0
0.45284653 0.45755005 -0.52148604 0
0.54604149 0.45452332 -0.51264739 0
0.65061188 0.45674801 -0.51768899 0
0.75187492 0.44994545 -0.52641153 0
0.12473106 -0.080342531 -0.28312922 0
0.017339706 0.02957654 -0.25635886 0
0.10366821 -0.0068018436 -0.2652173 0
0.21364212 0.0008122921 -0.2635355 0
0.017087936 0.10158086 -0.26395392 0
0.12983704 0.10267973 -0.26149225 0
0.28547478 0.052759171 -0.28356385 0
0.042901993 0.1892035 -0.30088711 0
0.097904205 0.20293093 -0.2898984 0
0.066511154 0.27664781 -0.34442592 0
0.11978531 0.28947949 -0.32560706 0
0.084608078 0.34751081 -0.37098455 0
0.13752937 0.37295532 -0.36454773 0
0.1931057 0.38569856 -0.35226583 0
0.94947624 -0.24725509 0.75715566 0
0.91897583 -0.13273454 0.73774004 0
0.96324348 -0.039688826 0.71190047 0
0.96928596 0.035728455 0.68185449 0
0.2305603 -0.46286917 -0.33091378 0
0.32154274 -0.45231175 -0.34292412 0
0.3868618 -0.46367407 -0.34866166 0
0.50316811 -0.49281979 -0.35681987 0
0.57817268 -0.49643826 -0.36375999 0
0.23914146 -0.36436296 -0.35023022 0
0.32611084 -0.35339737 -0.36420083 0
0.42562485 -0.37580776 -0.37047648 0
0.51140404 -0.38396478 -0.37861681 0
0.61310196 -0.40611935 -0.38694215 0
0.71594238 -0.39483619 -0.39963984 0
0.25304031 -0.2583046 -0.37261224 0
0.32395172 -0.28004837 -0.37779999 0
0.41439629 -0.26788449 -0.39123416 0
0.52811432 -0.28343725 -0.40130162 0
0.61750603 -0.29435587 -0.40900469 0
0.727005 -0.30783176 -0.41794944 0
0.72364235 -0.24873972 -0.42856431 0
0.055183411 -0.091398001 -0.31411886 0
0.11966896 -0.13896441 -0.31524253 0
0.32488441 -0.19599867 -0.36760116 0
-0.043365479 0.012478352 -0.30959606 0
0.0031738281 -0.052038908 -0.30844975 0
-0.039077759 0.10217142 -0.33017135 0
-0.033521652 0.15726233 -0.34693789 0
0.029901505 0.19847894 -0.36100602 0
-0.014194489 0.24441409 -0.37720776 0
0.045448303 0.27409744 -0.39220428 0
0.072973251 0.35461545 -0.41920543 0
0.13694382 0.38859916 -0.43775868 0
0.16799927 0.43934393 -0.47859645 0
0.32779312 0.45443487 -0.52322149 0
0.5732975 0.40755224 -0.51255178 0
0.67247772 0.42642045 -0.51799965 0
0.46661186 0.49135423 -0.52731943 0
0.88875389 0.46289372 -0.55694866 0
0.083463669 -0.073257923 -0.29021645 0
0.14875221 -0.11365962 -0.28950381 0
-0.019775391 -0.0054926872 -0.29258204 0
0.026771545 -0.00088405609 -0.26929736 0
0.12298965 -0.038757324 -0.26835036 0
0.19870758 -0.011184692 -0.26204205 0
-0.031667709 0.08239913 -0.29769135 0
0.032945633 0.097155094 -0.2632792 0
0.24583817 0.039081335 -0.27129054 0
-0.0061435699 0.17650461 -0.34509802 0
0.053871155 0.17971468 -0.30378985 0
0.070493698 0.27437782 -0.34161758 0
0.13383675 0.2543695 -0.31244087 0
0.079597473 0.351722 -0.37402725 0
0.16438866 0.36174989 -0.36476254 0
0.96422386 -0.22667193 0.75031972 0
0.89468765 -0.1164546 0.72660589 0
0.97803497 -0.15425706 0.73178935 0
0.87821198 -0.039286613 0.71307302 0
0.96332169 -0.048066139 0.71301866 0
0.97999573 0.014878035 0.6863668 0
0.046127319 -0.42263365 -0.33884096 0
0.13587952 -0.43691325 -0.34093785 0
0.22377968 -0.45967126 -0.33915091 0
0.32587051 -0.4616127 -0.35038018 0
0.41344452 -0.46346855 -0.35926557 0
0.53435898 -0.46958399 -0.37235165 0
0.62910843 -0.49115705 -0.3779459 0
0.061491013 -0.32658339 -0.3612349 0
0.15837669 -0.33317471 -0.36443257 0
0.26113129 -0.37790561 -0.36086655 0
0.32440376 -0.33941174 -0.3728559 0
0.42948341 -0.3547008 -0.38230348 0
0.5467186 -0.37529111 -0.39266467 0
0.65003014 -0.39900374 -0.39898062 0
0.75434875 -0.36505556 -0.41563082 0
0.085510254 -0.24634004 -0.38129044 0
0.14279556 -0.25379992 -0.38603687 0
0.24513817 -0.27200794 -0.38260388 0
0.43761635 -0.25959086 -0.40225911 0
0.55248642 -0.27974033 -0.41230178 0
0.64435768 -0.28815603 -0.41871262 0
0.76615143 -0.31330514 -0.42754579 0
0.64928818 -0.23056793 -0.43051362 0
0.75629616 -0.22113657 -0.44324851 0
0.084686279 0.47349143 -0.54323244 0
0.22075272 -0.3404386 -0.36045551 0
0.094343185 -0.1895082 -0.36130118 0
0.14808655 -0.23215485 -0.37540412 0
0.23840141 -0.24525189 -0.38158417 0
0.33729362 -0.25328255 -0.39188075 0
-0.017328262 -0.10117316 -0.35372233 0
0.079423904 -0.12474275 -0.33691907 0
0.38197517 -0.1717751 -0.3805654 0
-0.080209732 0.025860548 -0.35243583 0
-0.043125153 -0.018201351 -0.33986259 0
-0.09151268 0.084825993 -0.36298299 0
-0.05100441 0.1047399 -0.34886265 0
-0.083669662 0.1602695 -0.3913281 0
-0.034553528 0.19268298 -0.38553977 0
-0.075925827 0.25090909 -0.42494702 0
-0.0012626648 0.27630758 -0.42133808 0
0.054552078 0.30810189 -0.41375661 0
0.01906395 0.35152006 -0.4621172 0
0.079410553 0.37653232 -0.45994902 0
0.15277481 0.40254498 -0.43667388 0
0.10492516 0.44586468 -0.51824975 0
0.19229317 0.45931864 -0.51708221 0
0.4204464 0.43894839 -0.53108883 0
0.49372673 0.45855141 -0.52935719 0
0.69863892 0.4346838 -0.52688694 0
0.7007122 0.48914886 -0.54148316 0
0.10567474 -0.089671373 -0.30770683 0
0.1443634 -0.10229111 -0.29949355 0
-0.007440567 0.017771244 -0.29350185 0
0.07670784 -0.027859449 -0.2864759 0
0.16047096 -0.0088627338 -0.27270436 0
0.23561859 -0.013967276 -0.27391577 0
-0.017261505 0.098273993 -0.29810834 0
0.076173782 0.12842536 -0.27860284 0
0.17889786 0.065746784 -0.27666783 0
0.010875702 0.18051982 -0.33514881 0
0.083209991 0.20671225 -0.31080413 0
0.02936554 0.28049874 -0.37730265 0
0.087251663 0.28692317 -0.34584117 0
0.036857605 0.36914659 -0.40964532 0
0.11801529 0.34502149 -0.37607861 0
0.17736626 0.38033843 -0.38588595 0
0.9046402 -0.19100499 0.74206829 0
0.95486641 -0.12170601 0.72216177 0
0.86273003 -0.041169643 0.7091105 0
0.96084976 -0.040289402 0.69810247 0
0.97841835 0.082281828 0.6562109 0
-0.10484505 -0.43361759 -0.33001375 0
-0.038248062 -0.41953349 -0.33544135 0
0.078653336 -0.43290162 -0.33961701 0
0.17171288 -0.43446088 -0.34046865 0
0.24068069 -0.40175033 -0.35087872 0
0.34239578 -0.44999504 -0.35067916 0
0.45047188 -0.45452428 -0.36191607 0
0.57083893 -0.45731807 -0.37536669 0
0.73543167 -0.48958731 -0.3894875 0
-0.095767975 -0.32817316 -0.35080576 0
-0.025499344 -0.31184244 -0.36166406 0
0.082532883 -0.3395052 -0.3605473 0
0.18318367 -0.33946514 -0.36604071 0
0.25514221 -0.33633018 -0.36588335 0
0.34802818 -0.36606169 -0.36752701 0
0.47416115 -0.36636162 -0.38293433 0
0.58388329 -0.3786571 -0.3929503 0
0.71522141 -0.37487698 -0.40701294 0
0.73400879 -0.3462255 -0.4159441 0
-0.025060654 -0.22011113 -0.38155961 0
0.08080101 -0.23415947 -0.38400602 0
0.18770027 -0.24419069 -0.38609171 0
0.26210594 -0.26240373 -0.38132286 0
0.3554554 -0.27193332 -0.38710761 0
0.47186661 -0.27747393 -0.39972234 0
0.58002853 -0.28450966 -0.41050601 0
0.74594498 -0.29890037 -0.42723322 0
-0.033250809 -0.14276171 -0.39939618 0
0.082092285 -0.18428159 -0.39429641 0
-0.049568176 0.29179263 -0.48774314 0
0.013721466 0.34715986 -0.5126195 0
-0.033407211 0.44583416 -0.53725743 0
0.031045914 0.46109915 -0.5410881 0
0.13009834 0.44990015 -0.53635478 0
0.19155502 0.44453716 -0.53645015 0
0.11488152 -0.19342089 -0.36373448 0
-0.079504013 -0.086479425 -0.37288928 0
-0.001625061 -0.10822201 -0.35677719 0
0.10743904 -0.12726688 -0.33638 0
0.15294075 -0.16543865 -0.34429955 0
0.44687462 -0.20409417 -0.38518524 0
-0.095241547 -0.0081148148 -0.37847257 0
-0.014242172 -0.017625332 -0.34324503 0
0.065044403 -0.062196016 -0.31843758 0
-0.08993721 0.087397814 -0.38586116 0
-0.026208878 0.085649729 -0.34852982 0
-0.076215744 0.16077447 -0.42326021 0
-0.0081691742 0.17289448 -0.38942719 0
-0.071496964 0.24556613 -0.45473695 0
0.025608063 0.26866698 -0.43371487 0
0.09897995 0.27945757 -0.40324974 0
0.035997391 0.34002471 -0.48060966 0
0.10829735 0.36337328 -0.44934082 0
0.058826447 0.42303753 -0.49632668 0
0.14476967 0.43379927 -0.51750755 0
0.22223282 0.43723273 -0.49366188 0
0.29821014 0.46691656 -0.53487158 0
0.44525909 0.43964219 -0.53107452 0
0.54226875 0.40889049 -0.52738738 0
0.59516144 0.43077469 -0.52435756 0
0.15767097 -0.092659473 -0.30359554 0
0.021858215 0.023525953 -0.28294921 0
0.11016273 -0.024167299 -0.28458667 0
0.20133972 -0.042972088 -0.26826143 0
0.26740074 0.0016510487 -0.27489638 0
0.0083274841 0.094070673 -0.30570984 0
0.081224442 0.10660362 -0.26581669 0
0.25732422 0.034511328 -0.27944136 0
0.04019928 0.18538237 -0.33723855 0
0.11069679 0.1888938 -0.30689406 0
0.063919067 0.30700469 -0.37536097 0
0.12592506 0.27485871 -0.34543133 0
0.19776154 0.28271055 -0.32148075 0
0.061172485 0.35113573 -0.39581347 0
0.14625549 0.35903311 -0.38268709 0
0.22099495 0.37067246 -0.38694644 0
0.96530342 -0.15004659 0.72331905 0
0.9656353 -0.052630424 0.70263195 0
-0.26634598 -0.472121 -0.31681323 0
-0.18044853 -0.49688125 -0.31255007 0
-0.24030113 -0.38599682 -0.33067226 0
-0.13889694 -0.39424682 -0.33653927 0
-0.070898056 -0.41801071 -0.33161139 0
0.037010193 -0.45101881 -0.33031869 0
0.14596748 -0.47140884 -0.32539725 0
0.20449066 -0.49665356 -0.32334232 0
-0.22319031 -0.30307484 -0.35298967 0
-0.12445068 -0.3087101 -0.35567307 0
-0.038452148 -0.32533479 -0.35213494 0
0.067779541 -0.37454581 -0.34868693 0
0.15893173 -0.39410782 -0.34656668 0
0.24119186 -0.42246604 -0.3440609 0
0.3550396 -0.45150042 -0.35133839 0
0.49282074 -0.485358 -0.36051512 0
0.51597786 -0.44114351 -0.37297368 0
-0.19387054 -0.19784045 -0.37623334 0
-0.10184288 -0.2114296 -0.37942195 0
-0.0072231293 -0.24963355 -0.37229657 0
0.096736908 -0.27502632 -0.37003469 0
0.18741608 -0.29301977 -0.37173772 0
0.28070259 -0.33502841 -0.36545467 0
0.34620667 -0.32922697 -0.37324023 0
0.53802872 -0.38657928 -0.38801956 0
0.67851448 -0.41377115 -0.39746928 0
-0.16949272 -0.10041118 -0.40192533 0
-0.087970734 -0.13312197 -0.39929891 0
0.018175125 -0.18392992 -0.38999081 0
0.10808563 -0.20638061 -0.38586998 0
0.19568062 -0.24131227 -0.38353515 0
0.37957573 -0.26960731 -0.3915844 0
0.49880028 -0.25527263 -0.40641856 0
0.66983604 -0.31257772 -0.4154017 0
-0.20149231 0.028357744 -0.42137337 0
-0.19142151 0.0054352283 -0.42240953 0
0.64584732 -0.22156358 -0.42856169 0
-0.21081352 0.11464858 -0.43583989 0
-0.18715668 0.21488571 -0.46867967 0
-0.16005898 0.30434179 -0.49429822 0
-0.080596924 0.2933054 -0.49333119 0
-0.15284157 0.40148783 -0.52272773 0
-0.08259964 0.38105106 -0.51663089 0
-0.13994408 0.47923017 -0.5438242 0
-0.027683258 0.4619 -0.5412631 0
0.040517807 0.44412589 -0.53268814 0
0.2525444 -0.27950764 -0.37387013 0
-0.14438438 -0.063372612 -0.37821913 0
-0.067277908 -0.10053968 -0.35932589 0
0.034610748 -0.12607479 -0.34475303 0
0.12613297 -0.15113449 -0.32849145 0
0.26129913 -0.24789786 -0.38185644 0
-0.20080757 0.051235676 -0.40241313 0
-0.13805962 -0.00075292587 -0.37963963 0
-0.054033279 -0.013364315 -0.33635426 0
0.0020599365 -0.054539442 -0.32545757 0
-0.19449234 0.11281991 -0.41719699 0
-0.13242912 0.097437859 -0.38619304 0
-0.052549362 0.095830202 -0.35237551 0
-0.1744175 0.20251369 -0.44325566 0
-0.099805832 0.18433237 -0.42131662 0
-0.025165558 0.19040608 -0.38645506 0
-0.060033798 0.28004265 -0.45907426 0
0.016119003 0.27766395 -0.41872358 0
-0.038414001 0.37435174 -0.50070715 0
0.034669876 0.3635993 -0.45844388 0
0.12918091 0.38295627 -0.4310503 0
0.0046615601 0.41230941 -0.51302695 0
0.055274963 0.42629385 -0.49675632 0
0.15965843 0.42486191 -0.49251342 0
0.29967499 0.48354244 -0.53331017 0
0.35725403 0.46028328 -0.52796769 0
0.47384262 0.45509076 -0.52805853 0
0.62024689 0.40656209 -0.51664352 0
-0.026943207 0.015984535 -0.29727769 0
0.053829193 -0.016599655 -0.27573943 0
0.12555122 -0.052745581 -0.27855039 0
-0.085083008 0.12028241 -0.33664632 0
-0.016294479 0.093530655 -0.29126143 0
0.053873062 0.11099887 -0.2773807 0
0.17209053 0.029340982 -0.26842141 0
0.026533127 0.18246841 -0.32583594 0
0.084892273 0.20036244 -0.29626131 0
0.055511475 0.27947116 -0.3533268 0
0.10798645 0.26782131 -0.32803941 0
0.064218521 0.3520124 -0.39502478 0
0.14291191 0.35810018 -0.36449361 0
0.12312508 0.42525792 -0.41050744 0
0.97893906 -0.3051722 0.7566905 0
0.91832542 -0.2027154 0.73876524 0
0.92141724 -0.084746361 0.71912265 0
0.92128944 -0.14118409 0.72835302 0
0.90099525 0.024800301 0.68881154 0
0.99267769 -0.02644372 0.69743586 0
-0.24503326 -0.4507513 -0.30639648 0
-0.22239876 -0.32841873 -0.32967234 0
-0.16069031 -0.39818144 -0.31918073 0
-0.10778999 -0.46692729 -0.30759645 0
-0.15496063 -0.25247169 -0.35332727 0
-0.096273422 -0.33804321 -0.33576202 0
-0.020608902 -0.42901349 -0.31763339 0
0.051094055 -0.45647097 -0.31464958 0
-0.14954758 -0.13978624 -0.37803674 0
-0.081315994 -0.19641733 -0.3686626 0
-0.020641327 -0.26536226 -0.35548329 0
0.035291672 -0.35300922 -0.33792973 0
0.11590004 -0.42083526 -0.32493591 0
0.18367195 -0.49457192 -0.3123858 0
-0.13726234 -0.059831858 -0.39598799 0
-0.05238533 -0.13782072 -0.38255906 0
0.062770844 -0.22274113 -0.37009978 0
0.12334061 -0.28070474 -0.35676479 0
0.16588783 -0.338727 -0.34308839 0
0.25242996 -0.41978955 -0.33265042 0
0.2469368 -0.31121993 -0.3568871 0
0.3297081 -0.35602522 -0.35321403 0
0.43159103 -0.43970466 -0.34810019 0
0.41173935 -0.49150562 -0.33560419 0
-0.11223984 0.28561258 -0.47141528 0
0.33448601 -0.26887131 -0.37061048 0
0.44099236 -0.27748036 -0.38055277 0
0.45336151 -0.36472225 -0.36627007 0
0.55137062 -0.38875771 -0.36892819 0
-0.10339737 0.43406606 -0.5132792 0
-0.064235687 0.34299254 -0.49037647 0
0.59271622 -0.3276875 -0.38837504 0
0.59452057 -0.38083911 -0.37855649 0
-0.055347443 0.49539566 -0.53308868 0
0.020254135 0.42179728 -0.51473975 0
0.60193443 -0.2895205 -0.39718151 0
0.75532913 -0.38844776 -0.39415264 0
0.077543259 0.46948409 -0.5250349 0
0.75122833 -0.28059793 -0.41349387 0
-0.17782402 -0.0299685 -0.38257289 0
-0.12851906 -0.08367753 -0.36019731 0
-0.18126488 0.091207266 -0.39356565 0
-0.13627815 0.030691147 -0.36504817 0
-0.074993134 -0.03293395 -0.33779907 0
-0.016839981 -0.11513877 -0.33523226 0
0.084604263 -0.17414427 -0.33991003 0
-0.16963387 0.2186656 -0.43717146 0
-0.13438606 0.15023446 -0.39846921 0
-0.065153122 0.11433864 -0.35007238 0
-0.046510696 0.0205338 -0.32468367 0
0.038261414 -0.072150707 -0.3001368 0
0.10547447 -0.13659811 -0.31054401 0
-0.1141777 0.25065064 -0.44428468 0
-0.054857254 0.22947574 -0.41255307 0
-0.020105362 0.1798656 -0.36338377 0
-0.015695572 0.35266852 -0.48318076 0
0.01102066 0.29951477 -0.42316937 0
0.0408535 0.40217042 -0.4653964 0
0.069768906 0.3610878 -0.43886757 0
0.13895416 0.42502856 -0.46324039 0
0.23172379 0.47579288 -0.51223493 0
0.3655014 0.47652054 -0.51152039 0
0.47943497 0.40677285 -0.50821638 0
0.51976585 0.46940541 -0.51168442 0
0.61540985 0.39965773 -0.49692178 0
0.60945129 0.47155619 -0.51286268 0
0.7285881 0.43591428 -0.51294112 0
0.71705818 0.49957824 -0.5257206 0
-0.029371262 -0.0045800209 -0.29293323 0
-0.036081314 0.098042488 -0.28381157 0
-0.0093650818 0.040357113 -0.26422715 0
0.094459534 -0.051881313 -0.26870489 0
-0.010852814 0.22506976 -0.34702468 0
0.034791946 0.17380524 -0.30687094 0
0.048563004 0.11317992 -0.27246952 0
0.15354347 0.014638424 -0.25206709 0
0.052261353 0.30367541 -0.34930182 0
0.083789825 0.24344397 -0.31685925 0
0.26594543 0.023480654 -0.25989008 0
0.10669136 0.34652305 -0.36823869 0
0.15527344 0.30627298 -0.32482409 0
0.17038918 0.40633202 -0.40021181 0
0.19940567 0.3707993 -0.35125399 0
0.9265728 -0.1940949 0.75292397 0
0.96894646 -0.28735924 0.7727716 0
0.96550179 -0.13715935 0.73773193 0
0.9601078 -0.037263155 0.71044588 0
-0.40481949 -0.44934058 -0.32213449 0
-0.3927021 -0.31694293 -0.34824896 0
-0.33215332 -0.36654997 -0.33580375 0
-0.2796917 -0.43625998 -0.32020569 0
-0.34724045 -0.18272471 -0.38092351 0
-0.32823563 -0.23634505 -0.36600852 0
-0.25548744 -0.32656622 -0.34483576 0
-0.2010231 -0.36053252 -0.33515644 0
-0.1431675 -0.45684743 -0.31818175 0
-0.31523132 -0.11959267 -0.39401364 0
-0.24811363 -0.1775341 -0.3799274 0
-0.18063545 -0.2466917 -0.36594224 0
-0.11777687 -0.34835601 -0.34513807 0
-0.042566299 -0.4293499 -0.32878232 0
0.030487061 -0.44539595 -0.32693934 0
-0.30069542 0.018501997 -0.42271519 0
-0.24654007 -0.047947168 -0.40912127 0
-0.15263367 -0.1304245 -0.39090109 0
-0.10597038 -0.18392706 -0.38300872 0
-0.053487778 -0.27005267 -0.36605883 0
-0.0086917877 -0.32502222 -0.35289097 0
0.071479797 -0.36631298 -0.34782529 0
0.13073158 -0.46914363 -0.32892203 0
-0.27244949 0.17226338 -0.46023822 0
-0.23642349 0.086424589 -0.4450109 0
-0.1994381 0.0068702698 -0.42416954 0
-0.13298607 -0.074987173 -0.40804386 0
-0.032991409 -0.15761924 -0.39037085 0
0.020259857 -0.25583029 -0.37053299 0
0.079944611 -0.2883265 -0.36741972 0
0.18838501 -0.3517015 -0.35979056 0
-0.26894188 0.28911614 -0.48578882 0
-0.2086544 0.21640038 -0.47059584 0
-0.20019531 0.18207407 -0.4578917 0
0.39516068 -0.42264199 -0.35861301 0
0.38913918 -0.49977088 -0.3442688 0
-0.26254082 0.46255708 -0.52625084 0
-0.21615601 0.36408663 -0.50935245 0
-0.16089058 0.29670262 -0.49198341 0
0.43638992 -0.35775518 -0.37807703 0
0.55926514 -0.49506664 -0.36394382 0
-0.13874817 0.42644787 -0.52663231 0
-0.093229294 0.33956647 -0.5033555 0
0.59791565 -0.35639262 -0.39621472 0
0.59413338 -0.44441843 -0.37917876 0
-0.020927429 0.43367577 -0.52973962 0
0.082668304 0.42615867 -0.53209662 0
-0.1583252 -0.067268848 -0.37725687 0
0.036197662 -0.37890196 -0.33939266 0
0.1906395 -0.48554635 -0.32239199 0
-0.207901 0.094621897 -0.41730452 0
-0.16314316 0.02654624 -0.38595295 0
-0.083427429 -0.024785042 -0.34869981 0
-0.040756226 -0.1118021 -0.34883976 0
0.05075264 -0.18562818 -0.35857511 0
0.092348099 -0.24124861 -0.37413669 0
0.13961411 -0.37676072 -0.34666133 0
0.23513031 -0.422997 -0.3408308 0
-0.15826225 0.16200686 -0.42187643 0
-0.093658447 0.10061646 -0.36210299 0
-0.068973541 0.041107178 -0.3312726 0
0.040746689 -0.091428995 -0.31894326 0
0.0991745 -0.14439368 -0.32456875 0
0.23113441 -0.26858282 -0.37509656 0
0.27161598 -0.33488202 -0.3629303 0
-0.11098289 0.30036211 -0.48414278 0
-0.073871613 0.2343812 -0.42827368 0
-0.052841187 0.17449188 -0.38405704 0
-0.041067123 0.34550571 -0.49772239 0
-0.0076160431 0.29887652 -0.4501102 0
0.030164719 0.25119138 -0.3984282 0
-0.0036907196 0.41883445 -0.50124526 0
0.050205231 0.37332368 -0.44665074 0
0.11790085 0.42285538 -0.49601245 0
0.21145058 0.49798107 -0.52944779 0
0.26150131 0.43252063 -0.50516105 0
0.43193817 0.41711092 -0.51847506 0
0.49388504 0.47864079 -0.52288699 0
0.55066872 0.39551806 -0.50770235 0
0.66221809 0.47375059 -0.52751327 0
0.6587429 0.41176391 -0.51271152 0
-0.050662994 -0.015918255 -0.30806899 0
-0.051700592 0.1029079 -0.30399251 0
-0.018409729 0.039426327 -0.27838778 0
0.049459457 -0.030941725 -0.28455424 0
0.10890007 -0.082257271 -0.28734326 0
-0.00012969971 0.17051911 -0.32842493 0
0.040428162 0.13580966 -0.28303432 0
0.040229797 0.32156682 -0.37880635 0
0.059202194 0.24770951 -0.33736873 0
0.078027725 0.35901904 -0.38980985 0
0.12691879 0.32641196 -0.34332776 0
0.13947296 0.40147829 -0.40162492 0
0.20217705 0.35839081 -0.36510444 0
0.88919067 -0.16125536 0.74145532 0
0.93813515 -0.11057496 0.72605395 0
0.90899086 0.025056601 0.68498564 0
0.92560196 -0.01198554 0.70287967 0
-0.65229225 -0.47575116 -0.31581569 0
-0.60122585 -0.38202834 -0.33472443 0
-0.51399326 -0.4641273 -0.32298875 0
-0.54034805 -0.2531085 -0.36356354 0
-0.53089809 -0.33170867 -0.34625936 0
-0.45727921 -0.39059091 -0.33475995 0
-0.38530731 -0.48488903 -0.31765246 0
-0.5007 -0.18950272 -0.38075066 0
-0.44977951 -0.26233649 -0.36661315 0
-0.38690376 -0.33789253 -0.34717393 0
-0.31577873 -0.38595676 -0.33425164 0
-0.23751068 -0.48454452 -0.31751204 0
-0.48663044 -0.082225323 -0.40145278 0
-0.43386078 -0.1358676 -0.39591384 0
-0.36206245 -0.19966102 -0.37983012 0
-0.30224609 -0.27878857 -0.35961819 0
-0.25278664 -0.34002447 -0.34263778 0
-0.15672112 -0.41475296 -0.32924461 0
-0.4183979 0.00014543533 -0.42733669 0
-0.35709572 -0.069185257 -0.41048384 0
-0.27634811 -0.15298009 -0.38873792 0
-0.22691727 -0.22068334 -0.37328148 0
-0.16646194 -0.28750801 -0.35868621 0
-0.075149536 -0.35833812 -0.34682465 0
-0.035470963 -0.45193624 -0.32660437 0
-0.396101 0.14753437 -0.45798635 0
-0.33950806 0.065997601 -0.44241095 0
-0.2790451 -0.0039970875 -0.42529845 0
-0.2360878 -0.068107367 -0.40771794 0
-0.15698624 -0.1379571 -0.39144421 0
-0.096298218 -0.20373201 -0.38198304 0
-0.04540062 -0.26109886 -0.36897779 0
0.021942139 -0.3512125 -0.35363865 0
-0.38825607 0.29502082 -0.48699045 0
-0.33112144 0.21581244 -0.47385597 0
-0.27539253 0.13374615 -0.45429993 0
-0.22112846 0.052774191 -0.43421888 0
-0.13233376 -0.093624115 -0.40673208 0
-0.014181137 -0.21757364 -0.38225865 0
0.052061081 -0.25324917 -0.37630224 0
-0.32929802 0.35546017 -0.50794482 0
-0.29119682 0.29231548 -0.49126554 0
-0.21748352 0.22316217 -0.47475266 0
0.47281837 -0.48904419 -0.35497904 0
-0.31470871 0.47616267 -0.53759718 0
-0.2608757 0.40595865 -0.52198958 0
-0.20746994 0.3468194 -0.50711823 0
-0.14303398 0.26904058 -0.48919797 0
0.51577759 -0.40940976 -0.37648821 0
0.49040604 -0.44798064 -0.36493325 0
-0.19615364 0.47147608 -0.53690052 0
-0.12706757 0.42371178 -0.52962565 0
-0.080921173 0.34615493 -0.50924373 0
0.55394363 -0.39247227 -0.38648653 0
-0.053245544 0.46264887 -0.53922057 0
0.7556076 -0.43337417 -0.3997395 0
0.038116455 0.45293117 -0.53685927 0
-0.076820374 -0.4530983 -0.31973934 0
-0.038915634 -0.3918395 -0.33612585 0
0.049179077 -0.44194674 -0.32864332 0
-0.19399834 -0.031309843 -0.39071345 0
-0.10173416 -0.13679171 -0.36899114 0
0.076915741 -0.39013243 -0.34220195 0
-0.22525597 0.14888096 -0.43164277 0
-0.19423485 0.062224388 -0.40415502 0
-0.13619995 -0.00077104568 -0.37592173 0
-0.076641083 -0.064714193 -0.35148811 0
-0.00078582764 -0.077111244 -0.32212281 0
0.043888092 -0.1713903 -0.34942818 0
0.11316299 -0.29181194 -0.36582828 0
0.20579338 -0.36047029 -0.3547678 0
0.20427513 -0.44374824 -0.33998561 0
-0.17743301 0.19101 -0.44603586 0
-0.13345146 0.14241314 -0.40994287 0
-0.089920044 0.082046032 -0.36450243 0
-0.038045883 0.0028245449 -0.32420874 0
0.11122894 -0.17446947 -0.33534193 0
0.2303009 -0.31626129 -0.36663485 0
0.34552383 -0.3763423 -0.36331773 0
0.32796288 -0.44886231 -0.3471148 0
-0.10752296 0.2488265 -0.46252489 0
-0.05100441 0.20502901 -0.41628075 0
-0.029912949 0.14219117 -0.39196897 0
0.36813354 -0.31035829 -0.37939811 0
-0.029335022 0.31542253 -0.47168231 0
-0.0057792664 0.28069425 -0.43318677 0
0.028499603 0.39618397 -0.49777508 0
0.067287445 0.3463285 -0.43883991 0
0.10264206 0.4511621 -0.52878642 0
0.15145493 0.41425514 -0.4772532 0
0.25742149 0.43456078 -0.49889994 0
0.37213135 0.45074534 -0.52193427 0
0.49709892 0.37865424 -0.51563621 0
0.51875114 0.4552598 -0.52071238 0
0.56145096 0.37236333 -0.50495577 0
0.68891144 0.42461777 -0.52025867 0
-0.035900116 0.094514847 -0.30518675 0
-0.010004044 0.02200985 -0.27898693 0
0.060739517 -0.054826498 -0.28875661 0
-0.015584946 0.21484995 -0.36172748 0
0.010128021 0.15370059 -0.32439518 0
0.057811737 0.12977624 -0.27032614 0
0.027017593 0.28505635 -0.37839293 0
0.083902359 0.22358036 -0.32065034 0
0.11735153 0.34442401 -0.37544322 0
0.12334824 0.29986429 -0.32490063 0
0.18959427 0.34761643 -0.37310219 0
0.9980278 -0.31953526 0.76039028 0
0.93556213 -0.16438055 0.73321795 0
0.92690277 -0.0099055767 0.69416189 0
0.95769501 -0.073203802 0.71611071 0
0.99853325 0.099349499 0.65172553 0
-0.7902441 -0.49692845 -0.30242848 0
-0.76617336 -0.39515758 -0.32572675 0
-0.71764088 -0.43113613 -0.32356453 0
-0.68512917 -0.32436562 -0.34776402 0
-0.64958191 -0.37463069 -0.33581924 0
-0.59589767 -0.44989657 -0.32080746 0
-0.6405611 -0.24285007 -0.36535263 0
-0.5814085 -0.29884958 -0.35132194 0
-0.52038002 -0.39219642 -0.3301003 0
-0.46027565 -0.45699048 -0.3173027 0
-0.61368752 -0.11760283 -0.39209676 0
-0.55794239 -0.19190431 -0.3784945 0
-0.48477173 -0.25373483 -0.36635661 0
-0.45796967 -0.32782817 -0.34539723 0
-0.3831768 -0.3758831 -0.33043242 0
-0.31866837 -0.48593616 -0.31187439 0
-0.53881836 -0.053561449 -0.4126544 0
-0.48414421 -0.11667085 -0.39614344 0
-0.43437004 -0.197474 -0.37510228 0
-0.35690689 -0.27933455 -0.35611081 0
-0.28684998 -0.35698581 -0.33907413 0
-0.22908974 -0.42108035 -0.32583642 0
-0.16223717 -0.474967 -0.31227493 0
-0.50262356 0.075356483 -0.44334745 0
-0.49610519 0.014631987 -0.42753124 0
-0.40670776 -0.055976391 -0.41125965 0
-0.35427094 -0.13172245 -0.39226198 0
-0.2820282 -0.18857527 -0.37675619 0
-0.24611664 -0.25964713 -0.35740471 0
-0.14687729 -0.3591094 -0.34178948 0
-0.098760605 -0.43369031 -0.32666659 0
-0.027292252 -0.49722075 -0.3139956 0
-0.4973793 0.20075107 -0.46608496 0
-0.45337105 0.15376759 -0.45906162 0
-0.41157722 0.071759939 -0.44334149 0
-0.34787369 0.016786337 -0.42549372 0
-0.27350044 -0.07222414 -0.4042182 0
-0.2188549 -0.13711452 -0.3867414 0
-0.15504074 -0.21230817 -0.37294531 0
-0.089458466 -0.27435207 -0.36226559 0
-0.025512695 -0.38032675 -0.34084082 0
0.049631119 -0.44080496 -0.32860231 0
-0.4318161 0.28999591 -0.49117637 0
-0.39789772 0.21732616 -0.47580099 0
-0.33904648 0.16036272 -0.45973611 0
-0.26753044 0.080540657 -0.4393456 0
-0.21780396 -0.0008225441 -0.41915154 0
-0.16444588 -0.099288464 -0.39703202 0
-0.063110352 -0.19504571 -0.38061833 0
0.033700943 -0.25017691 -0.37349653 0
0.027528763 -0.30331731 -0.36313748 0
0.11337471 -0.33600116 -0.35729861 0
0.20589447 -0.4353385 -0.34045362 0
-0.41745949 0.40996265 -0.52036476 0
-0.38349152 0.36733723 -0.50725865 0
-0.31768799 0.27653217 -0.48539472 0
-0.24471092 0.1991446 -0.46715164 0
-0.21135902 0.14260602 -0.44680357 0
0.33931541 -0.43193769 -0.35090756 0
-0.37053299 0.49249673 -0.54204106 0
-0.31002808 0.43500161 -0.52681184 0
-0.24528503 0.34165978 -0.50305772 0
-0.19005966 0.2787292 -0.48418045 0
-0.21274185 0.46577382 -0.53589678 0
-0.16446686 0.41131163 -0.5193224 0
-0.092370987 0.32785892 -0.50136662 0
-0.087364197 0.26566958 -0.48288584 0
0.58987427 -0.4391408 -0.37951565 0
0.56158257 -0.47928452 -0.36727405 0
-0.077522278 0.48587537 -0.54092121 0
-0.018362045 0.39500833 -0.52185059 0
0.59539795 -0.38112521 -0.39097166 0
0.019090652 0.45273542 -0.53161383 0
-0.032808304 -0.29035163 -0.35499048 0
0.15287781 -0.49803972 -0.32101679 0
-0.22536659 0.086900949 -0.4158442 0
-0.18743134 0.022156715 -0.38682961 0
-0.14027023 -0.068545818 -0.3649447 0
-0.075090408 -0.099905729 -0.34471536 0
0.065036774 -0.34288192 -0.34777403 0
0.14631844 -0.43743491 -0.32997036 0
-0.18249893 0.15380836 -0.42506695 0
-0.13075447 0.089259386 -0.37214971 0
-0.075878143 0.0043878555 -0.33406687 0
-0.043832779 -0.057940483 -0.31556726 0
0.051635742 -0.14930105 -0.33520722 0
0.12547493 -0.26864362 -0.37095642 0
0.21004105 -0.29745793 -0.36460209 0
0.21363258 -0.38615036 -0.35011005 0
0.30827713 -0.4589715 -0.34066248 0
-0.12908173 0.25600481 -0.47111607 0
-0.093847275 0.21039104 -0.42247653 0
-0.067539215 0.14829206 -0.39301896 0
0.35305405 -0.35280085 -0.3674469 0
-0.095169067 0.29929423 -0.47006917 0
-0.013755798 0.26733208 -0.430269 0
0.001953125 0.20250368 -0.37075639 0
-0.0064868927 0.37214041 -0.48781109 0
0.032846451 0.34318662 -0.44118738 0
0.065973282 0.4563942 -0.52090979 0
0.12099075 0.38862658 -0.45788646 0
0.18920135 0.44295597 -0.51007628 0
0.32441902 0.46384144 -0.52610874 0
0.40684128 0.40006995 -0.51345682 0
0.43144417 0.49213815 -0.52928257 0
0.49085808 0.43563294 -0.51483846 0
0.51042557 0.35919857 -0.5037818 0
0.61179733 0.32994294 -0.49441624 0
0.59534836 0.47453213 -0.5210886 0
0.5716362 0.42336726 -0.50535488 0
-0.071525574 0.073846102 -0.33037925 0
-0.033746719 0.029037476 -0.28530455 0
0.035327911 -0.051393509 -0.29101467 0
0.10479164 -0.11012244 -0.29605699 0
-0.017692566 0.1501205 -0.32709622 0
0.016750336 0.097642899 -0.27987766 0
0.11575317 -0.06259346 -0.2615304 0
0.018238068 0.30419636 -0.37311459 0
0.049247742 0.22152662 -0.32000875 0
0.07106781 0.15884328 -0.29209685 0
0.058952332 0.32918024 -0.37600541 0
0.11392975 0.29235148 -0.33232832 0
0.13842201 0.39463663 -0.40798521 0
0.14072227 0.35584521 -0.35596228 0
0.9166851 -0.19434619 0.74155807 0
0.93588257 -0.077679634 0.71808243 0
-0.85002422 -0.39073038 -0.31882 0
-0.83565617 -0.49455237 -0.30038881 0
-0.7722826 -0.38120413 -0.33181024 0
-0.74621677 -0.45787978 -0.3134923 0
-0.70604706 -0.26785612 -0.35829592 0
-0.68318844 -0.34681416 -0.34278035 0
-0.65463638 -0.43223 -0.32429528 0
-0.62523746 -0.1316576 -0.39064264 0
-0.61545658 -0.23056698 -0.36842847 0
-0.60570335 -0.3154161 -0.34787631 0
-0.54704285 -0.39212728 -0.33169103 0
-0.55038834 -0.036291122 -0.41738677 0
-0.55543327 -0.085841179 -0.40342212 0
-0.51889229 -0.17793131 -0.38077474 0
-0.4937191 -0.2770009 -0.3554616 0
-0.45586586 -0.38114738 -0.33315587 0
-0.40995026 -0.46700001 -0.31846738 0
-0.49904537 0.098547459 -0.44704652 0
-0.49012852 0.014845848 -0.42790246 0
-0.45084572 -0.069193363 -0.40845847 0
-0.42578888 -0.15289283 -0.38694978 0
-0.40585518 -0.23783088 -0.36630106 0
-0.3329277 -0.33950782 -0.34618211 0
-0.34511566 -0.4217329 -0.32396293 0
-0.44854164 0.24461889 -0.47929263 0
-0.42470169 0.15630913 -0.45976591 0
-0.41634178 0.059186459 -0.43907738 0
-0.34292603 -0.016833544 -0.41876388 0
-0.33452225 -0.10394907 -0.4016552 0
-0.30690575 -0.19843531 -0.37764692 0
-0.26493835 -0.29203558 -0.3512764 0
-0.22266006 -0.39634848 -0.32779503 0
-0.21715546 -0.4733758 -0.31134748 0
-0.39532471 0.37157249 -0.50727296 0
-0.37787628 0.2881279 -0.49152923 0
-0.33281708 0.19508648 -0.46902156 0
-0.31732178 0.10081768 -0.447294 0
-0.28594398 0.014825821 -0.42789173 0
-0.23421478 -0.080145597 -0.40290427 0
-0.22580719 -0.18536448 -0.37710404 0
-0.17056656 -0.26763344 -0.36062932 0
-0.12709999 -0.3481102 -0.34350538 0
-0.068092346 -0.43334603 -0.32547784 0
-0.35834122 0.49737668 -0.53845787 0
-0.30944252 0.40862942 -0.51933098 0
-0.28417778 0.32004213 -0.49579406 0
-0.25703812 0.21253848 -0.47023463 0
-0.22861862 0.1292727 -0.44435477 0
-0.22260475 0.028055429 -0.42520237 0
-0.16923904 -0.044483423 -0.4098959 0
-0.10770035 -0.15835476 -0.3863678 0
-0.087783813 -0.22440886 -0.37022781 0
-0.044139862 -0.30492949 -0.3546648 0
-0.034942627 -0.38044858 -0.33910322 0
-0.2232933 0.43907976 -0.5246017 0
-0.18441582 0.34840012 -0.50320888 0
-0.16853142 0.26593471 -0.48320007 0
-0.15882301 0.19373202 -0.46183038 0
0.036708832 -0.22895455 -0.37601519 0
0.086004257 -0.31386733 -0.36247921 0
0.064172745 -0.39243793 -0.33855128 0
-0.1168251 0.46190906 -0.5359869 0
-0.09066391 0.39335513 -0.51763988 0
-0.078121185 0.30995989 -0.49068284 0
0.13552856 -0.2567842 -0.37278748 0
0.19400406 -0.4500432 -0.33486581 0
-0.014835358 0.40427971 -0.52065134 0
0.035772324 0.32671499 -0.49643826 0
0.33688545 -0.44157267 -0.34628224 0
0.30914688 -0.49724936 -0.33301592 0
0.053195953 0.45223498 -0.53331184 0
0.36141586 -0.36268663 -0.36420536 0
0.57814789 -0.4466536 -0.37258101 0
0.60990906 -0.41179633 -0.38422298 0
-0.18689346 0.13000917 -0.41539049 0
-0.17162132 0.043132544 -0.39344597 0
-0.13131523 -0.050108671 -0.37308884 0
-0.10035896 -0.091671228 -0.36108375 0
-0.13580513 0.2408247 -0.4528966 0
-0.11112785 0.18008447 -0.41961002 0
-0.093732834 0.093174934 -0.36665463 0
-0.052764893 -0.01418066 -0.33715248 0
-0.051218033 -0.090171814 -0.34814286 0
-0.041133881 0.27631617 -0.46296716 0
-0.025508881 0.22787428 -0.4016583 0
0.016414642 0.15451241 -0.35758591 0
0.08694458 -0.13159919 -0.33154559 0
0.19971085 -0.33063793 -0.35547352 0
0.033525467 0.4038341 -0.50408602 0
0.037033081 0.32863069 -0.44355488 0
0.039281845 0.25991297 -0.38254118 0
0.2222023 -0.26912689 -0.36922169 0
0.098091125 0.45613265 -0.50899196 0
0.11630249 0.3946929 -0.45156288 0
0.1875248 0.4850347 -0.52313685 0
0.19639969 0.43178129 -0.47415614 0
0.30222893 0.44530129 -0.52615404 0
0.36582947 0.46876931 -0.52473927 0
0.45146942 0.36433244 -0.504704 0
0.49406433 0.49265122 -0.52697253 0
0.52420998 0.38223863 -0.51193166 0
0.56324196 0.32611251 -0.49715328 0
0.65306854 0.43216276 -0.51324964 0
-0.051801682 0.099244118 -0.31337357 0
-0.014247894 0.030863523 -0.2776351 0
0.022958755 0.21469808 -0.34189057 0
0.026247025 0.13298035 -0.2981112 0
0.021183014 0.083753347 -0.27687263 0
0.11881256 -0.058591604 -0.27948022 0
0.058549881 0.34551787 -0.37064815 0
0.085727692 0.25485706 -0.33086133 0
0.081510544 0.16818905 -0.28432631 0
0.13445854 0.3713696 -0.38105989 0
0.15309715 0.31359911 -0.34128785 0
0.20106888 0.38736653 -0.38725924 0
0.9164257 -0.10031414 0.72646642 0
0.99782181 -0.28333592 0.75943685 0
0.93321228 -0.02218461 0.70435214 0
-0.97332191 -0.49251294 -0.29287767 0
-0.9309473 -0.27838612 -0.34638476 0
-0.9203043 -0.34529018 -0.32986188 0
-0.86410427 -0.43878746 -0.31558275 0
-0.85280514 -0.22541785 -0.36516929 0
-0.81165314 -0.30030394 -0.34982395 0
-0.78067017 -0.39902449 -0.32900286 0
-0.76418495 -0.13181901 -0.39373589 0
-0.7497797 -0.18886375 -0.38164496 0
-0.73164845 -0.26396394 -0.36221004 0
-0.67127037 -0.3625052 -0.34048772 0
-0.66587925 -0.46637201 -0.31952453 0
-0.66779995 -0.0012893677 -0.42843747 0
-0.69534588 -0.066306591 -0.41187811 0
-0.65921497 -0.15300822 -0.38814378 0
-0.63672638 -0.25281215 -0.36429715 0
-0.58275032 -0.32715821 -0.34666204 0
-0.57117271 -0.43475986 -0.32439494 0
-0.6229744 0.078740835 -0.4476018 0
-0.60219955 -0.029134274 -0.42363811 0
-0.56548691 -0.13388824 -0.39638853 0
-0.52788925 -0.21854877 -0.37972212 0
-0.49964333 -0.30172062 -0.35701132 0
-0.4550705 -0.39064145 -0.33524156 0
-0.44367409 -0.47983003 -0.31644487 0
-0.57435799 0.1987226 -0.47319174 0
-0.53968525 0.098514557 -0.45258737 0
-0.51984501 0.010353327 -0.42842937 0
-0.47699547 -0.099032164 -0.40535259 0
-0.4271946 -0.17757249 -0.38519144 0
-0.41251183 -0.27476501 -0.36122131 0
-0.36397743 -0.36000419 -0.33941817 0
-0.34413338 -0.464535 -0.3168726 0
-0.51425457 0.37674785 -0.5109973 0
-0.50009537 0.30654001 -0.49753428 0
-0.48265934 0.22268486 -0.47880316 0
-0.45251846 0.12907076 -0.45833564 0
-0.42125893 0.057250738 -0.43768334 0
-0.38908386 -0.053096771 -0.41258383 0
-0.33434486 -0.14257145 -0.38938689 0
-0.31373596 -0.24865556 -0.36326981 0
-0.2646122 -0.32076311 -0.34716129 0
-0.25527191 -0.41232371 -0.32537675 0
-0.23527336 -0.49699545 -0.31230116 0
-0.45790863 0.44313955 -0.52773118 0
-0.43357277 0.35996151 -0.50558686 0
-0.38855362 0.24731994 -0.48251891 0
-0.35228348 0.15993595 -0.46204567 0
-0.3231411 0.080703974 -0.4430089 0
-0.29453659 -0.027785778 -0.41826463 0
-0.23443222 -0.11778998 -0.39498687 0
-0.22952461 -0.1967485 -0.37457991 0
-0.17357635 -0.27336788 -0.35413742 0
-0.17625237 -0.35812712 -0.3404007 0
-0.12598419 -0.47395754 -0.31602192 0
-0.36872673 0.47352552 -0.53520226 0
-0.3302002 0.38561082 -0.51277781 0
-0.30899239 0.27839971 -0.48851585 0
-0.25761795 0.20105743 -0.46523952 0
-0.24223137 0.10970116 -0.44678092 0
-0.22894478 -0.0054314137 -0.42037559 0
-0.16374016 -0.061628103 -0.40964746 0
-0.11683846 -0.17462635 -0.38599682 0
-0.10378838 -0.25703716 -0.3677268 0
-0.051868439 -0.3678174 -0.34353995 0
0.0095272064 -0.46330118 -0.32301617 0
-0.23868179 0.41876984 -0.5225625 0
-0.20622635 0.30489326 -0.49695396 0
-0.17692375 0.24986935 -0.47716451 0
-0.05006218 -0.16894412 -0.3906765 0
-0.0033683777 -0.25932121 -0.36860442 0
0.073360443 -0.39986682 -0.34279609 0
-0.12763786 0.44107771 -0.53076291 0
-0.09850502 0.35197973 -0.5044148 0
-0.10943222 0.27490306 -0.4961257 0
0.10430908 -0.27287674 -0.36818528 0
0.16897964 -0.44590068 -0.33522844 0
-0.041028976 0.47678137 -0.53777456 0
0.0038166046 0.39879918 -0.52084041 0
0.042943954 0.43911433 -0.52676129 0
0.41033363 -0.38887 -0.36801839 0
0.39088821 -0.47164965 -0.35066462 0
-0.21455765 0.18775678 -0.44007635 0
-0.20861626 0.11374617 -0.42323017 0
-0.18136597 0.032396555 -0.39436817 0
-0.1283474 -0.056005239 -0.36901069 0
-0.084037781 -0.1438942 -0.36175084 0
-0.15389252 0.22552633 -0.45071769 0
-0.12426186 0.14744377 -0.40137744 0
-0.10274506 0.080260038 -0.36067796 0
-0.062990189 -0.023431063 -0.33740997 0
-0.073625565 -0.091847897 -0.34840918 0
-0.041604996 0.26436734 -0.444309 0
-0.036247253 0.18714142 -0.40036607 0
0.10175133 -0.16202474 -0.33080292 0
0.18100357 -0.3584888 -0.35115623 0
0.0094661713 0.37397003 -0.47486782 0
0.026317596 0.30467892 -0.42643023 0
0.020401001 0.2235508 -0.38161492 0
0.2107811 -0.29911351 -0.36529303 0
0.087903976 0.41493464 -0.47831798 0
0.12529755 0.36989737 -0.44152689 0
0.17308044 0.45197034 -0.51600623 0
0.20588303 0.39396024 -0.45472097 0
0.28484917 0.48834014 -0.52763844 0
0.28922081 0.4253211 -0.51539803 0
0.38388252 0.45174646 -0.52295661 0
0.45516205 0.37470579 -0.50029397 0
0.48154449 0.45382905 -0.51989079 0
0.57999802 0.37812543 -0.50112319 0
0.55598068 0.31685829 -0.48464608 0
0.61342049 0.42787552 -0.51693773 0
-0.06684494 0.089575768 -0.30458331 0
-0.026590347 0.0080196857 -0.29179931 0
-0.0033226013 0.18860912 -0.33767319 0
0.0022335052 0.11725712 -0.29580474 0
-0.014852524 0.040134668 -0.26743388 0
0.093980789 -0.071673155 -0.28186035 0
0.046171188 0.2855444 -0.34821296 0
0.0753479 0.24097276 -0.32085443 0
0.059139252 0.15173936 -0.27676058 0
0.11760902 0.34945512 -0.36224651 0
0.12915611 0.31170225 -0.31863117 0
0.1939888 0.35707211 -0.36400223 0
0.91604042 -0.13229942 0.73078656 0
0.88985825 -0.1836524 0.74166393 0
0.94326401 -0.029570818 0.69808745 0
0.95290947 -0.095065594 0.72019076 0
-0.95532703 -0.42645717 -0.3099525 0
-0.94720554 -0.49633598 -0.28982973 0
-0.95377922 -0.10852838 -0.38036704 0
-0.96102238 -0.18880057 -0.36473298 0
-0.92235565 -0.30062389 -0.34095907 0
-0.8714838 -0.4055624 -0.31984401 0
-0.85523224 -0.47810006 -0.29941559 0
-0.88435364 -0.090872526 -0.39319777 0
-0.86931896 -0.15709615 -0.37726665 0
-0.82871342 -0.25291348 -0.35658979 0
-0.80960274 -0.36388016 -0.33225322 0
-0.74156475 -0.46251941 -0.31488371 0
-0.78225136 0.033707857 -0.42897344 0
-0.80280304 -0.044927359 -0.40899301 0
-0.76175404 -0.14310384 -0.38709426 0
-0.72539043 -0.2132566 -0.37235808 0
-0.69712925 -0.31638074 -0.34799004 0
-0.66759777 -0.40207124 -0.33124995 0
-0.73554993 0.076305628 -0.44347358 0
-0.69163036 -0.0051350594 -0.42530775 0
-0.66849136 -0.10617018 -0.39973712 0
-0.634161 -0.20828867 -0.37212253 0
-0.60943317 -0.27158046 -0.35724974 0
-0.56487179 -0.38332534 -0.33399868 0
-0.53730679 -0.48354793 -0.31698775 0
-0.65948772 0.17491364 -0.47013903 0
-0.64335823 0.10578561 -0.45158982 0
-0.62104702 0.02535367 -0.43233657 0
-0.56122112 -0.072550535 -0.41158938 0
-0.55980587 -0.14929557 -0.3866899 0
-0.49357128 -0.24848843 -0.36403966 0
-0.48103905 -0.33066177 -0.34145498 0
-0.42830658 -0.42456937 -0.32509303 0
-0.60671043 0.33505726 -0.50154281 0
-0.58282471 0.23727894 -0.48165131 0
-0.56079102 0.15122938 -0.4598875 0
-0.52941513 0.044897079 -0.43525815 0
-0.49998283 -0.021789074 -0.41543531 0
-0.4377346 -0.13278055 -0.38892221 0
-0.42972946 -0.21838188 -0.36874247 0
-0.38634682 -0.31148314 -0.34852958 0
-0.29413414 -0.40479517 -0.32949972 0
-0.3210392 -0.46564531 -0.31883645 0
-0.54345894 0.44822359 -0.52642298 0
-0.53714561 0.36359477 -0.50608516 0
-0.49301624 0.27892017 -0.48392892 0
-0.459095 0.17680216 -0.46292543 0
-0.43100166 0.081486702 -0.4408989 0
-0.39289284 -0.015924215 -0.41696334 0
-0.35804558 -0.090352774 -0.39781046 0
-0.32585144 -0.18744063 -0.37531948 0
-0.2899971 -0.27646422 -0.35279703 0
-0.24012947 -0.36801553 -0.33153605 0
-0.23496628 -0.48264718 -0.31253529 0
-0.47775459 0.49901557 -0.53430486 0
-0.43781757 0.39624047 -0.51376081 0
-0.39466858 0.30833888 -0.49405599 0
-0.34397125 0.21140695 -0.46777821 0
-0.3342762 0.12741518 -0.44988656 0
-0.31620026 0.035393715 -0.42742801 0
-0.25265884 -0.051990271 -0.40835571 0
-0.23633766 -0.14598298 -0.38538647 0
-0.18926811 -0.24803042 -0.36190152 0
-0.1876812 -0.31276059 -0.34242821 0
-0.093269348 -0.44745564 -0.32132244 0
-0.34612656 0.43999982 -0.52286363 0
-0.30957031 0.33340049 -0.49850464 0
-0.26350784 0.24809599 -0.47811818 0
-0.22499084 0.16889548 -0.45508409 0
-0.21704102 0.04343152 -0.4288528 0
-0.15407181 -0.10188437 -0.39527273 0
-0.10679436 -0.2124424 -0.37037683 0
-0.039190292 -0.31780505 -0.34894753 0
-0.06537056 -0.38246846 -0.33507895 0
0.010177612 -0.47798991 -0.31715012 0
-0.22596741 0.46321082 -0.53157401 0
-0.2069397 0.39027691 -0.51300859 0
-0.18539238 0.28912282 -0.48461056 0
-0.028421402 -0.16782331 -0.38971663 0
0.02182579 -0.27553749 -0.36502934 0
0.09412384 -0.36996651 -0.34608269 0
0.05973053 -0.4414475 -0.32991219 0
-0.13510704 0.48645759 -0.53946543 0
-0.11359215 0.40923309 -0.51867104 0
-0.081003189 0.33641267 -0.49461865 0
0.1060257 -0.24464774 -0.37542486 0
0.12222481 -0.29376912 -0.36251879 0
0.20458984 -0.47877097 -0.32736278 0
-0.040094376 0.43197989 -0.51756907 0
0.28361702 -0.30728769 -0.36763525 0
0.25824547 -0.39178872 -0.34932041 0
0.095062256 0.4855175 -0.53612852 0
0.53108215 -0.43545341 -0.3713541 0
0.52716827 -0.49985075 -0.36110163 0
0.58585358 -0.41107845 -0.38457823 0
-0.20624542 0.15000868 -0.42464113 0
-0.17573547 0.073963165 -0.3902247 0
-0.17203712 -0.02235198 -0.38611722 0
-0.15755272 0.26427913 -0.46140814 0
-0.12862206 0.2025106 -0.41411757 0
-0.11175156 0.12893128 -0.36369038 0
-0.092079163 0.020338297 -0.35346985 0
-0.045085907 -0.059022665 -0.35292053 0
0.026021957 -0.11722016 -0.36496878 0
-0.061832428 0.30752134 -0.45309949 0
-0.049835205 0.25008154 -0.39512753 0
0.20176506 -0.40030909 -0.33900571 0
0.010904312 0.42753577 -0.46999645 0
0.011955261 0.36105943 -0.44407988 0
0.078306198 0.4637599 -0.49023175 0
0.085142136 0.43363714 -0.43252134 0
0.16670609 0.49905276 -0.51040864 0
0.14836502 0.44199538 -0.44741154 0
0.33792305 0.46977472 -0.52308059 0
0.46075058 0.37203431 -0.50716805 0
0.524786 0.43613005 -0.51556683 0
0.54766273 0.35980225 -0.49778533 0
-0.062120438 0.12170029 -0.31145573 0
-0.044271469 0.070369482 -0.29434538 0
-0.0086326599 0.22840166 -0.33158112 0
-0.009054184 0.16033578 -0.29212141 0
0.0061702728 0.063450098 -0.28652596 0
0.025157928 0.38165355 -0.37985063 0
0.055381775 0.29446578 -0.34373832 0
0.061729431 0.21097398 -0.29630828 0
0.13006401 0.47852588 -0.42720294 0
0.10760117 0.41524196 -0.38275504 0
0.12351799 0.35261846 -0.34047747 0
0.85188484 0.0072116852 0.70387292 0
0.92885971 -0.21150351 0.74957347 0
0.96592331 -0.12063384 0.73201585 0
0.95485687 0.1023221 0.66184449 0
