# .PCD v0.7 - Point Cloud Data file format
VERSION 0.7
FIELDS x y z intensity
SIZE 4 4 4 4
TYPE F F F F
COUNT 1 1 1 1
WIDTH 1290
HEIGHT 1
VIEWPOINT 0 0 0 1 0 0 0
POINTS 1290
DATA ascii
0.77253842 0.3520813 -0.36473489 0
0.89983642 0.36637974 -0.36322856 0
0.9219687 0.3346014 -0.36757851 0
0.0849666 0.45898914 -0.36556172 0
0.15263647 0.46083355 -0.36597705 0
0.27118149 0.46483135 -0.36651683 0
0.34720975 0.46870613 -0.3649683 0
0.45223972 0.44918251 -0.36234355 0
0.59131843 0.44626141 -0.36292791 0
0.69585419 0.47961044 -0.36884975 0
0.78053862 0.47489929 -0.36427546 0
0.88440043 0.45389175 -0.36233044 0
0.99355209 0.46286297 -0.361449 0
-0.60806584 -0.42293167 -0.36756635 0
-0.52119958 -0.44851112 -0.37166834 0
-0.44167328 -0.45431423 -0.37093306 0
-0.33903229 -0.43266201 -0.37077141 0
-0.23073176 -0.43946171 -0.37019706 0
-0.11610591 -0.46149063 -0.36898184 0
0.014127195 -0.4164629 -0.3738122 0
0.049941152 -0.43963146 -0.36543775 0
0.15786299 -0.46085167 -0.37290144 0
-0.58922285 -0.30440998 -0.37142324 0
-0.52107614 -0.34619522 -0.37178683 0
-0.42863682 -0.34265995 -0.37031007 0
-0.32538566 -0.35499859 -0.37123942 0
-0.22184592 -0.35103989 -0.37091637 0
-0.10387063 -0.33021069 -0.37042356 0
-0.020387888 -0.34962177 -0.37112093 0
0.063987225 -0.34700775 -0.36843252 0
-0.59853864 -0.24039173 -0.36729574 0
-0.52659059 -0.24469948 -0.37052894 0
-0.42589402 -0.23507023 -0.371629 0
-0.32143214 -0.25022507 -0.37233424 0
-0.22239414 -0.2530117 -0.36980247 0
-0.13059491 -0.24273396 -0.36991167 0
-0.032335609 -0.24105358 -0.36922836 0
0.071255445 -0.25831985 -0.37019873 0
-0.59237361 -0.11433029 -0.36731577 0
-0.52878416 -0.14808559 -0.36969709 0
-0.42833486 -0.13219261 -0.37035108 0
-0.31825992 -0.14238167 -0.37178588 0
-0.22973868 -0.14251709 -0.36918378 0
-0.13831261 -0.12587547 -0.36830091 0
-0.030696392 -0.13411045 -0.37184072 0
0.071795762 -0.12031651 -0.37518215 0
-0.61265016 -0.051712036 -0.36182809 0
-0.51449859 -0.050167084 -0.36643767 0
-0.42844543 -0.046800613 -0.36847663 0
-0.33680698 -0.03574276 -0.36951399 0
-0.22134951 -0.037859917 -0.37004423 0
-0.11202437 -0.021901131 -0.36788154 0
-0.01347658 -0.047609329 -0.37255526 0
0.07589975 -0.032317162 -0.37321448 0
-0.60489738 0.062153816 -0.36265373 0
-0.5212146 0.047511101 -0.36533093 0
-0.41164398 0.046750069 -0.36751461 0
-0.30274099 0.063088417 -0.36742759 0
-0.2330538 0.055959702 -0.3694191 0
-0.11154139 0.056794167 -0.36948514 0
-0.0092473328 0.060531616 -0.37020564 0
0.076311648 0.073431969 -0.37524438 0
-0.6001817 0.15234947 -0.36237502 0
-0.51240939 0.15847492 -0.36451221 0
-0.42135334 0.14331913 -0.36409497 0
-0.31884363 0.1533165 -0.36772203 0
-0.21732011 0.15908623 -0.36868906 0
-0.12235716 0.15639305 -0.36922741 0
-0.031814992 0.17889977 -0.36801457 0
-0.62083304 0.25622463 -0.36169934 0
-0.53246903 0.26539516 -0.36360455 0
-0.4250274 0.25556087 -0.36555815 0
-0.32712772 0.25291538 -0.3644321 0
-0.24285936 0.24157143 -0.36574674 0
-0.14001286 0.27995968 -0.36749578 0
-0.05048877 0.24482536 -0.37320328 0
-0.62678719 0.35647678 -0.35959387 0
-0.50538695 0.33820152 -0.36307216 0
-0.4202393 0.35794735 -0.36513209 0
-0.31949151 0.36414814 -0.36661839 0
-0.22086126 0.35402298 -0.36788082 0
-0.11237803 0.38211727 -0.36707425 0
-0.033575028 0.35625648 -0.37355161 0
-0.68945491 0.45762634 -0.360816 0
-0.61145103 0.46312332 -0.36210275 0
-0.51400423 0.45860958 -0.36490726 0
-0.41537878 0.46634293 -0.3647368 0
-0.32397512 0.46869755 -0.36589098 0
-0.20701057 0.44262314 -0.36794233 0
-0.12371981 0.47818089 -0.36999655 0
-0.069099158 0.45058632 -0.36982393 0
0.12995738 -0.41532421 -0.36480188 0
0.14292628 -0.43785477 -0.36852002 0
0.26079643 -0.44699574 -0.36930394 0
0.37261963 -0.42745018 -0.36799502 0
0.49764955 -0.43634796 -0.36534119 0
0.61559337 -0.43213558 -0.36662388 0
0.74938142 -0.44369984 -0.36988831 0
0.88180715 -0.44138336 -0.37364531 0
0.19767836 -0.33094311 -0.36900115 0
0.31019676 -0.3542347 -0.36639452 0
0.40508947 -0.31840611 -0.3692162 0
0.49504986 -0.33237362 -0.36512852 0
0.61031985 -0.30534458 -0.36627054 0
0.64614588 -0.31565094 -0.37519336 0
0.75798452 -0.3163681 -0.37327695 0
0.87389714 -0.33130074 -0.37296104 0
0.17751285 -0.25024319 -0.36967874 0
0.31204104 -0.22066975 -0.36748219 0
0.37702942 -0.23396397 -0.36971641 0
0.49644107 -0.23462391 -0.36638856 0
0.61268163 -0.19728851 -0.36818862 0
0.68459129 -0.24195385 -0.37068224 0
0.86015618 -0.2323904 -0.37100267 0
0.12602177 -0.093595505 -0.36518168 0
0.17273995 -0.15161419 -0.36778736 0
0.2867606 -0.16498566 -0.36905766 0
0.38453284 -0.15863895 -0.36547542 0
0.48544973 -0.12174225 -0.36525035 0
0.61747146 -0.13576317 -0.37031484 0
0.74939853 -0.16497231 -0.37323475 0
0.85050535 -0.12673187 -0.37060404 0
0.051531762 0.00050258636 -0.3679049 0
0.19492206 -0.039701462 -0.36769009 0
0.30525649 -0.063894272 -0.36785483 0
0.39430398 -0.050855637 -0.36956072 0
0.49858809 -0.0021543503 -0.37064886 0
0.60209358 -0.047481537 -0.36831903 0
0.72553319 -0.024311066 -0.3703177 0
0.78898793 -0.044616699 -0.37142491 0
0.86940402 -0.013451576 -0.37751937 0
0.023054689 0.099443436 -0.36350846 0
0.10024178 0.079508781 -0.36716151 0
0.17852607 0.031038284 -0.37007499 0
0.30871454 0.057079315 -0.37111282 0
0.37908947 0.053839684 -0.3681767 0
0.49057373 0.089530945 -0.37089133 0
0.59020352 0.076618195 -0.36840749 0
0.71437937 0.075194359 -0.37016082 0
0.84106505 0.07430172 -0.3731215 0
0.081420094 0.16479397 -0.36662722 0
0.20490679 0.17637253 -0.37026501 0
0.2697143 0.14020443 -0.37084723 0
0.3754743 0.16848278 -0.37031651 0
0.46707329 0.17014885 -0.36770749 0
0.58006865 0.17600822 -0.36883521 0
0.7102958 0.18821716 -0.37242079 0
0.81567943 0.16315174 -0.36993432 0
0.98139834 0.15309238 -0.37533736 0
0.018705755 0.2481432 -0.36702394 0
0.089648753 0.25333595 -0.37123871 0
0.1668705 0.27100277 -0.36481023 0
0.27796635 0.23836136 -0.36906099 0
0.35720149 0.27986526 -0.36971879 0
0.44969031 0.25227261 -0.36636281 0
0.56300151 0.26597118 -0.36780548 0
0.6824894 0.28117371 -0.36915731 0
0.79053187 0.29642963 -0.36867428 0
0.94786078 0.24908257 -0.37099695 0
0.003819555 0.33985329 -0.36716127 0
0.07541883 0.36728954 -0.37078977 0
0.19722053 0.38870621 -0.36636043 0
0.29629228 0.36643791 -0.37032318 0
0.41960284 0.40942669 -0.36549544 0
0.48290658 0.36975193 -0.36979342 0
0.55385864 0.33336163 -0.36809516 0
0.65899539 0.37342548 -0.36723018 0
0.76518619 0.36604023 -0.36561441 0
0.0031698644 0.4578495 -0.37184262 0
0.075840741 0.46270657 -0.37060809 0
0.18459949 0.46652412 -0.36877608 0
0.3136963 0.49592209 -0.36864376 0
0.38343731 0.47181129 -0.36771441 0
0.50733894 0.4825983 -0.36389852 0
0.54885584 0.4432745 -0.3711226 0
0.64683926 0.44736004 -0.36742473 0
0.77400708 0.46902084 -0.37143612 0
0.92389035 0.36066914 -0.36970854 0
0.89312792 0.46604824 -0.36713409 0
0.59023559 -0.488904 -0.37371945 0
0.90044522 -0.49951649 -0.37446475 0
-0.45968476 -0.43064308 -0.37256908 0
-0.37664863 -0.4022541 -0.36815262 0
-0.27121639 -0.45034504 -0.36808681 0
-0.14999756 -0.402174 -0.36967683 0
-0.053674877 -0.4215374 -0.36790967 0
0.05040139 -0.40169716 -0.37182617 0
0.12012008 -0.43922997 -0.36878991 0
0.23909661 -0.40621758 -0.37078929 0
0.35767907 -0.41690922 -0.37307429 0
0.467704 -0.41238117 -0.37003326 0
0.57652402 -0.44089127 -0.3677628 0
0.73947644 -0.42599583 -0.37151957 0
0.90550303 -0.42188263 -0.37298083 0
-0.47446114 -0.32592964 -0.36854315 0
-0.36942983 -0.3196497 -0.37190652 0
-0.28137708 -0.33391857 -0.37137747 0
-0.20129427 -0.3434782 -0.37003255 0
-0.073163152 -0.30652905 -0.36976457 0
0.044098675 -0.32444954 -0.3665247 0
0.1439878 -0.3217802 -0.37106609 0
0.24508658 -0.32791519 -0.36952472 0
0.36213881 -0.35336113 -0.37186408 0
0.45315897 -0.33665085 -0.3632915 0
0.61671448 -0.31926727 -0.37626004 0
0.74407071 -0.32354736 -0.37013531 0
0.92074531 -0.33083248 -0.37506318 0
-0.4568176 -0.22434521 -0.3697865 0
-0.37087214 -0.23566341 -0.36803961 0
-0.26826984 -0.22032356 -0.37102818 0
-0.19191036 -0.21916962 -0.36843491 0
-0.069231123 -0.22025776 -0.368258 0
0.037788182 -0.21895981 -0.37018585 0
0.15475729 -0.2145834 -0.37107468 0
0.24404529 -0.22639275 -0.36628366 0
0.35876405 -0.23454285 -0.36729836 0
0.43140852 -0.21758842 -0.37125897 0
0.48533511 -0.23692989 -0.37018514 0
0.621683 -0.21753502 -0.37509179 0
0.76408976 -0.20256901 -0.37327099 0
0.93717462 -0.20408249 -0.37703967 0
-0.44544095 -0.13331127 -0.37075353 0
-0.36560711 -0.10902214 -0.36961889 0
-0.27559933 -0.12613678 -0.36979222 0
-0.17025059 -0.091480255 -0.37209773 0
-0.078236282 -0.12051392 -0.36971688 0
0.0174779 -0.15100193 -0.36713362 0
0.13154006 -0.10567856 -0.3704927 0
0.25944677 -0.12673187 -0.36894727 0
0.37361816 -0.13146973 -0.36970305 0
0.48564732 -0.099030495 -0.36813331 0
0.60988104 -0.1147089 -0.37021208 0
0.75084949 -0.11791897 -0.36850786 0
0.91768765 -0.12449646 -0.37056923 0
-0.45657092 -0.032073975 -0.36636853 0
-0.35911757 -0.037979126 -0.36909604 0
-0.27060351 -0.016041756 -0.37018514 0
-0.19159999 -0.026294708 -0.36599922 0
-0.09687826 -0.013400078 -0.36953878 0
0.01352033 -0.019310951 -0.36744261 0
0.12947565 -0.011228561 -0.36939359 0
0.23454621 -0.024985313 -0.36869574 0
0.37493855 -0.062785149 -0.36938977 0
0.38050565 -0.0093717575 -0.37066388 0
0.48887739 0.002781868 -0.36856675 0
0.59402591 -0.0099458694 -0.36543894 0
0.7626034 -0.023100853 -0.37116933 0
0.93099916 0.006072998 -0.37364793 0
-0.46071449 0.085524559 -0.36536479 0
-0.37873432 0.063401222 -0.36625218 0
-0.27611494 0.072790146 -0.36767101 0
-0.16240445 0.10554981 -0.37397361 0
-0.065449744 0.10820866 -0.37103558 0
0.01935643 0.083992004 -0.370785 0
0.12664801 0.098008156 -0.36903906 0
0.25648528 0.089167595 -0.36778426 0
0.37275872 0.053163528 -0.36872149 0
0.38094094 0.13055229 -0.37130761 0
0.47974518 0.061562538 -0.36632514 0
0.62234473 0.10175514 -0.37314081 0
0.75295174 0.099504471 -0.3690927 0
0.79164636 0.072555542 -0.3788631 0
0.9342494 0.11843872 -0.37495136 0
-0.46385521 0.19240761 -0.36594915 0
-0.38038141 0.18516541 -0.3663826 0
-0.27000248 0.17907906 -0.37144017 0
-0.18275541 0.16381359 -0.36953402 0
-0.092796326 0.1728754 -0.37192297 0
-0.022617459 0.20003891 -0.3692379 0
0.11044121 0.1770916 -0.36950254 0
0.24690634 0.17623425 -0.36643267 0
0.33975738 0.18234634 -0.3618319 0
0.38261175 0.18092823 -0.37228775 0
0.4921197 0.18555641 -0.37070274 0
0.61228704 0.16983986 -0.37132406 0
0.7718662 0.21907616 -0.37531948 0
0.93242931 0.21473789 -0.37580585 0
-0.48864162 0.25518703 -0.36167312 0
-0.36608332 0.26998234 -0.36631918 0
-0.26762882 0.27133942 -0.36759138 0
-0.18724006 0.27941895 -0.36715436 0
-0.075108826 0.27435589 -0.37025642 0
0.060335368 0.27002716 -0.36950731 0
0.14922249 0.27497768 -0.37054873 0
0.25210348 0.27787399 -0.36961579 0
0.34971845 0.27244377 -0.36598039 0
0.46580726 0.28454304 -0.36603904 0
0.59236658 0.29461098 -0.36878681 0
0.75432992 0.28776741 -0.37246633 0
0.91058332 0.29097843 -0.37211084 0
-0.5329634 0.41656399 -0.3581984 0
-0.50390482 0.3535099 -0.36172032 0
-0.38212556 0.37740135 -0.36670947 0
-0.27064773 0.38923454 -0.36692524 0
-0.1738717 0.38602829 -0.36796951 0
-0.051716238 0.37081814 -0.36706471 0
0.058073431 0.38628006 -0.37218595 0
0.12183642 0.36394596 -0.36670113 0
0.24532482 0.3745966 -0.37052178 0
0.35797003 0.41347313 -0.37152338 0
0.43728915 0.39402294 -0.37119174 0
0.56590831 0.37028885 -0.36432719 0
0.72689778 0.38401699 -0.36837935 0
0.8948167 0.37403393 -0.37042141 0
-0.53806484 0.49645138 -0.36099529 0
-0.46702462 0.46879768 -0.36337852 0
-0.35801286 0.49825001 -0.36610341 0
-0.2710816 0.48332691 -0.36559081 0
-0.16304997 0.49573326 -0.3658936 0
-0.079470217 0.48214817 -0.3711288 0
0.0254426 0.4674139 -0.36795425 0
0.12191132 0.49289513 -0.37113953 0
0.21685624 0.46926117 -0.36729836 0
0.33526796 0.47140598 -0.36833382 0
0.45713145 0.49167824 -0.3698256 0
0.58876026 0.48839664 -0.37296319 0
0.69212097 0.45953941 -0.36253214 0
0.84669518 0.48400211 -0.36276698 0
0.90856481 0.45855427 -0.3759408 0
-0.53092426 -0.43002033 -0.36976719 0
-0.43093568 -0.42801666 -0.36798882 0
-0.34036741 -0.41605854 -0.36362553 0
-0.26147065 -0.40820885 -0.36543417 0
-0.14201137 -0.41150188 -0.36502647 0
-0.080271274 -0.46088123 -0.36651635 0
0.029912859 -0.44276142 -0.36371326 0
0.15180558 -0.43094921 -0.36561394 0
0.28547266 -0.40255642 -0.35721993 0
0.32649517 -0.41164207 -0.3663168 0
0.4525058 -0.40972042 -0.36738682 0
0.56507397 -0.42580128 -0.36501765 0
0.73945624 -0.41153908 -0.37072468 0
0.89868116 -0.41679382 -0.36978674 0
-0.53935879 -0.33173656 -0.36743069 0
-0.44575596 -0.3262701 -0.36645794 0
-0.36706215 -0.3180418 -0.36519313 0
-0.21554986 -0.32257175 -0.36228395 0
-0.043356955 -0.29498482 -0.36728168 0
0.060722083 -0.32698441 -0.36790848 0
0.18109426 -0.33774662 -0.36181545 0
0.29489434 -0.27838993 -0.36339355 0
0.30719557 -0.31418991 -0.36488485 0
0.40987238 -0.32733345 -0.36066961 0
0.55019128 -0.30895805 -0.3660419 0
0.68177664 -0.33336639 -0.36144829 0
0.86607194 -0.33843708 -0.36631274 0
-0.53837574 -0.22288895 -0.36863899 0
-0.45924225 -0.23314285 -0.36448789 0
-0.32339996 -0.20580292 -0.36272383 0
-0.24310896 -0.23093891 -0.36484432 0
-0.10223007 -0.25167561 -0.36528254 0
-0.029818267 -0.23939228 -0.36158609 0
0.059828579 -0.22789288 -0.36269736 0
0.15929157 -0.2524395 -0.35972285 0
0.30077416 -0.21323681 -0.36706996 0
0.37137127 -0.2169323 -0.3567183 0
0.40710589 -0.23873806 -0.36340737 0
0.51065505 -0.21705627 -0.36141753 0
0.67861992 -0.2260294 -0.3655417 0
0.86493945 -0.22426701 -0.37139797 0
-0.55075169 -0.14620209 -0.36281729 0
-0.43069777 -0.12507725 -0.36803913 0
-0.35314554 -0.13991928 -0.36574578 0
-0.23820233 -0.11936569 -0.36276579 0
-0.11349535 -0.11901093 -0.36695409 0
-0.045193046 -0.1400528 -0.36816168 0
0.042796999 -0.11029339 -0.36341953 0
0.17026091 -0.12688923 -0.36688638 0
0.27445775 -0.14954472 -0.36401558 0
0.37332559 -0.11986065 -0.36146259 0
0.48837271 -0.079862595 -0.36320472 0
0.50600088 -0.13237 -0.36428046 0
0.6456207 -0.12499619 -0.36364198 0
0.79883397 -0.11653614 -0.36353517 0
0.83128345 -0.14128876 -0.36870837 0
0.99847221 -0.096195221 -0.3707602 0
-0.60691023 0.0062503815 -0.35761762 0
-0.54889965 -0.031780243 -0.3623414 0
-0.44504079 -0.042329788 -0.36332273 0
-0.33671579 -0.040301323 -0.36499238 0
-0.25390065 -0.049705505 -0.36643171 0
-0.13169953 -0.014885902 -0.36718369 0
-0.04912138 -0.02553463 -0.36551547 0
0.033562273 0.013018608 -0.36685181 0
0.12934849 -0.035479546 -0.36236501 0
0.26270321 -0.042592049 -0.36635232 0
0.35821971 -0.0099973679 -0.36372542 0
0.47023064 0.0029001236 -0.36381507 0
0.6178425 -0.0027637482 -0.36453319 0
0.78267181 -0.010396957 -0.36622524 0
0.97924364 -0.032118797 -0.37062383 0
-0.62647438 0.11862469 -0.35742211 0
-0.56482577 0.084959984 -0.36135888 0
-0.4555065 0.06112957 -0.3618629 0
-0.33725497 0.075922012 -0.36568809 0
-0.22930408 0.075540543 -0.36392474 0
-0.15365678 0.089917183 -0.36741114 0
-0.059954852 0.078559875 -0.36250257 0
0.0031080842 0.066296577 -0.36327338 0
0.11803505 0.10030651 -0.36682916 0
0.23992351 0.083357811 -0.36809516 0
0.33930612 0.097403526 -0.36569524 0
0.44132012 0.075454712 -0.36209202 0
0.58277667 0.063432693 -0.36142206 0
0.77502227 0.10104752 -0.37122869 0
0.96176541 0.066699982 -0.37316012 0
-0.63429546 0.19193459 -0.35924125 0
-0.57446384 0.16028976 -0.35714078 0
-0.45608428 0.1597929 -0.36044669 0
-0.34264624 0.18050098 -0.36185002 0
-0.24907669 0.17548752 -0.36317015 0
-0.14528993 0.18435955 -0.3650198 0
-0.028007716 0.18221283 -0.36881971 0
0.087358087 0.20869541 -0.36688638 0
0.16175318 0.17814732 -0.36528945 0
0.28469726 0.19453621 -0.3608582 0
0.32503733 0.1842041 -0.36788797 0
0.44286191 0.17326164 -0.36807394 0
0.56650913 0.1468029 -0.36325216 0
0.7356751 0.1697979 -0.36802626 0
0.89533651 0.20587063 -0.36952543 0
0.9305979 0.16581631 -0.37347317 0
-0.6330862 0.26859379 -0.3562386 0
-0.54752743 0.25792694 -0.35916066 0
-0.46908641 0.2565937 -0.36079574 0
-0.35539874 0.26486397 -0.35856009 0
-0.22850031 0.2958765 -0.36340022 0
-0.14399087 0.26686859 -0.36573696 0
-0.048485458 0.28184795 -0.3653872 0
0.06821081 0.27843189 -0.36746001 0
0.16124621 0.27114391 -0.36385775 0
0.25816998 0.2659502 -0.36038542 0
0.39831159 0.2930479 -0.36715674 0
0.41397339 0.24404144 -0.36693764 0
0.54294038 0.27683449 -0.36692524 0
0.6849466 0.2734642 -0.36524177 0
0.85677743 0.28792667 -0.36799502 0
-0.65897948 0.36242485 -0.35822701 0
-0.5564537 0.3598547 -0.35959458 0
-0.45256385 0.36317921 -0.36111403 0
-0.34178406 0.38263035 -0.35775757 0
-0.24162588 0.36353588 -0.3651371 0
-0.16717678 0.38786507 -0.36499119 0
-0.083715051 0.38337135 -0.36521888 0
0.042843461 0.36910343 -0.36855698 0
0.14148605 0.37198734 -0.36677051 0
0.24081802 0.37626553 -0.36450338 0
0.35574868 0.38431549 -0.36555266 0
0.47427937 0.38161564 -0.36157131 0
0.52943754 0.36839581 -0.3705318 0
0.63128614 0.37791729 -0.36265326 0
0.80536336 0.3581543 -0.36359859 0
-0.73956513 0.4784317 -0.35713172 0
-0.66321063 0.46839428 -0.35886621 0
-0.53612715 0.47556114 -0.36124778 0
-0.43887103 0.47421169 -0.36164451 0
-0.35096124 0.47862625 -0.36261606 0
-0.25127274 0.46923351 -0.36141419 0
-0.13118508 0.45012856 -0.36117792 0
-0.027305484 0.46878147 -0.36287308 0
0.023524851 0.43212605 -0.36929679 0
0.13577864 0.46656036 -0.36557126 0
0.25547445 0.44468594 -0.36190677 0
0.45513859 0.46868992 -0.36443281 0
0.62426078 0.48912716 -0.36939883 0
0.76603305 0.40217876 -0.35978913 0
0.97126061 0.4046402 -0.36839986 0
0.93831265 0.46109676 -0.36681509 0
-0.11303031 -0.49580097 -0.36389327 0
0.90889084 -0.48691082 -0.36741638 0
-0.87580913 -0.44227219 -0.35501122 0
-0.79562008 -0.42415905 -0.3579495 0
-0.70474631 -0.42831135 -0.35776353 0
-0.59345031 -0.42314053 -0.3627398 0
-0.49125332 -0.4221983 -0.36111546 0
-0.40619197 -0.42331314 -0.36078525 0
-0.29642978 -0.41392326 -0.3660655 0
-0.21787935 -0.40323544 -0.36360383 0
-0.11391234 -0.40414047 -0.36209464 0
-0.0055047274 -0.43527603 -0.36074853 0
0.11283851 -0.43017483 -0.36057138 0
0.22563183 -0.44247723 -0.35925126 0
0.34652638 -0.43153954 -0.35249591 0
0.52864987 -0.41393661 -0.35840845 0
0.74275541 -0.35984325 -0.36926603 0
0.89552164 -0.39940357 -0.36449003 0
-0.87270439 -0.32485771 -0.35198021 0
-0.81588066 -0.33477783 -0.35714364 0
-0.7153616 -0.338624 -0.35906506 0
-0.61761844 -0.34982586 -0.36073112 0
-0.50405216 -0.31448746 -0.36339951 0
-0.39909372 -0.33900833 -0.36140919 0
-0.30519968 -0.32632637 -0.36240673 0
-0.23274222 -0.33840466 -0.35877419 0
-0.12077898 -0.30587387 -0.35960245 0
0.018399805 -0.31175232 -0.3663311 0
0.10857311 -0.30918694 -0.35901618 0
0.22644326 -0.30593586 -0.35931396 0
0.25111878 -0.35637093 -0.36570907 0
0.38354588 -0.30887032 -0.36238623 0
0.53948486 -0.29832935 -0.36205006 0
0.69638264 -0.32486629 -0.35802984 0
0.87312484 -0.32276821 -0.35988951 0
-0.85851979 -0.24319363 -0.3545301 0
-0.77493632 -0.20755672 -0.35900855 0
-0.71261334 -0.2338829 -0.35823679 0
-0.6137706 -0.21453381 -0.36273217 0
-0.51575017 -0.23992538 -0.3670435 0
-0.41217765 -0.22072506 -0.36292148 0
-0.28959125 -0.19987392 -0.36607385 0
-0.22524497 -0.21842289 -0.36067009 0
-0.12501451 -0.2167387 -0.35863924 0
0.015631288 -0.21525478 -0.36569762 0
0.12233582 -0.21730328 -0.36294055 0
0.23090991 -0.19564533 -0.36124825 0
0.36862493 -0.21662331 -0.3593688 0
0.52787519 -0.22411442 -0.35997725 0
0.71505594 -0.20230865 -0.36426783 0
0.88670361 -0.20472813 -0.36503434 0
-0.88013232 -0.13072014 -0.34786463 0
-0.82375503 -0.14610577 -0.35422111 0
-0.70927906 -0.13694286 -0.35859656 0
-0.65473735 -0.15245724 -0.35528445 0
-0.50982618 -0.13254261 -0.36271143 0
-0.39275581 -0.12399864 -0.36286139 0
-0.29801574 -0.12131023 -0.36438251 0
-0.20393047 -0.076920509 -0.36711764 0
-0.10796034 -0.12272072 -0.36377168 0
0.012154818 -0.11932945 -0.3656497 0
0.11030006 -0.15024185 -0.36062598 0
0.20470423 -0.14105892 -0.35551834 0
0.37366048 -0.11889267 -0.36196661 0
0.5142349 -0.11553097 -0.35850406 0
0.71094334 -0.10743332 -0.36505079 0
0.8758589 -0.11225128 -0.36438465 0
-0.86943519 -0.065069199 -0.35088611 0
-0.80542541 -0.019577026 -0.35454321 0
-0.72922981 -0.059087753 -0.35383797 0
-0.63242579 -0.030866623 -0.35842252 0
-0.5181247 -0.035528183 -0.36343646 0
-0.41415805 -0.030282974 -0.35874701 0
-0.30438343 -0.040793419 -0.36384583 0
-0.21160752 -0.016983032 -0.36620975 0
-0.10838684 -0.027323723 -0.36510086 0
-0.018169224 -0.050936699 -0.35938311 0
0.10608608 -0.023377419 -0.3618176 0
0.21416292 -0.045148849 -0.35959077 0
0.35550839 -0.024751663 -0.35958076 0
0.52177036 0.015028954 -0.3632648 0
0.69363368 0.0077953339 -0.3637805 0
0.85160726 -0.0013141632 -0.36160684 0
-0.87901443 0.089079857 -0.35141087 0
-0.82735062 0.08412838 -0.35429168 0
-0.71186167 0.070719719 -0.35468626 0
-0.58898681 0.066791534 -0.35764432 0
-0.51214045 0.033072472 -0.35625219 0
-0.41490823 0.088383675 -0.36088943 0
-0.31749737 0.075186729 -0.36299372 0
-0.23094925 0.061307907 -0.36326647 0
-0.12247956 0.086122513 -0.36436558 0
-0.018517703 0.075838089 -0.36225438 0
0.10914284 0.09330368 -0.36529446 0
0.22411418 0.081173897 -0.3649435 0
0.33275378 0.13196373 -0.3586483 0
0.37007228 0.1144495 -0.36651349 0
0.5118556 0.10904884 -0.36362815 0
0.66741687 0.11874104 -0.36116099 0
0.86691862 0.13690472 -0.36930323 0
-0.89895725 0.1760807 -0.34952784 0
-0.81250679 0.19417477 -0.35147929 0
-0.70288652 0.18145561 -0.35479712 0
-0.60430431 0.17006111 -0.35661817 0
-0.51156265 0.15157127 -0.35924482 0
-0.42844397 0.18387985 -0.35557747 0
-0.3255454 0.15324688 -0.35682845 0
-0.24556789 0.17878628 -0.36313367 0
-0.15126902 0.18685722 -0.36080122 0
-0.038862914 0.18925667 -0.36111355 0
0.082910776 0.17525196 -0.36192417 0
0.19822153 0.16991043 -0.36178041 0
0.31298813 0.18135738 -0.35592818 0
0.49147296 0.18395615 -0.36154485 0
0.65253234 0.20821095 -0.36116743 0
0.82093793 0.24296856 -0.36343908 0
0.84411252 0.17626762 -0.36575341 0
-0.90241414 0.28699398 -0.35303473 0
-0.82645887 0.28881931 -0.35216928 0
-0.71536386 0.29846096 -0.35531092 0
-0.62536836 0.27108765 -0.35570955 0
-0.52278137 0.27898788 -0.35743523 0
-0.40132418 0.29422951 -0.357656 0
-0.28484449 0.28862095 -0.35840726 0
-0.20111093 0.28404331 -0.35927057 0
-0.034524649 0.29804325 -0.35784268 0
0.058745295 0.29686165 -0.36111832 0
0.18720564 0.27736187 -0.36320806 0
0.31306216 0.30340576 -0.3605516 0
0.343786 0.2780323 -0.36615229 0
0.47031078 0.29221725 -0.36095452 0
0.63099432 0.25592804 -0.35844994 0
0.78637576 0.31915283 -0.3594439 0
-0.93550992 0.37443638 -0.35003877 0
-0.8213203 0.36182022 -0.35189414 0
-0.69973242 0.39558315 -0.35271192 0
-0.60419679 0.36990738 -0.35331106 0
-0.47678789 0.3872261 -0.3580246 0
-0.40018421 0.38569546 -0.35589147 0
-0.30917785 0.38312435 -0.36170697 0
-0.18933317 0.39303684 -0.36082816 0
-0.074173182 0.37989521 -0.36111164 0
0.052854806 0.43538761 -0.36589384 0
0.16638535 0.37269211 -0.36270785 0
0.30492407 0.39130783 -0.36257219 0
0.43234497 0.41298676 -0.35809875 0
0.46308252 0.37906456 -0.36299706 0
0.61518848 0.38139534 -0.36034608 0
0.63775355 0.34603214 -0.36359406 0
0.75624526 0.39578056 -0.35669255 0
-0.97904438 0.47779465 -0.34616613 0
-0.90676636 0.46821499 -0.35172915 0
-0.82458586 0.46404648 -0.35432816 0
-0.70563221 0.48565769 -0.35622382 0
-0.59503603 0.48214149 -0.35550356 0
-0.52073586 0.4628582 -0.35292792 0
-0.3863923 0.47953129 -0.36325097 0
-0.32702199 0.48185539 -0.35861468 0
-0.20966059 0.48468113 -0.36114764 0
-0.095859885 0.46781158 -0.36082458 0
0.08416456 0.48637295 -0.36295915 0
0.15885237 0.45828247 -0.36503673 0
0.28100175 0.49415874 -0.36244869 0
0.41309506 0.4626112 -0.35647273 0
0.60081565 0.48275089 -0.36199307 0
0.96897483 0.42788315 -0.35845971 0
0.95331776 0.49782372 -0.35882401 0
-0.27339587 -0.48616505 -0.37125921 0
0.11997321 -0.49198151 -0.37605119 0
-0.92394006 -0.4018898 -0.36878276 0
-0.83475792 -0.43104267 -0.36719513 0
-0.73534524 -0.43245125 -0.37371087 0
-0.61163825 -0.41172981 -0.37489295 0
-0.5148952 -0.43311119 -0.37535954 0
-0.3729077 -0.4063406 -0.37031484 0
-0.35682601 -0.42509079 -0.37614536 0
-0.26023802 -0.41117001 -0.37210846 0
-0.15013847 -0.43304062 -0.37422466 0
-0.0034435093 -0.4109602 -0.37803984 0
0.12518752 -0.39467716 -0.37391186 0
-0.92262381 -0.32982826 -0.36550617 0
-0.81538713 -0.31877613 -0.36790466 0
-0.73630273 -0.34043026 -0.36885476 0
-0.64893776 -0.32629013 -0.36958456 0
-0.55712795 -0.32044315 -0.37297416 0
-0.44301984 -0.3326931 -0.3779223 0
-0.35147274 -0.32017708 -0.37380219 0
-0.24070463 -0.30911064 -0.37456512 0
-0.12510556 -0.31810093 -0.37771487 0
0.00079503655 -0.3169384 -0.37622523 0
-0.92718083 -0.21903324 -0.36329746 0
-0.81485629 -0.23667145 -0.36529922 0
-0.72392774 -0.22062683 -0.36874628 0
-0.6284427 -0.20677471 -0.37223434 0
-0.53685021 -0.2161808 -0.3760972 0
-0.4435195 -0.23683167 -0.37489223 0
-0.34383312 -0.23193645 -0.37366295 0
-0.2177985 -0.1934042 -0.37830949 0
-0.11863536 -0.19911289 -0.37667322 0
0.0092465281 -0.19162273 -0.37572098 0
-0.90435296 -0.11253643 -0.36573839 0
-0.79542232 -0.11619091 -0.36834121 0
-0.71020293 -0.10687542 -0.37046909 0
-0.63112861 -0.10921097 -0.36991262 0
-0.54289186 -0.12089729 -0.37276483 0
-0.44069579 -0.10823917 -0.37355757 0
-0.33451137 -0.11298656 -0.37432981 0
-0.2270081 -0.11497879 -0.3745575 0
-0.12870941 -0.098231316 -0.37241244 0
0.0021549165 -0.10060883 -0.37253237 0
0.15664014 -0.060391426 -0.37627769 0
-0.91378582 -0.027070045 -0.36397696 0
-0.78808296 -0.013447762 -0.36921763 0
-0.70953488 -0.0063848495 -0.36980534 0
-0.63819009 -0.0099773407 -0.36733723 0
-0.54208529 -0.0072612762 -0.37221289 0
-0.45732564 -0.01232338 -0.36862159 0
-0.31179243 0.010101318 -0.37963343 0
-0.20299238 0.0033683777 -0.38011551 0
-0.12754238 8.2969666e-05 -0.37222505 0
0.013630211 0.015440941 -0.375 0
-0.91977477 0.069286346 -0.36373663 0
-0.80657345 0.081473351 -0.36460423 0
-0.72872472 0.077559471 -0.36486149 0
-0.61392522 0.085616112 -0.36714125 0
-0.54540187 0.078249931 -0.37140536 0
-0.44899088 0.094480515 -0.37108588 0
-0.34363016 0.067390442 -0.37156796 0
-0.21850166 0.081940651 -0.37623501 0
-0.13036177 0.098282814 -0.3717773 0
0.024022341 0.10248089 -0.37779117 0
-0.92160153 0.17383003 -0.36337447 0
-0.82771802 0.19657612 -0.36682415 0
-0.73193896 0.17447186 -0.36516976 0
-0.62240088 0.18651867 -0.36486244 0
-0.51892388 0.19054604 -0.36694908 0
-0.46022344 0.18135834 -0.36914539 0
-0.3496359 0.18765831 -0.37112641 0
-0.25051773 0.17575932 -0.36908197 0
-0.13049313 0.18191624 -0.37257218 0
0.0066027939 0.1869936 -0.37406063 0
0.16727248 0.19699001 -0.37930822 0
-0.92608559 0.27531815 -0.36442113 0
-0.81438076 0.29915524 -0.36632609 0
-0.74603176 0.2882452 -0.36411381 0
-0.65018594 0.28863239 -0.36756277 0
-0.52010739 0.28821182 -0.3683691 0
-0.34777987 0.29437351 -0.37331963 0
-0.22765678 0.30749512 -0.37669182 0
-0.13610506 0.25459194 -0.37226486 0
-5.453825e-05 0.31825924 -0.37432456 0
-0.93229783 0.37383747 -0.36432123 0
-0.84082663 0.39555073 -0.36323667 0
-0.75320709 0.39474583 -0.36550069 0
-0.63074511 0.38924217 -0.36873889 0
-0.52741772 0.37703133 -0.36890602 0
-0.40980604 0.38568211 -0.36905932 0
-0.35125965 0.36175442 -0.37394881 0
-0.25524268 0.38168335 -0.37186551 0
-0.13807428 0.36359596 -0.37390637 0
-0.014118314 0.38563538 -0.37239838 0
0.13596797 0.41968536 -0.37525439 0
-0.92836177 0.46431541 -0.36264729 0
-0.8092854 0.48630524 -0.36484361 0
-0.70582134 0.47642136 -0.36679077 0
-0.62824154 0.44832134 -0.36542583 0
-0.49308372 0.49433899 -0.36923552 0
-0.39206463 0.49925041 -0.36875057 0
-0.25945047 0.48852158 -0.37388468 0
-0.14882559 0.46230507 -0.37395549 0
-0.013233215 0.47651958 -0.37493825 0
0.13008964 0.47388554 -0.37519741 0
0.10498986 -0.4612236 -0.37012553 0
0.61599481 -0.49098492 -0.3756125 0
0.1099363 -0.36497211 -0.36840987 0
0.27531067 -0.38941193 -0.37375379 0
0.41235721 -0.40904808 -0.37115669 0
0.63797677 -0.37326813 -0.37954164 0
0.82980251 -0.37742519 -0.37406754 0
0.86096573 -0.39914989 -0.38310838 0
0.1207526 -0.28048706 -0.36946559 0
0.29235855 -0.29596329 -0.37615609 0
0.42591476 -0.312253 -0.37300754 0
0.61484492 -0.31462193 -0.37182665 0
0.83160651 -0.25105 -0.3720367 0
0.84073353 -0.29984093 -0.37553644 0
0.13903856 -0.18415737 -0.37283134 0
0.28325191 -0.22403908 -0.37202144 0
0.42106226 -0.20582485 -0.36965394 0
0.433927 -0.1850853 -0.37282348 0
0.63656461 -0.19920731 -0.37584448 0
0.85259342 -0.15404606 -0.37660313 0
0.13437286 -0.14227295 -0.37097311 0
0.29933494 -0.1213541 -0.37499642 0
0.41761953 -0.1013298 -0.36738443 0
0.64517194 -0.10335064 -0.37709737 0
0.85479903 -0.096928596 -0.37665343 0
0.13031164 -0.040854454 -0.36909127 0
0.14151952 0.031365395 -0.37191725 0
0.292216 -0.024721146 -0.37239814 0
0.42371222 0.022349358 -0.36853886 0
0.43283927 -0.020797729 -0.37103701 0
0.65090311 -0.004193306 -0.37795424 0
0.85800469 0.007856369 -0.37699175 0
0.13510153 0.077847481 -0.37035441 0
0.29374292 0.11454964 -0.37281418 0
0.43705022 0.10085678 -0.37212944 0
0.64766765 0.085751534 -0.37702966 0
0.85431051 0.094640732 -0.37601233 0
0.2785174 0.18582726 -0.36944842 0
0.44095242 0.17338371 -0.37351179 0
0.62645799 0.19395733 -0.37249684 0
0.85341048 0.21196651 -0.3770287 0
0.13848636 0.2757349 -0.37314057 0
0.2972115 0.29809189 -0.375458 0
0.42214447 0.2649231 -0.36973286 0
0.44906455 0.30130863 -0.37694263 0
0.63061404 0.3149519 -0.3755002 0
0.83144814 0.30183125 -0.37326288 0
0.11738724 0.34184837 -0.36919975 0
0.28404254 0.40492821 -0.3741765 0
0.42729238 0.40003967 -0.37315869 0
0.61067396 0.35114002 -0.37110829 0
0.81541348 0.4377594 -0.37247348 0
0.83948952 0.38465977 -0.3768847 0
0.097331434 0.48996258 -0.36812496 0
0.43076709 0.46600246 -0.37534738 0
0.58834434 0.46059227 -0.36777306 0
0.64159173 0.45637703 -0.38038683 0
0.79909289 0.48639393 -0.36970258 0
-0.65011519 -0.4848547 -0.36262012 0
-0.42967993 -0.49947929 -0.36524367 0
-0.047774553 -0.47867298 -0.36501932 0
-0.91940796 -0.44997501 -0.36035562 0
-0.78802347 -0.42702579 -0.36128139 0
-0.73673439 -0.44996071 -0.36602497 0
-0.61544317 -0.40655804 -0.36984062 0
-0.51246405 -0.43056488 -0.37003207 0
-0.42108542 -0.40732384 -0.36390901 0
-0.31338331 -0.42973614 -0.36523676 0
-0.18020114 -0.42486858 -0.36546779 0
-0.036722898 -0.41280556 -0.36591506 0
-0.98576784 -0.33263206 -0.35844254 0
-0.88884187 -0.31914139 -0.36353445 0
-0.81538057 -0.33694935 -0.36134958 0
-0.71609271 -0.30490971 -0.36607456 0
-0.6126765 -0.33251858 -0.36770582 0
-0.50841737 -0.33249283 -0.36753321 0
-0.41525471 -0.33564281 -0.36320281 0
-0.29053527 -0.31747818 -0.3682003 0
-0.15935594 -0.32774639 -0.36847758 0
-0.0093302727 -0.30795765 -0.37087274 0
-0.97380757 -0.22320271 -0.35811687 0
-0.89119828 -0.21863937 -0.35951877 0
-0.80935633 -0.22122002 -0.35953426 0
-0.70671862 -0.19856739 -0.36588693 0
-0.59791911 -0.21365929 -0.36870527 0
-0.49918327 -0.21743488 -0.36703134 0
-0.38800445 -0.22183323 -0.36830401 0
-0.29084039 -0.22859764 -0.36595726 0
-0.15621829 -0.21545219 -0.36668205 0
-0.13601369 -0.25693607 -0.3734262 0
-0.01588425 -0.219841 -0.36690879 0
-0.87662399 -0.10326862 -0.36134768 0
-0.80156088 -0.12928963 -0.36002851 0
-0.71973455 -0.12678719 -0.36103535 0
-0.6149385 -0.14424133 -0.36279202 0
-0.49878088 -0.14706707 -0.36611295 0
-0.37906167 -0.095100403 -0.36883402 0
-0.27374563 -0.11728954 -0.36889148 0
-0.15016925 -0.083535194 -0.36652899 0
-0.13134706 -0.10729599 -0.37194228 0
0.00010856986 -0.098864555 -0.36958575 0
-0.9880172 -0.031384468 -0.35799122 0
-0.89002609 -0.045292854 -0.35710454 0
-0.79317629 -0.013171196 -0.3612709 0
-0.69418442 -0.01138401 -0.36694622 0
-0.61328053 -0.050880432 -0.36244726 0
-0.49045956 -0.019213676 -0.36744952 0
-0.38316759 -0.00068378448 -0.36735129 0
-0.27030557 -0.014344215 -0.36911488 0
-0.16346359 0.0017719269 -0.36257672 0
-0.1367856 -0.014396667 -0.369699 0
-0.012965173 -0.01300621 -0.36544275 0
-0.98435754 0.062491417 -0.35730672 0
-0.89471829 0.04901123 -0.35582733 0
-0.79437095 0.087334633 -0.360991 0
-0.71525598 0.054781914 -0.36132145 0
-0.60888147 0.072309494 -0.36357284 0
-0.50991207 0.082527161 -0.36254811 0
-0.38059396 0.10419273 -0.36829329 0
-0.28733158 0.10169506 -0.36501861 0
-0.14553019 0.078258514 -0.36731148 0
0.0033822656 0.088676453 -0.36966705 0
0.1617434 0.053304672 -0.37182498 0
-0.98947883 0.16684532 -0.35258937 0
-0.90726829 0.15662575 -0.35371423 0
-0.80328071 0.18569946 -0.35976982 0
-0.72419071 0.15504074 -0.35979199 0
-0.63309509 0.16700459 -0.35823822 0
-0.51141429 0.18151855 -0.36305356 0
-0.41408935 0.17383766 -0.36058998 0
-0.28569096 0.19142246 -0.36627603 0
-0.13873401 0.17739105 -0.36984849 0
0.0024257004 0.17322063 -0.3698287 0
-0.89389521 0.27819347 -0.35909677 0
-0.82107639 0.27180958 -0.3570528 0
-0.73495394 0.27593517 -0.35916018 0
-0.6146642 0.28210449 -0.36449504 0
-0.52880347 0.26656723 -0.36013937 0
-0.40609071 0.28590107 -0.36422253 0
-0.29492953 0.28634834 -0.36545467 0
-0.16395006 0.2574892 -0.36465049 0
-0.00089338422 0.28837585 -0.37025309 0
-0.91246104 0.34816551 -0.35660315 0
-0.81451231 0.36821556 -0.35657048 0
-0.63246185 0.36091423 -0.36207199 0
-0.52434605 0.37408543 -0.36351418 0
-0.42623755 0.37117958 -0.36129594 0
-0.3143898 0.36656952 -0.36239505 0
-0.16257623 0.3730135 -0.36705494 0
-0.022944897 0.3833704 -0.3665936 0
-0.99802971 0.45987797 -0.3521452 0
-0.89525825 0.45956326 -0.35770369 0
-0.79473072 0.47526169 -0.35710382 0
-0.70567274 0.46601295 -0.35978389 0
-0.58849126 0.46780968 -0.35949206 0
-0.50326163 0.44461918 -0.35799527 0
-0.42636132 0.45552635 -0.36348128 0
-0.3264724 0.4404583 -0.36148858 0
-0.17872179 0.47279549 -0.36570883 0
0.13972378 0.4376173 -0.37028027 0
0.11778939 -0.39928055 -0.36674047 0
0.24368736 -0.45515442 -0.36243272 0
0.27211556 -0.36489487 -0.36812592 0
0.44926545 -0.40771866 -0.36551166 0
0.68050408 -0.39073086 -0.37094808 0
0.91521287 -0.41898251 -0.37229824 0
0.1238414 -0.29745293 -0.36565042 0
0.27750054 -0.31137848 -0.36825156 0
0.45204848 -0.2796793 -0.36369205 0
0.67112863 -0.31187725 -0.36675978 0
0.90711904 -0.34072113 -0.36812901 0
0.11759871 -0.22372723 -0.36229277 0
0.27972275 -0.20045185 -0.36662436 0
0.4720068 -0.20209694 -0.36794567 0
0.66592026 -0.2534647 -0.36409783 0
0.93395853 -0.20224476 -0.37324405 0
0.13813129 -0.11668587 -0.36654449 0
0.28367606 -0.08050251 -0.36613631 0
0.46235034 -0.13025093 -0.36424947 0
0.70051968 -0.11248684 -0.37180924 0
0.92009854 -0.084316254 -0.36796951 0
0.12946939 -0.041611671 -0.36355376 0
0.27333987 -0.007519722 -0.36293721 0
0.47004837 -0.0002155304 -0.36540818 0
0.70218956 -0.017049789 -0.37143207 0
0.15023199 0.094002724 -0.36882734 0
0.28417385 0.1280117 -0.36583924 0
0.46635905 0.092505455 -0.36432934 0
0.69538373 0.074702263 -0.36937833 0
0.9421736 0.081494331 -0.37321568 0
0.13781145 0.19602299 -0.36618376 0
0.15102342 0.15127182 -0.36923599 0
0.28082907 0.20860863 -0.36547279 0
0.48463121 0.18024445 -0.36941457 0
0.69398981 0.1660471 -0.3693254 0
0.91232365 0.19782829 -0.36663628 0
0.13142809 0.27763748 -0.36553693 0
0.26665646 0.25710011 -0.362432 0
0.46625623 0.25725842 -0.36535358 0
0.6804508 0.27038002 -0.36754012 0
0.91144395 0.32325363 -0.36850858 0
0.13842228 0.3764925 -0.36877322 0
0.28822231 0.37578297 -0.3694315 0
0.47072166 0.39959908 -0.36830854 0
0.64005983 0.41041565 -0.35991168 0
0.65688139 0.3599329 -0.36326075 0
0.91640377 0.40224075 -0.3713007 0
0.27387136 0.49876499 -0.36842012 0
0.44139826 0.45634365 -0.3622601 0
0.64234054 0.48112392 -0.36173892 0
0.88095081 0.49449539 -0.36508942 0
-0.30769944 -0.48803997 -0.36848402 0
-0.97745347 -0.39931202 -0.35679603 0
-0.89673686 -0.42835426 -0.35817027 0
-0.78227836 -0.42481041 -0.36179042 0
-0.67685258 -0.46109104 -0.3624599 0
-0.54344344 -0.42350578 -0.36755133 0
-0.45349678 -0.42777634 -0.36229086 0
-0.30382684 -0.42335033 -0.36716986 0
-0.16540042 -0.42198849 -0.36604571 0
-0.029497981 -0.46547413 -0.36246181 0
-0.97393322 -0.34363747 -0.35557675 0
-0.86782396 -0.31976032 -0.36262107 0
-0.77926952 -0.32823658 -0.35898924 0
-0.65566009 -0.35841465 -0.36497116 0
-0.55556202 -0.37473583 -0.36214805 0
-0.44597328 -0.35532761 -0.36220193 0
-0.29779601 -0.32169437 -0.36584735 0
-0.14787176 -0.30326843 -0.36777782 0
-0.0088658631 -0.30656242 -0.3641746 0
-0.96667224 -0.24387646 -0.35471392 0
-0.87562877 -0.25444412 -0.35833764 0
-0.77643067 -0.24595737 -0.35774684 0
-0.64582962 -0.24240398 -0.36465716 0
-0.53513002 -0.23984241 -0.36482716 0
-0.43604037 -0.24862003 -0.36255336 0
-0.39875239 -0.24899197 -0.37328076 0
-0.28957736 -0.21645069 -0.3659668 0
-0.15455768 -0.2403841 -0.36456323 0
0.0013711751 -0.21467304 -0.36533427 0
-0.96449518 -0.14399815 -0.35345221 0
-0.86984009 -0.14426136 -0.35797071 0
-0.76202857 -0.13533878 -0.36008859 0
-0.65470052 -0.15773392 -0.36095452 0
-0.5335381 -0.1174078 -0.36379337 0
-0.43797067 -0.10118961 -0.36044645 0
-0.41379812 -0.15249825 -0.36733317 0
-0.2725561 -0.12249088 -0.36937428 0
-0.15064564 -0.12424374 -0.36410236 0
-0.95649195 -0.035736084 -0.35474467 0
-0.88602912 -0.060139656 -0.35280824 0
-0.7822634 -0.044883728 -0.35411644 0
-0.65248334 -0.035079956 -0.36082435 0
-0.55318534 -0.010513306 -0.35834861 0
-0.46222448 -0.019777298 -0.36340356 0
-0.28878081 -0.068699837 -0.36456656 0
-0.14319333 -0.011667252 -0.3655026 0
0.020210207 0.0026807785 -0.36860657 0
-0.95998359 0.063119888 -0.35397649 0
-0.87064922 0.065980911 -0.35691833 0
-0.78192782 0.068689346 -0.35441709 0
-0.64010203 0.083865166 -0.36419487 0
-0.54257667 0.081895828 -0.36150479 0
-0.43920234 0.11881447 -0.36090994 0
-0.41643927 0.094526291 -0.36641264 0
-0.28490579 0.051981926 -0.36574292 0
-0.13991955 0.10772133 -0.36666489 0
0.0088764429 0.077765465 -0.36566854 0
-0.94528663 0.16912174 -0.35866308 0
-0.89295244 0.17532539 -0.35258031 0
-0.78918374 0.15527058 -0.35348797 0
-0.66741902 0.15315533 -0.35798979 0
-0.53885329 0.16737366 -0.36324263 0
-0.44584036 0.1909132 -0.36017108 0
-0.30207735 0.14697361 -0.3622694 0
-0.13344064 0.2046299 -0.36932731 0
0.0047918558 0.19010258 -0.36539102 0
-0.98199302 0.25915718 -0.35160017 0
-0.88912988 0.29656982 -0.35583973 0
-0.77907038 0.26366043 -0.35774612 0
-0.68854094 0.22463703 -0.35387158 0
-0.55551976 0.25516415 -0.36051536 0
-0.4568398 0.28994274 -0.35917354 0
-0.32728916 0.29059696 -0.35829878 0
-0.30792388 0.22889519 -0.36191082 0
-0.1528914 0.27301311 -0.36551857 0
0.0029366016 0.27628994 -0.36601043 0
0.17714214 0.30455303 -0.37276006 0
-0.90875947 0.36818886 -0.35320568 0
-0.79278481 0.36889935 -0.35708904 0
-0.67743939 0.34010887 -0.35894895 0
-0.58706284 0.35031033 -0.35509324 0
-0.4685542 0.36162281 -0.35795355 0
-0.14979696 0.39659023 -0.36855388 0
-0.0044688284 0.36295414 -0.36565447 0
-0.99121583 0.47509289 -0.3552959 0
-0.91687018 0.46822929 -0.3543663 0
-0.81015074 0.4808197 -0.35658073 0
-0.68987089 0.48426247 -0.36023664 0
-0.58218044 0.470397 -0.35956407 0
-0.46794474 0.47913551 -0.36134076 0
-0.30585968 0.46666718 -0.36737037 0
-0.15996656 0.48596478 -0.36831522 0
-0.0083766282 0.45499229 -0.36673737 0
0.78148615 -0.47325516 -0.3694241 0
-0.028186738 -0.40690708 -0.36103344 0
0.14046782 -0.4109869 -0.36740732 0
0.34539759 -0.38787174 -0.37129307 0
0.53520048 -0.4460535 -0.36598468 0
0.767331 -0.42017841 -0.3648591 0
0.14847648 -0.3221283 -0.36737061 0
0.33408007 -0.3138752 -0.36617756 0
0.53497386 -0.34354115 -0.36442375 0
0.78115284 -0.3368988 -0.36754537 0
0.15344322 -0.2341423 -0.36701989 0
0.30688334 -0.25979424 -0.35740018 0
0.5461024 -0.21120739 -0.36540437 0
0.80546236 -0.20473671 -0.37227798 0
-0.0068084896 -0.1392498 -0.36215329 0
0.15838444 -0.10921097 -0.36679649 0
0.3412801 -0.12063408 -0.36527205 0
0.56156868 -0.093831062 -0.36839819 0
0.78594422 -0.12780476 -0.3659966 0
0.16564646 -0.015337944 -0.36814785 0
0.33679616 -0.0079698563 -0.36343145 0
0.55042797 -0.010931015 -0.36500287 0
0.79448014 -0.011070251 -0.36773491 0
-0.01364097 0.10895538 -0.36007428 0
0.14809036 0.049811363 -0.36349797 0
0.32598343 0.07208252 -0.36061287 0
0.55096591 0.099384308 -0.36517835 0
0.79037023 0.0847826 -0.36659169 0
0.16169667 0.15947437 -0.36744189 0
0.34172153 0.19260216 -0.36533117 0
0.53097928 0.14600468 -0.36041665 0
0.75720739 0.20773983 -0.35986614 0
0.81269169 0.19354343 -0.37318087 0
0.15212399 0.2753067 -0.36631131 0
0.35062706 0.30260658 -0.36866355 0
0.54474372 0.26688862 -0.36542535 0
0.78050792 0.32646656 -0.36769938 0
0.13136503 0.37963486 -0.36288929 0
0.32614365 0.37715721 -0.36382604 0
0.53922045 0.37195969 -0.36537981 0
0.77260053 0.39515495 -0.36731243 0
0.13148946 0.48556232 -0.3652339 0
0.3331289 0.48871613 -0.36765456 0
0.53036106 0.47055149 -0.36496496 0
0.73104191 0.46918869 -0.35872149 0
0.99272549 0.49991989 -0.36656427 0
-0.94817293 -0.43439388 -0.34748697 0
-0.83213472 -0.41904163 -0.34907722 0
-0.70323277 -0.4343462 -0.35430479 0
-0.57179189 -0.43204308 -0.35973525 0
-0.45664456 -0.45035267 -0.35413599 0
-0.30812964 -0.3946104 -0.35369587 0
-0.28433117 -0.40840721 -0.36113858 0
-0.14997575 -0.42780304 -0.35568333 0
-0.92743325 -0.3164711 -0.34952402 0
-0.82570165 -0.33553982 -0.34823608 0
-0.68945032 -0.33245277 -0.35507417 0
-0.56836998 -0.31450558 -0.35724497 0
-0.41701484 -0.30916023 -0.3618803 0
-0.28470629 -0.31459427 -0.3585844 0
-0.12336498 -0.3116951 -0.36054659 0
-0.93757093 -0.24447441 -0.34491658 0
-0.81258702 -0.22988033 -0.34983134 0
-0.68669987 -0.24044609 -0.35400891 0
-0.57654631 -0.25081444 -0.35379744 0
-0.42176247 -0.21898937 -0.35879278 0
-0.27812508 -0.2237215 -0.35883641 0
-0.12855691 -0.24270153 -0.35784531 0
-0.93014002 -0.14827919 -0.34568334 0
-0.80916846 -0.12481689 -0.34956503 0
-0.682428 -0.11133766 -0.35387921 0
-0.5601325 -0.12761116 -0.3572402 0
-0.42556661 -0.091509819 -0.35672855 0
-0.3852258 -0.094520569 -0.36740589 0
-0.27734318 -0.12020302 -0.35792637 0
-0.12038279 -0.12250996 -0.35876083 0
0.021485686 -0.15484715 -0.356879 0
-0.92890984 -0.057262421 -0.34541821 0
-0.82655185 -0.048259735 -0.34476948 0
-0.70293272 -0.050726891 -0.34832716 0
-0.57349324 -0.031870842 -0.35354877 0
-0.43272066 -0.014063835 -0.3550005 0
-0.27523199 -0.0056562424 -0.35821247 0
-0.1253286 -0.011097908 -0.35705566 0
0.031055361 -0.051455498 -0.35888314 0
-0.92125952 0.064308167 -0.34767509 0
-0.80709958 0.093236923 -0.35024691 0
-0.66256917 0.071062088 -0.35222769 0
-0.57147932 0.029743195 -0.35429358 0
-0.43498284 0.075300217 -0.35498095 0
-0.28691396 0.07942009 -0.35583115 0
-0.13196573 0.099406242 -0.35583925 0
0.028675169 0.068917274 -0.35834765 0
-0.93333566 0.14618206 -0.34544945 0
-0.81746423 0.1762104 -0.3486104 0
-0.70928943 0.15456295 -0.34814906 0
-0.60167921 0.21905804 -0.34901953 0
-0.57278323 0.16870689 -0.35530996 0
-0.44417739 0.15289593 -0.35359645 0
-0.2929461 0.16019249 -0.35531688 0
-0.11362648 0.22028732 -0.36188912 0
0.024488479 0.18838024 -0.35818934 0
-0.92491132 0.253829 -0.34932518 0
-0.83006263 0.26726151 -0.34722877 0
-0.70502985 0.29028511 -0.35148621 0
-0.64597237 0.27782154 -0.35248756 0
-0.58673429 0.28640652 -0.3537972 0
-0.45124772 0.26734829 -0.35367346 0
-0.30475178 0.29988575 -0.35468197 0
-0.29680511 0.24576759 -0.35565138 0
-0.11947265 0.27765179 -0.361274 0
0.022644997 0.28235054 -0.3589437 0
-0.95124662 0.37750053 -0.34621763 0
-0.84213626 0.38314247 -0.34734011 0
-0.70722669 0.3910284 -0.35335636 0
-0.63238358 0.3466835 -0.34449697 0
-0.45625508 0.37538719 -0.35474706 0
-0.3135159 0.37945366 -0.35431433 0
-0.14029297 0.3786211 -0.35823131 0
0.028405368 0.38965034 -0.36223912 0
-0.9710387 0.49176311 -0.34523225 0
-0.84841037 0.49189186 -0.34919596 0
-0.73143965 0.48303604 -0.35061717 0
-0.60964298 0.46548176 -0.35296535 0
-0.47411615 0.47459507 -0.35328627 0
-0.33123481 0.48999405 -0.35314035 0
-0.16275227 0.48781204 -0.35564566 0
0.0056655705 0.46328831 -0.35848069 0
-0.022195578 -0.48256207 -0.35048199 0
-0.0055291951 -0.40929985 -0.35342073 0
0.20176345 -0.4422121 -0.35857701 0
0.39432174 -0.42897606 -0.35286403 0
0.65039331 -0.41220188 -0.35762429 0
0.91062707 -0.40894794 -0.36325336 0
0.0031388402 -0.31785202 -0.35399222 0
0.19601104 -0.30474758 -0.35390425 0
0.21118954 -0.3418951 -0.35892367 0
0.41575757 -0.3075161 -0.35723233 0
0.64747214 -0.31152248 -0.35577393 0
0.88831735 -0.3178997 -0.35585213 0
-0.008231312 -0.24313736 -0.34963393 0
0.22098607 -0.20865917 -0.3594985 0
0.41720274 -0.20443344 -0.3562448 0
0.65260339 -0.20131016 -0.35586572 0
0.92189085 -0.17428875 -0.36356854 0
0.22381288 -0.11765003 -0.35944796 0
0.41566572 -0.11856842 -0.35508609 0
0.65702105 -0.087201118 -0.35642147 0
0.91523927 -0.11226559 -0.36136246 0
0.19902217 -0.052919388 -0.35250998 0
0.41326168 -0.050814629 -0.35418224 0
0.89867663 -0.049695969 -0.35678363 0
0.91016674 0.035601616 -0.35985541 0
0.22476581 0.080864906 -0.35941911 0
0.41757992 0.062348366 -0.35543132 0
0.6699903 0.073301315 -0.35987043 0
0.91719711 0.13373661 -0.36209297 0
0.20714417 0.15299702 -0.35537863 0
0.3892768 0.20515728 -0.34929323 0
0.41013762 0.15675926 -0.35404611 0
0.67409283 0.19199944 -0.36190414 0
0.90226746 0.18923092 -0.35944176 0
0.21226984 0.2623167 -0.35787201 0
0.39980796 0.29167938 -0.35302639 0
0.64756048 0.28678608 -0.35734344 0
0.88481003 0.27231312 -0.35691738 0
0.19032544 0.36987972 -0.35431886 0
0.4198125 0.38723183 -0.35939932 0
0.61159474 0.37220478 -0.35008192 0
0.87429667 0.38812637 -0.35715914 0
0.19622868 0.48779869 -0.35820937 0
0.4079811 0.47820759 -0.35837054 0
0.63170952 0.45965672 -0.35653615 0
-0.85284626 -0.43919373 -0.3575387 0
-0.74079573 -0.42219734 -0.35599041 0
-0.59427607 -0.3870945 -0.35578251 0
-0.58715641 -0.42640018 -0.35915375 0
-0.45016035 -0.43764687 -0.35611296 0
-0.29707649 -0.4583149 -0.35528231 0
-0.11106703 -0.39057446 -0.36293936 0
0.059848875 -0.38985538 -0.35539722 0
-0.99042773 -0.33196735 -0.34674335 0
-0.96603608 -0.34486485 -0.35440683 0
-0.86238611 -0.34831619 -0.35140419 0
-0.73991644 -0.32870674 -0.35337782 0
-0.58182633 -0.32646084 -0.35782981 0
-0.43214855 -0.33855438 -0.35868096 0
-0.26456451 -0.31313229 -0.36102557 0
-0.12982866 -0.33062077 -0.35611773 0
0.082022607 -0.30215836 -0.35991216 0
-0.97037292 -0.25119877 -0.35057521 0
-0.84380609 -0.21029091 -0.35368347 0
-0.71462196 -0.22724628 -0.35850167 0
-0.59151787 -0.22719955 -0.35361743 0
-0.55820984 -0.23996735 -0.3628931 0
-0.41061711 -0.23289108 -0.36270261 0
-0.25492677 -0.22025204 -0.36201096 0
-0.13637161 -0.25674152 -0.35293722 0
0.086355776 -0.20405388 -0.35960436 0
-0.97946 -0.1428194 -0.34647298 0
-0.86142868 -0.1291008 -0.34808564 0
-0.7280708 -0.13780403 -0.35399842 0
-0.56897902 -0.11672401 -0.35895777 0
-0.41724733 -0.13044643 -0.35972881 0
-0.26610526 -0.18050861 -0.35837436 0
-0.11547956 -0.14274025 -0.35739398 0
0.087761849 -0.10872936 -0.35900259 0
-0.98730397 -0.065371513 -0.34378362 0
-0.85783863 -0.026583672 -0.3486371 0
-0.73621643 -0.035708427 -0.35150075 0
-0.58533752 -0.017487526 -0.354635 0
-0.42461854 -0.019443512 -0.35778427 0
-0.25477651 -0.048191071 -0.36057067 0
-0.12404716 -0.024929047 -0.35454702 0
0.07650733 -0.059464455 -0.3557291 0
-0.96820891 0.056285858 -0.34888625 0
-0.86744249 0.035634995 -0.34622598 0
-0.74555194 0.057876587 -0.34943557 0
-0.57779479 0.079688072 -0.35706043 0
-0.42597276 0.074245453 -0.35793138 0
-0.26957425 0.062903404 -0.3571167 0
-0.10906905 0.087769508 -0.35858798 0
0.091913313 0.060091019 -0.3597095 0
-0.85230422 0.15783691 -0.35102534 0
-0.75742173 0.18262577 -0.34761882 0
-0.59469378 0.18452072 -0.35394025 0
-0.57647061 0.14569092 -0.35800958 0
-0.44224355 0.15536308 -0.35476446 0
-0.28401607 0.1465416 -0.35445571 0
-0.11236233 0.17859268 -0.35876775 0
0.081286818 0.21405792 -0.35789585 0
0.10934493 0.17723465 -0.36465406 0
-0.99637371 0.27254105 -0.34483337 0
-0.96721965 0.23124981 -0.3509903 0
-0.84410179 0.29968262 -0.35513854 0
-0.74060285 0.27982998 -0.35319567 0
-0.60449028 0.25627041 -0.35259509 0
-0.44896156 0.26673031 -0.3547256 0
-0.29708004 0.23566151 -0.3524344 0
-0.12626484 0.29617023 -0.35694981 0
0.072422355 0.27573204 -0.35640883 0
-0.94411123 0.36008263 -0.3461132 0
-0.87444061 0.35312843 -0.34919739 0
-0.7486434 0.35529613 -0.35286522 0
-0.60879618 0.36931801 -0.35375404 0
-0.45854697 0.38260841 -0.35464096 0
