# .PCD v0.7 - Point Cloud Data file format
VERSION 0.7
FIELDS x y z intensity
SIZE 4 4 4 4
TYPE F F F F
COUNT 1 1 1 1
WIDTH 1277
HEIGHT 1
VIEWPOINT 0 0 0 1 0 0 0
POINTS 1277
DATA ascii
0.94583225 -0.42583734 -0.19352062 0
0.97060871 -0.41495341 -0.16187662 0
0.94525528 -0.34044021 -0.19881958 0
0.98861313 -0.31887615 -0.17758188 0
0.89564037 -0.37417048 -0.26811677 0
0.9700141 -0.24006096 -0.27986532 0
0.97096491 0.27414748 -0.31234837 0
0.95428467 0.36783725 -0.31744057 0
0.93231249 0.46700442 -0.3244096 0
0.87296677 -0.45664525 -0.25607204 0
0.93972969 -0.43304804 -0.21250698 0
0.97420549 -0.39610839 -0.17417058 0
0.93717623 -0.34061593 -0.23248073 0
0.86575603 -0.26348364 -0.25324428 0
0.93584633 -0.25504041 -0.25967097 0
0.93314457 0.39760226 -0.30525312 0
0.89688444 -0.41611934 -0.24459133 0
0.89110279 -0.32926679 -0.25128293 0
0.9358077 -0.32648832 -0.23997459 0
0.87750483 -0.24180764 -0.26859373 0
0.98392057 -0.22625336 -0.27401623 0
0.97642994 -0.1091201 -0.28881502 0
0.95797491 -0.013447702 -0.29477504 0
0.96389771 0.072197422 -0.29883528 0
0.91543436 0.15308683 -0.30668697 0
0.98005772 0.18841386 -0.30378985 0
0.88960791 0.28655094 -0.31862217 0
0.97558784 0.28670788 -0.30834058 0
0.87186575 0.39515358 -0.3231611 0
0.95806456 0.37656653 -0.31490573 0
0.87127161 0.48985395 -0.33199286 0
0.96713257 0.49167639 -0.32331911 0
0.96067476 -0.40498084 -0.16898565 0
0.9678669 -0.32124656 -0.18285637 0
0.88776064 -0.49944502 -0.23832223 0
0.73956203 -0.43328273 -0.28425413 0
0.80779505 -0.42061871 -0.26860484 0
0.89425611 -0.41070771 -0.24931815 0
0.74389315 -0.35462415 -0.2856687 0
0.80668783 -0.29917717 -0.28056842 0
0.90926027 -0.30135334 -0.25812295 0
0.99034405 -0.28701365 -0.24073313 0
0.82207918 -0.22436284 -0.29090884 0
0.9093442 -0.2067278 -0.29137367 0
0.80430412 -0.1188893 -0.30678257 0
0.89151573 -0.10870913 -0.30010962 0
0.80047703 -0.0027758926 -0.31236571 0
0.89777517 -0.016248077 -0.30186415 0
0.84249735 0.080984443 -0.31456316 0
0.91281509 0.09466479 -0.30700058 0
0.80451155 0.18063316 -0.32349592 0
0.90290594 0.1654567 -0.30957711 0
0.75802898 0.31041348 -0.33340654 0
0.80178547 0.2830742 -0.33013228 0
0.91580057 0.28825635 -0.31893018 0
0.98891783 0.28445613 -0.312819 0
0.74331379 0.377002 -0.33907986 0
0.81484222 0.39050013 -0.33163857 0
0.89804935 0.39318749 -0.32464969 0
0.98509407 0.40366748 -0.31961507 0
0.71883917 0.47499773 -0.3483437 0
0.80214977 0.46218356 -0.33450213 0
0.9163599 0.48809963 -0.3252247 0
0.99411249 0.4826979 -0.32276002 0
0.97533083 -0.4938944 -0.14984119 0
0.93373823 -0.41367173 -0.20663689 0
0.96850872 -0.39832303 -0.16111244 0
0.93553591 -0.32345825 -0.21595766 0
0.99437475 -0.30783927 -0.17362629 0
0.89751053 -0.41166639 -0.23336659 0
0.9133029 -0.37476277 -0.2083289 0
0.8984952 -0.31587476 -0.24255283 0
0.92884779 -0.32577616 -0.22426988 0
0.94357347 -0.25496328 -0.25776201 0
0.95619678 -0.42015433 -0.1564451 0
0.96180344 -0.32734406 -0.16383772 0
0.95450687 -0.36596105 -0.16603959 0
0.97979021 -0.40947223 -0.12490861 0
0.96235228 -0.32581234 -0.15703586 0
0.97937298 -0.35030031 -0.12303567 0
0.28219748 -0.49785298 -0.35106003 0
-0.085961342 -0.40092617 -0.33882201 0
0.051050186 -0.43401706 -0.3408795 0
0.1839056 -0.44371015 -0.35531023 0
0.28842449 -0.4000783 -0.36200017 0
0.36654949 -0.42331767 -0.34876683 0
0.47504902 -0.42377689 -0.32911071 0
0.55856943 -0.3805927 -0.31758389 0
-0.027735233 -0.32818437 -0.34239492 0
0.099924564 -0.35981762 -0.34964198 0
0.13305426 -0.29586163 -0.35724837 0
0.24196005 -0.32149196 -0.36505377 0
0.35422802 -0.33462721 -0.35792306 0
0.46458912 -0.32648534 -0.34301889 0
0.553936 -0.29027003 -0.33275202 0
0.65089178 -0.31036216 -0.30943176 0
0.81518316 -0.26736277 -0.29876825 0
0.03651619 -0.22076952 -0.35069713 0
0.16956568 -0.21504213 -0.36060899 0
0.2515378 -0.22098304 -0.36191881 0
0.36042213 -0.2366295 -0.35881481 0
0.46118927 -0.2199976 -0.34553808 0
0.5652709 -0.21823049 -0.33185279 0
0.65845346 -0.18441574 -0.32058075 0
0.72906876 -0.20493285 -0.31114751 0
0.07442522 -0.13555269 -0.35505128 0
0.17161655 -0.11734672 -0.36534876 0
0.25070381 -0.12707071 -0.36352092 0
0.37683773 -0.12258664 -0.35601038 0
0.4702425 -0.13114958 -0.34627542 0
0.56101608 -0.11473572 -0.33799216 0
0.66597128 -0.12157282 -0.31728497 0
0.75379181 -0.11571357 -0.31094238 0
0.84710836 -0.11135206 -0.30451015 0
0.085783005 -0.025496095 -0.36865431 0
0.16652489 -0.016118303 -0.36957654 0
0.24369764 -0.02220799 -0.36331189 0
0.35085964 -0.018825725 -0.35659578 0
0.47759247 -0.01805754 -0.34832907 0
0.56809521 -0.028219432 -0.33579543 0
0.66188574 -0.00046782196 -0.32622793 0
0.77022314 0.0033640712 -0.31837487 0
0.8654561 -0.014693171 -0.30455899 0
0.96315336 -0.0091678649 -0.29740933 0
0.085998535 0.048611611 -0.36293048 0
0.15781641 0.073429465 -0.36348513 0
0.2491827 0.091280416 -0.35933691 0
0.37445498 0.076479316 -0.35976744 0
0.4805131 0.062660664 -0.34795058 0
0.54522991 0.08829125 -0.34057251 0
0.64769316 0.088389695 -0.33003017 0
0.78390741 0.083802223 -0.31543198 0
0.87734509 0.081451461 -0.3101126 0
0.97618484 0.076020993 -0.2991195 0
0.089370251 0.17144912 -0.37177211 0
0.15481091 0.18243307 -0.36604148 0
0.26489115 0.1777156 -0.36338079 0
0.37873793 0.19237098 -0.36233827 0
0.47742558 0.18188323 -0.36074057 0
0.54929256 0.19440247 -0.34226644 0
0.68126154 0.18229952 -0.33095124 0
0.79185963 0.17835762 -0.32113719 0
0.88679075 0.17626472 -0.31477398 0
0.98702526 0.16550134 -0.30142236 0
0.089303017 0.2695111 -0.37426978 0
0.1484375 0.2889955 -0.37212008 0
0.25981665 0.27146655 -0.36874798 0
0.3713932 0.28737542 -0.36251235 0
0.46408701 0.27061668 -0.35686487 0
0.55078888 0.29085732 -0.35376737 0
0.64754295 0.27685118 -0.34380037 0
0.79718971 0.28644043 -0.33062902 0
0.89663219 0.29660815 -0.3167944 0
0.99639463 0.28111896 -0.30605608 0
0.083148003 0.36773294 -0.37726277 0
0.15799999 0.3825157 -0.37289485 0
0.24890423 0.35984898 -0.36860916 0
0.36240482 0.36458415 -0.36270356 0
0.45335674 0.38003445 -0.35967243 0
0.54869461 0.38168672 -0.35398909 0
0.6306119 0.3737781 -0.35036799 0
0.75314331 0.40300369 -0.342127 0
0.90053749 0.4139111 -0.32325378 0
0.071070671 0.48210514 -0.38497901 0
0.16424465 0.48971164 -0.38089719 0
0.26972485 0.46724224 -0.37140095 0
0.34805107 0.4749828 -0.37121648 0
0.43935347 0.46963358 -0.36220732 0
0.53429174 0.48710755 -0.35949254 0
0.62893343 0.45379794 -0.34974235 0
0.74286842 0.49874407 -0.34686407 0
0.90105915 0.48594129 -0.32669494 0
-0.10001326 -0.45004898 -0.33154869 0
0.57240677 -0.4338029 -0.30519417 0
0.63009071 -0.42883539 -0.29572353 0
0.76244545 -0.44049898 -0.27495447 0
0.89726114 -0.39938927 -0.24834964 0
0.93413401 -0.43933228 -0.2013223 0
-0.036415577 -0.37540621 -0.33270526 0
0.67565441 -0.33027458 -0.30227312 0
0.77562904 -0.32576883 -0.28211272 0
0.85623932 -0.30279595 -0.25972942 0
0.94336987 -0.32630217 -0.22431605 0
0.83837223 -0.24170969 -0.2860136 0
0.96922493 -0.22682124 -0.28161886 0
0.94889593 -0.10327567 -0.29342675 0
0.97086859 0.013820663 -0.29197323 0
0.98186445 0.10305595 -0.29604796 0
0.97930002 -0.3991006 -0.14648984 0
0.96799231 -0.33868515 -0.16591524 0
-0.16150427 0.12726973 -0.39361745 0
-0.1076231 0.16368003 -0.39535719 0
-0.12907743 0.26663667 -0.40014961 0
-0.015737057 0.2644459 -0.39267221 0
0.11646509 0.23217344 -0.38418022 0
-0.11197519 0.34348857 -0.40333039 0
-0.00477314 0.35143727 -0.39172652 0
0.091151714 0.35431921 -0.38517493 0
-0.11128855 0.45971319 -0.40982518 0
-0.01172924 0.4607752 -0.39993298 0
0.10146141 0.45787966 -0.38557646 0
0.28700161 0.44916227 -0.37795302 0
-0.4767046 -0.46105266 -0.34117091 0
-0.38650274 -0.44230562 -0.34760398 0
-0.28827953 -0.45388275 -0.35027403 0
-0.19728613 -0.45585316 -0.34378022 0
-0.098867416 -0.45512596 -0.33266777 0
-0.019349575 -0.42155278 -0.33718604 0
0.11890411 -0.45824778 -0.34708494 0
0.30906582 -0.44115919 -0.36191535 0
0.4050169 -0.44425482 -0.34183791 0
0.50920677 -0.42136809 -0.32490349 0
0.5981288 -0.42509758 -0.3062115 0
0.70676184 -0.41915911 -0.28835666 0
-0.28482533 -0.33994532 -0.36792848 0
-0.19771004 -0.35284582 -0.35481012 0
-0.10140324 -0.35572577 -0.34334499 0
0.0041837692 -0.35394928 -0.34128737 0
0.062707901 -0.32194296 -0.3517966 0
0.21454382 -0.33239776 -0.36445379 0
0.3174057 -0.34627932 -0.35741937 0
0.41222 -0.32341036 -0.3540698 0
0.50148058 -0.32378724 -0.34107232 0
0.60416698 -0.32011634 -0.32175618 0
0.73053741 -0.35859495 -0.29529065 0
0.79567194 -0.30868769 -0.28808978 0
-0.26297617 -0.27770716 -0.36932179 0
-0.19845915 -0.24645717 -0.36578041 0
-0.1007638 -0.26290518 -0.35643139 0
-0.012190342 -0.22269602 -0.3479647 0
0.11114216 -0.26598558 -0.35813189 0
0.22538233 -0.21841314 -0.36277127 0
0.33313322 -0.22931707 -0.35810745 0
0.41259575 -0.23680897 -0.35165501 0
0.50592518 -0.24287747 -0.34141427 0
0.58771801 -0.24128072 -0.32432896 0
0.6931138 -0.24505001 -0.31342578 0
0.79743576 -0.23452948 -0.30299923 0
0.91787863 -0.20332685 -0.29213688 0
-0.19012976 -0.14511397 -0.37737548 0
-0.08976984 -0.14464548 -0.3675774 0
-0.0099453926 -0.12212513 -0.36059979 0
0.058703899 -0.094849676 -0.3660925 0
0.16640282 -0.14904958 -0.36563367 0
0.32147503 -0.11531615 -0.35986048 0
0.43074274 -0.12652414 -0.35545132 0
0.49933338 -0.10976462 -0.35120562 0
0.60816383 -0.15148692 -0.3285408 0
0.72609711 -0.15826212 -0.30854863 0
0.82445335 -0.14458567 -0.30439818 0
0.93886995 -0.14210646 -0.28943864 0
-0.19339418 -0.039817005 -0.38842371 0
-0.11362982 -0.039085984 -0.37949091 0
-0.0069441795 -0.030958176 -0.36923376 0
0.087421417 -0.046994358 -0.36299431 0
0.17342758 -0.030638382 -0.36289147 0
0.27793694 -0.040628448 -0.3626104 0
0.44314289 -0.042418122 -0.35788709 0
0.51604128 -0.024402201 -0.34757632 0
0.58290148 -0.029444769 -0.34275618 0
0.68535709 -0.043685928 -0.32563454 0
0.79136229 -0.032249808 -0.31226823 0
0.85946941 0.0089955628 -0.31667426 0
0.9672637 -0.03755638 -0.29428625 0
-0.1754384 0.043273836 -0.39062196 0
-0.10040188 0.048454911 -0.38322103 0
0.010831356 0.062098831 -0.37604603 0
0.1009779 0.051295102 -0.36385539 0
0.17933989 0.095722258 -0.36862373 0
0.30564356 0.064635321 -0.36020914 0
0.48501968 0.058486104 -0.35271451 0
0.60509443 0.062484957 -0.33539045 0
0.68296623 0.058959812 -0.32791176 0
0.7865119 0.082597047 -0.31945041 0
0.8791666 0.043111071 -0.30881503 0
0.99645948 0.047441691 -0.29247692 0
-0.15719509 0.13705418 -0.38916746 0
-0.090745926 0.14096412 -0.38417774 0
-0.0098128319 0.14368896 -0.37925953 0
0.077149868 0.16963963 -0.37628639 0
0.18875694 0.15542136 -0.36671412 0
0.29699183 0.15902229 -0.36189988 0
0.35313368 0.18172984 -0.35843712 0
0.48905611 0.16687573 -0.35337535 0
0.62653208 0.20698962 -0.34892854 0
0.70808411 0.192688 -0.33698058 0
0.80874205 0.19886048 -0.32765204 0
0.90967321 0.15755519 -0.31052592 0
-0.015119076 0.22121379 -0.38110578 0
0.094404697 0.23769249 -0.37309778 0
0.19797325 0.25403422 -0.36768907 0
0.2798543 0.25351968 -0.36642918 0
0.36250019 0.27466339 -0.35947764 0
0.46291256 0.26427585 -0.35527611 0
0.59725189 0.24096224 -0.34677526 0
0.70104074 0.28500772 -0.33981705 0
0.82958078 0.27635112 -0.32519051 0
0.93838501 0.27183849 -0.31114012 0
0.11841202 0.34624323 -0.3785204 0
0.20212555 0.37011603 -0.37271339 0
0.28512764 0.34402448 -0.36917922 0
0.36866426 0.38372874 -0.36016977 0
0.47030449 0.37581819 -0.36065212 0
0.56840897 0.33204255 -0.35566294 0
0.6877017 0.37338257 -0.34603357 0
0.79415417 0.36102873 -0.33316234 0
0.85152817 0.37578216 -0.32429862 0
0.95818949 0.36240166 -0.31218767 0
0.14078379 0.448863 -0.37648562 0
0.20438147 0.4394902 -0.37397081 0
0.28709698 0.46451861 -0.36847228 0
0.36925983 0.49484575 -0.36552 0
0.47380829 0.46510553 -0.36388922 0
0.58237219 0.45484635 -0.35796687 0
0.75697231 0.46584246 -0.34473214 0
0.8637104 0.46801805 -0.33113247 0
0.97891951 0.45244396 -0.31818163 0
0.79497242 -0.42258161 -0.27335635 0
0.91504192 -0.43169206 -0.2285284 0
0.95778131 -0.47554171 -0.17794593 0
0.83028936 -0.33536655 -0.26569906 0
0.92746639 -0.34696132 -0.24141654 0
0.97211123 -0.31329054 -0.21934843 0
0.9959116 -0.4265421 -0.13075241 0
0.99547052 -0.33503002 -0.14468434 0
0.32078981 -0.41855574 -0.35887951 0
0.40281725 -0.30363858 -0.35874137 0
0.35666609 -0.49089366 -0.34076631 0
0.45051003 -0.49642745 -0.31993634 0
0.54125404 -0.49856955 -0.30089784 0
0.75443649 -0.45167857 -0.27881628 0
0.85662937 -0.49064222 -0.24528605 0
-0.14174891 -0.41393948 -0.33799344 0
0.0093746185 -0.42568398 -0.33902094 0
0.022152901 -0.36310747 -0.3491596 0
0.20584106 -0.44425815 -0.35409537 0
0.21760416 -0.38987017 -0.36199966 0
0.37119722 -0.38837463 -0.35124436 0
0.47069502 -0.41182715 -0.32774487 0
0.56601381 -0.39554745 -0.31169301 0
0.65876102 -0.38829643 -0.29339859 0
0.8764143 -0.41369313 -0.25184783 0
0.92091465 -0.40301615 -0.21924916 0
-0.12990046 -0.33467576 -0.34533459 0
-0.070779324 -0.29989156 -0.34135857 0
0.046061039 -0.30506098 -0.3477748 0
0.22953081 -0.31796223 -0.36422515 0
0.35274744 -0.32047722 -0.35227031 0
0.4790554 -0.31849432 -0.33215797 0
0.54663706 -0.30444679 -0.33045033 0
0.6564188 -0.28999484 -0.30738685 0
0.7623148 -0.32276943 -0.28636476 0
0.85358286 -0.28911263 -0.27251065 0
0.94875908 -0.29263863 -0.24313489 0
-0.11703587 -0.23054798 -0.35700092 0
-0.055622101 -0.21619034 -0.35374168 0
0.06400013 -0.20092453 -0.35438222 0
0.20055819 -0.16061443 -0.36262006 0
0.25828123 -0.19910224 -0.36238942 0
0.38021755 -0.20241201 -0.35982245 0
0.47573662 -0.19238149 -0.34032118 0
0.55492258 -0.21376465 -0.33045721 0
0.6274929 -0.20296276 -0.32556421 0
0.71692705 -0.19062631 -0.31328326 0
0.83421326 -0.19215806 -0.29492748 0
0.95477486 -0.18867521 -0.28613713 0
-0.097870827 -0.15896608 -0.36247623 0
-0.047614098 -0.11245891 -0.36258882 0
0.067763329 -0.096729115 -0.35869852 0
0.186203 -0.11913186 -0.35835478 0
0.27396393 -0.081045285 -0.35945794 0
0.39592791 -0.10528386 -0.35730147 0
0.46927214 -0.066833571 -0.34988719 0
0.5500083 -0.10654131 -0.33901936 0
0.6229372 -0.098721221 -0.32844126 0
0.72019196 -0.091135338 -0.31491473 0
0.83272457 -0.11269547 -0.29997224 0
0.94888592 -0.082405955 -0.2917524 0
-0.048082352 -0.015693903 -0.36980301 0
0.062047958 0.0013222843 -0.36473429 0
0.15675163 0.0063865632 -0.36558294 0
0.24059248 0.030210361 -0.36169919 0
0.37259865 -0.013244212 -0.36045343 0
0.46144772 0.017127767 -0.35266 0
0.54091692 -0.011987656 -0.33916587 0
0.61505842 -0.00055296719 -0.33437505 0
0.71826363 0.0041537285 -0.32043037 0
0.83008528 -0.0068641603 -0.30681157 0
0.94455576 0.048812523 -0.30442494 0
-0.044916153 0.07399869 -0.37380999 0
0.055053234 0.085446477 -0.36818525 0
0.12862825 0.11448862 -0.36704212 0
0.21617985 0.0985507 -0.36090055 0
0.3351531 0.070823193 -0.35599881 0
0.44455051 0.11778699 -0.35932139 0
0.53121138 0.092245355 -0.34792697 0
0.60620975 0.11457296 -0.34121904 0
0.71308517 0.099737749 -0.3263337 0
0.82480478 0.10538213 -0.31577268 0
0.93905973 0.11896601 -0.30310875 0
-0.05685091 0.19197607 -0.3873615 0
0.043850422 0.20601311 -0.37512791 0
0.14576292 0.19794832 -0.36701092 0
0.29752922 0.18751639 -0.35767201 0
0.30614567 0.17370827 -0.36309415 0
0.41027069 0.18691918 -0.35661912 0
0.54301071 0.19368057 -0.34754109 0
0.69581175 0.25172168 -0.32891324 0
0.70598221 0.17366377 -0.32700661 0
0.8165102 0.21081035 -0.32434005 0
0.93283701 0.18738821 -0.30603057 0
-0.046731949 0.27283379 -0.38838804 0
0.064603329 0.30038637 -0.37861997 0
0.1766448 0.26929891 -0.36778146 0
0.2771368 0.28288886 -0.36548668 0
0.38162947 0.31294328 -0.36730307 0
0.49458647 0.29172781 -0.3547574 0
0.58327723 0.3221426 -0.35144395 0
0.6999855 0.26796252 -0.34182885 0
0.80646181 0.26298016 -0.3184019 0
0.92409801 0.28747591 -0.31705976 0
-0.11139774 0.36039615 -0.39982373 0
-0.048315525 0.39117837 -0.39828202 0
0.048482895 0.39802155 -0.38721606 0
0.1515851 0.38022345 -0.37441161 0
0.24176216 0.40578187 -0.37242141 0
0.34546947 0.38787553 -0.36070928 0
0.46187353 0.40442663 -0.36189729 0
0.56306553 0.42472148 -0.35606951 0
0.68502617 0.35972914 -0.34304234 0
0.78839302 0.41218552 -0.33421236 0
0.79906368 0.36901486 -0.33704522 0
0.90598249 0.41437373 -0.32487634 0
-0.13251495 0.47841316 -0.41312018 0
0.043521881 0.49504954 -0.3922841 0
0.13214493 0.46916986 -0.37970424 0
0.21068192 0.48776025 -0.37418512 0
0.66935062 0.45833382 -0.35076258 0
0.95729542 -0.39359081 -0.1741934 0
0.98087931 -0.3171767 -0.16740996 0
0.29961491 -0.49530929 -0.34488678 0
0.38868618 -0.49498999 -0.32918546 0
0.49488306 -0.48217469 -0.31079838 0
0.5853014 -0.47276413 -0.29425347 0
0.78106833 -0.48354012 -0.26850617 0
0.85339069 -0.44863981 -0.25567743 0
-0.18838835 -0.40613014 -0.3457526 0
-0.10712862 -0.37385494 -0.3397826 0
0.041547298 -0.44259048 -0.34554592 0
0.057961464 -0.40301701 -0.34082171 0
0.28909397 -0.42202267 -0.35995263 0
0.38554811 -0.38077867 -0.34826589 0
0.51183081 -0.38235062 -0.3222456 0
0.60378122 -0.40151113 -0.29961601 0
0.6531415 -0.39477897 -0.29014015 0
0.74854231 -0.36635688 -0.28023678 0
0.88008261 -0.37760395 -0.26151183 0
-0.11725235 -0.29123595 -0.34903857 0
0.068099976 -0.3059026 -0.3468568 0
0.26566172 -0.32331526 -0.35721424 0
0.40198088 -0.2937848 -0.35135397 0
0.50180435 -0.31734699 -0.33326054 0
0.61578131 -0.282318 -0.31551364 0
0.68121433 -0.28764269 -0.30282876 0
0.77551746 -0.2952233 -0.28568125 0
-0.10538816 -0.22021769 -0.35422474 0
-0.055740833 -0.17318888 -0.35543904 0
0.065033436 -0.1852784 -0.35702163 0
0.23719978 -0.20678245 -0.36366099 0
0.3386426 -0.16033581 -0.36237577 0
0.41032982 -0.19858058 -0.35411799 0
0.52336884 -0.19818953 -0.33377814 0
0.61510324 -0.20324944 -0.32184601 0
0.69991875 -0.17342636 -0.31588435 0
0.82446051 -0.19060239 -0.30001685 0
0.96494102 -0.17946421 -0.28686789 0
-0.1123414 -0.097785965 -0.37025383 0
-0.042978287 -0.11412789 -0.35887384 0
0.05113554 -0.071472928 -0.36501855 0
0.20805979 -0.12030719 -0.36492336 0
0.31216097 -0.10799557 -0.35841921 0
0.42802477 -0.10304958 -0.35427415 0
0.50901508 -0.070260838 -0.34289771 0
0.60241699 -0.07681334 -0.33482376 0
0.69174194 -0.11010085 -0.31712383 0
0.8177557 -0.12073101 -0.29866076 0
0.94930649 -0.068793908 -0.29337096 0
-0.11026287 -0.0031120926 -0.3778547 0
-0.016008854 0.0013034344 -0.36986732 0
0.04267931 -0.0018461943 -0.36297899 0
0.16621733 -0.010204405 -0.36643401 0
0.27268696 -0.010242596 -0.36053294 0
0.41150761 -0.019825995 -0.35654202 0
0.4948082 0.0051935017 -0.34324282 0
0.58349085 0.016442344 -0.33325556 0
0.67865181 0.019120827 -0.32537091 0
0.8091774 -0.0089975446 -0.31196186 0
0.93970633 0.02270624 -0.30193785 0
-0.11726618 0.084692344 -0.38451496 0
-0.0034389496 0.086288556 -0.37099797 0
0.13156557 0.052438557 -0.36162031 0
0.21415615 0.10078216 -0.35693064 0
0.28921938 0.095692329 -0.36003575 0
0.37047338 0.079620667 -0.36048254 0
0.47718239 0.12315528 -0.35508457 0
0.56722164 0.11014217 -0.3397851 0
0.66738844 0.066629946 -0.31939915 0
0.79225349 0.10052892 -0.31513622 0
0.92429686 0.10787654 -0.30253226 0
-0.12811518 0.17584866 -0.39149928 0
-0.015596867 0.1815719 -0.37993217 0
0.099643707 0.20442127 -0.37522954 0
0.1893115 0.21518087 -0.37002116 0
0.30912828 0.19763254 -0.35946634 0
0.42748308 0.19763875 -0.34830362 0
0.44875336 0.20667854 -0.36141557 0
0.54965591 0.21818371 -0.34865445 0
0.64977503 0.22214669 -0.341207 0
0.77562523 0.21382163 -0.32575387 0
0.90649891 0.21626152 -0.31100458 0
-0.11534357 0.25946349 -0.39653873 0
0.0068101883 0.27634883 -0.38553408 0
0.15477276 0.3168585 -0.37544444 0
0.2883606 0.27881008 -0.36820152 0
0.40242577 0.28957808 -0.35844058 0
0.5276022 0.31409422 -0.35289383 0
0.59635878 0.29921514 -0.34463048 0
0.75451183 0.30733925 -0.33042401 0
0.89021111 0.29796898 -0.31728303 0
-0.16470957 0.36162376 -0.40505683 0
0.063715458 0.37326008 -0.38733968 0
0.14457512 0.35612136 -0.37861475 0
0.25488186 0.36001223 -0.37097782 0
0.37652779 0.37462044 -0.36739594 0
0.49820375 0.40534532 -0.36271352 0
0.60378408 0.41729993 -0.35228455 0
0.73050022 0.40147379 -0.33575803 0
0.86664629 0.41149449 -0.32820493 0
0.33882141 0.45459241 -0.37040994 0
0.45804691 0.49660474 -0.36868495 0
0.58486605 0.48379773 -0.35666919 0
0.91787148 -0.47446448 -0.21415423 0
0.96103859 -0.45693207 -0.1632797 0
-0.17969799 -0.4161424 -0.33794111 0
-0.1076355 -0.39982274 -0.33310828 0
0.91144371 -0.38791347 -0.229211 0
0.95335484 -0.38954067 -0.17379934 0
0.82711935 -0.27606595 -0.26480532 0
0.91397429 -0.32935712 -0.24023961 0
0.96052885 -0.30616468 -0.2042118 0
0.042032719 -0.0016655624 -0.35552004 0
0.10472822 0.12282749 -0.35904771 0
-0.01940155 0.19109973 -0.37732849 0
0.16946316 0.23541859 -0.36205968 0
-0.11557913 0.29599124 -0.3927266 0
-0.0055828094 0.31681943 -0.38529617 0
0.077922821 0.27383789 -0.37226936 0
0.27229548 0.2831313 -0.35960317 0
-0.17904854 0.39773723 -0.40438938 0
-0.096106529 0.37229955 -0.3951959 0
-0.024638653 0.39444342 -0.39157724 0
0.074374676 0.41338533 -0.38429767 0
0.17837 0.37131661 -0.36580086 0
0.23882532 0.39839864 -0.37297139 0
0.35822868 0.39444128 -0.36334881 0
-0.21229696 0.47684813 -0.40918842 0
-0.10931158 0.49346346 -0.40581414 0
-0.031754971 0.48740298 -0.39766628 0
0.085863113 0.48661041 -0.38728073 0
0.30902481 0.49045128 -0.3666628 0
0.84659672 0.47141582 -0.32924792 0
0.99621201 -0.3755368 -0.11588903 0
0.27031517 -0.49845079 -0.35108221 0
0.35427475 -0.48871782 -0.34147882 0
0.59700775 -0.48960826 -0.2887058 0
0.0025639534 -0.36650106 -0.34096456 0
0.30192137 -0.38636476 -0.36463994 0
0.44470787 -0.38743263 -0.34105763 0
0.53668261 -0.39493933 -0.31946483 0
0.61838818 -0.40692455 -0.30093876 0
0.72992182 -0.40245545 -0.2833434 0
0.8596015 -0.40733665 -0.26344025 0
-0.30516672 -0.27309257 -0.37603375 0
0.031770706 -0.30566251 -0.34779838 0
0.28805733 -0.27142876 -0.3642258 0
0.29592466 -0.31286603 -0.36628687 0
0.39726162 -0.30594838 -0.35446018 0
0.53596735 -0.28021795 -0.33241639 0
0.65204811 -0.32236013 -0.30787745 0
0.75698614 -0.29716712 -0.29523027 0
0.81814766 -0.28506452 -0.29312235 0
0.98093081 -0.28777954 -0.26877001 0
0.98520041 -0.25297922 -0.26164782 0
-0.25863075 -0.19938277 -0.37619475 0
-0.16714287 -0.20808171 -0.36631614 0
-0.051613808 -0.16599129 -0.35790572 0
0.064773083 -0.23069111 -0.35361025 0
0.27447891 -0.20675944 -0.3625764 0
0.40012932 -0.20239393 -0.35472497 0
0.55258846 -0.18883596 -0.33329102 0
0.68229342 -0.22080396 -0.32057533 0
0.69368696 -0.18600489 -0.31354547 0
0.83145809 -0.17555565 -0.29816455 0
0.98158121 -0.17990336 -0.28478661 0
-0.25848866 -0.070287779 -0.38833353 0
-0.18142271 -0.099252239 -0.37877327 0
-0.085239887 -0.093191236 -0.3687667 0
0.083704472 -0.15806134 -0.36148924 0
0.0966115 -0.11968085 -0.35938302 0
0.25289726 -0.11787368 -0.36148036 0
0.39976883 -0.11236624 -0.35619938 0
0.53646612 -0.094048262 -0.34157526 0
0.69726372 -0.079354569 -0.31784812 0
0.83743143 -0.071716532 -0.30217853 0
0.98175621 -0.10897672 -0.29153696 0
0.98293495 -0.083347663 -0.28504124 0
-0.25616884 -0.031385586 -0.38950402 0
-0.17513943 -0.0080443174 -0.38354057 0
-0.069221497 0.0035658181 -0.37825197 0
0.031389713 0.019973844 -0.36967289 0
0.089333057 -0.044061556 -0.36337796 0
0.22711325 -0.020712465 -0.36311582 0
0.365695 0.020024851 -0.36053717 0
0.38890839 -0.049567044 -0.3607049 0
0.51897287 -0.011837393 -0.34709918 0
0.70068836 0.0035887659 -0.32271287 0
0.84070873 0.0099117607 -0.30511433 0
0.9859395 0.032552525 -0.29715747 0
-0.25220013 0.094070129 -0.39459077 0
-0.17241621 0.067433119 -0.38447139 0
-0.092200279 0.076499939 -0.37957886 0
0.03834486 0.10109933 -0.36995953 0
0.19470501 0.089820072 -0.36319911 0
0.33081293 0.1121304 -0.36012065 0
0.47885656 0.13357975 -0.35461557 0
0.53657627 0.08962097 -0.34635487 0
0.7021327 0.07239224 -0.3240203 0
0.84171486 0.10152733 -0.31222636 0
0.98768568 0.12118328 -0.29636803 0
-0.25563955 0.18456624 -0.40061566 0
-0.17445278 0.18433562 -0.3961274 0
-0.093027115 0.16065554 -0.38613021 0
0.019044876 0.19968528 -0.37812704 0
0.18117285 0.18551688 -0.36981788 0
0.30891275 0.19104439 -0.35876244 0
0.46412182 0.17719948 -0.35500869 0
0.56697273 0.2292681 -0.34826639 0
0.70016956 0.19767448 -0.33050102 0
0.84060669 0.19106039 -0.31946635 0
0.9853406 0.24257599 -0.30495161 0
-0.26849174 0.26138845 -0.40163112 0
-0.17978382 0.27041179 -0.40100542 0
-0.098001003 0.26979131 -0.39578229 0
0.019268513 0.30270302 -0.38480648 0
0.16179895 0.28971291 -0.37336808 0
0.29123831 0.26552585 -0.35798267 0
0.43813324 0.29024222 -0.36209866 0
0.56056166 0.33015192 -0.35391328 0
0.69552755 0.2841422 -0.3322311 0
0.83619165 0.30415145 -0.32600048 0
-0.29046679 0.38599452 -0.41281882 0
-0.19443035 0.39093015 -0.41091156 0
-0.078183651 0.38752857 -0.39770901 0
0.048612595 0.37930879 -0.38231206 0
0.14348507 0.40761429 -0.37723196 0
0.25858259 0.40959665 -0.36767942 0
0.27465725 0.37459362 -0.37181306 0
0.41023302 0.4070659 -0.36697429 0
0.55117989 0.40010846 -0.35703957 0
0.68824482 0.39874688 -0.34553057 0
0.82795763 0.42266732 -0.33466181 0
0.97847605 0.39209819 -0.31947994 0
-0.31207514 0.44731718 -0.41365555 0
-0.161448 0.48826784 -0.40912455 0
-0.047334194 0.48831362 -0.40131983 0
0.035237312 0.49339667 -0.39593276 0
0.38365507 0.49441987 -0.36994442 0
0.52870607 0.49993935 -0.36677653 0
0.67705631 0.49858567 -0.35129821 0
0.97768736 0.48554575 -0.32255805 0
-0.24367809 -0.49111503 -0.34120995 0
-0.074621201 -0.48075849 -0.32746214 0
0.84201336 -0.48384365 -0.25390843 0
0.94650364 -0.4745813 -0.18567157 0
-0.44188499 -0.39146972 -0.35320911 0
-0.26343298 -0.43435371 -0.34807986 0
-0.14977741 -0.3960104 -0.34171879 0
-0.024208546 -0.38875625 -0.34190854 0
0.8151226 -0.34783077 -0.25874746 0
0.92846632 -0.41238314 -0.20954037 0
-0.34351158 -0.353562 -0.36400229 0
-0.25266171 -0.29701599 -0.36384493 0
-0.1789012 -0.32664412 -0.35379088 0
-0.097276688 -0.31547213 -0.34376189 0
0.8336606 -0.27021426 -0.26995969 0
0.93649292 -0.324806 -0.21933097 0
-0.12364149 -0.19808576 -0.35704544 0
-0.060451508 -0.21347648 -0.35034555 0
0.97201061 -0.37748757 -0.14805569 0
0.029607773 -0.47130769 -0.34537333 0
0.097062111 -0.48341653 -0.33976901 0
0.33307838 -0.49740925 -0.3448773 0
0.82638216 -0.47350973 -0.25817734 0
0.89019442 -0.48266566 -0.23820764 0
0.15006828 -0.43527466 -0.35025838 0
0.20153904 -0.39842042 -0.35729852 0
0.35596991 -0.42740798 -0.34899294 0
0.40292931 -0.40631482 -0.34262148 0
0.53341389 -0.39714521 -0.3182717 0
0.61738062 -0.39578068 -0.30288786 0
0.73123598 -0.42198032 -0.28187546 0
0.88375902 -0.38624698 -0.25440204 0
0.23713112 -0.3119708 -0.3649435 0
0.37529516 -0.3064236 -0.3496893 0
0.46809244 -0.30679566 -0.34111369 0
0.58207512 -0.29030567 -0.32395545 0
0.69774437 -0.31480336 -0.29845566 0
0.81990099 -0.27531302 -0.27771634 0
0.8821702 -0.30655313 -0.27611935 0
0.23550701 -0.22686316 -0.3614507 0
0.38648558 -0.19606097 -0.3553817 0
0.48426628 -0.16998532 -0.34491438 0
0.59834242 -0.18151069 -0.32944772 0
0.71741962 -0.18716551 -0.31288463 0
0.83743715 -0.21790276 -0.2955718 0
0.87790489 -0.17238702 -0.29669678 0
-0.082273483 -0.089392975 -0.37225717 0
0.0095090866 -0.10388939 -0.35874033 0
0.22511053 -0.099716082 -0.36318704 0
0.39232635 -0.091592938 -0.35744283 0
0.4927516 -0.073804408 -0.34561121 0
0.60810518 -0.08251749 -0.32866156 0
0.7407589 -0.081871763 -0.31465352 0
0.89248466 -0.087179095 -0.29967669 0
-0.058193207 -0.013422236 -0.374935 0
0.035133362 -0.00058571994 -0.37337315 0
0.054570675 0.035575703 -0.37007239 0
0.20667171 0.029221907 -0.36536172 0
0.3834548 -0.010946259 -0.35988051 0
0.49712276 -0.00029778481 -0.34642375 0
0.61665249 0.034713969 -0.33395758 0
0.7602644 0.022120059 -0.31623185 0
0.91378546 0.019278824 -0.30112422 0
-0.044039726 0.084391169 -0.3789292 0
0.064576149 0.11483934 -0.36736888 0
0.19530153 0.092119358 -0.35873047 0
0.36209059 0.093851976 -0.36185703 0
0.49873018 0.062776282 -0.35060686 0
0.62670898 0.13121119 -0.34161738 0
0.77119589 0.14782149 -0.33101237 0
0.93050194 0.13247152 -0.30468985 0
-0.034748554 0.21575128 -0.39060926 0
0.069914818 0.17825931 -0.36425239 0
0.19347668 0.18668161 -0.36263484 0
0.34274721 0.21899135 -0.3633869 0
0.49915981 0.18072274 -0.35861945 0
0.63493633 0.18920219 -0.33895203 0
0.78043604 0.20652047 -0.32782474 0
0.94001198 0.23901036 -0.31330338 0
-0.033163071 0.29044214 -0.39144114 0
0.07066679 0.28954929 -0.37928259 0
0.1871376 0.28728515 -0.36902148 0
0.33626604 0.30929679 -0.36489299 0
0.49320936 0.31359118 -0.35839 0
0.6408391 0.26133257 -0.34048727 0
0.64338255 0.3130337 -0.34291387 0
0.78905725 0.30130592 -0.32860005 0
0.94718027 0.31460047 -0.31374487 0
-0.036077499 0.38520381 -0.39470214 0
0.06846714 0.39047253 -0.38325086 0
0.17563438 0.39308032 -0.37028635 0
0.32500172 0.3825517 -0.36249989 0
0.47777462 0.42477468 -0.35797203 0
0.64483881 0.41865915 -0.35329303 0
0.79317379 0.42965925 -0.33729529 0
0.95245314 0.38109338 -0.31070673 0
0.063626289 0.4628498 -0.38479656 0
0.17004299 0.47230795 -0.37168315 0
0.30826616 0.48752964 -0.36891893 0
0.79377842 0.49397099 -0.33560717 0
0.96296024 0.49879912 -0.3231478 0
-0.36929035 -0.4970226 -0.33649272 0
0.92483044 -0.48970979 -0.20099053 0
0.97029734 -0.4617199 -0.15232019 0
-0.20104885 -0.42144287 -0.34580541 0
-0.1218071 -0.37014908 -0.34521893 0
0.9208231 -0.38068551 -0.21198277 0
0.96239471 -0.38031012 -0.16072032 0
-0.17667103 -0.31303787 -0.35595426 0
-0.081813812 -0.30740798 -0.34565645 0
0.98462105 -0.31750828 -0.18927085 0
-0.10495663 -0.22289924 -0.35859528 0
-0.02464819 -0.20965651 -0.34673363 0
-0.10712624 -0.15432036 -0.36716354 0
0.99862099 -0.37463188 -0.117188 0
0.7502141 -0.23672225 -0.31209826 0
0.61235046 -0.16738419 -0.34502795 0
0.9374299 -0.18895577 -0.29786652 0
0.6532979 -0.055856451 -0.33074406 0
0.80215025 -0.088717863 -0.31520361 0
0.96976995 -0.10613225 -0.29519638 0
0.99187422 -0.042156041 -0.29570523 0
0.39783192 0.0058454573 -0.37241036 0
0.53501701 0.030301645 -0.34875792 0
0.67335129 -0.0028477758 -0.32949048 0
0.68827152 0.05289337 -0.33203781 0
0.84349823 0.0093726665 -0.31122747 0
0.39452696 0.14037903 -0.3717348 0
0.54880953 0.11311394 -0.34868556 0
0.70439911 0.15446229 -0.34461516 0
0.86948299 0.11741014 -0.31877989 0
0.56073666 0.16730423 -0.35105854 0
0.57333422 0.1964146 -0.34521225 0
0.72692823 0.23725507 -0.34477597 0
0.8895874 0.18745224 -0.31944776 0
0.40211487 0.30417067 -0.3686187 0
0.5896163 0.31434673 -0.35559672 0
0.75158405 0.32939106 -0.34142932 0
0.91032839 0.30883473 -0.33059174 0
0.40674019 0.39055848 -0.37280032 0
0.60199976 0.4115414 -0.3626762 0
0.7669754 0.38083926 -0.3347286 0
0.77429628 0.46356493 -0.34437078 0
0.93555403 0.42917949 -0.33335072 0
0.40622711 0.49428111 -0.36817428 0
0.61492777 0.4967646 -0.35925189 0
0.25985193 -0.48924908 -0.35871771 0
0.35769272 -0.49504903 -0.34432113 0
0.53946352 -0.46518344 -0.31178254 0
0.724154 -0.49261367 -0.28367892 0
0.83898306 -0.47302991 -0.26111558 0
0.90348864 -0.47692722 -0.21890025 0
0.31909704 -0.38225859 -0.36499697 0
0.4222784 -0.39424872 -0.34708592 0
0.54261923 -0.36288124 -0.32691318 0
0.62178802 -0.41180336 -0.3011581 0
0.73942518 -0.34987625 -0.29106683 0
0.92002964 -0.35951203 -0.21492055 0
0.34095621 -0.32358396 -0.35946882 0
0.46838188 -0.28862596 -0.34863558 0
0.62534857 -0.31465951 -0.31714639 0
0.71193695 -0.32182479 -0.30102873 0
0.84136963 -0.3239978 -0.2718842 0
0.95109224 -0.2939862 -0.23184909 0
0.36501122 -0.2078287 -0.36352864 0
0.49533081 -0.17563505 -0.34901857 0
0.63289928 -0.16524296 -0.32270813 0
0.77132273 -0.20735271 -0.3043479 0
0.38725615 -0.073205218 -0.37114203 0
0.5169096 -0.10104942 -0.341746 0
0.39866018 0.036133885 -0.35987076 0
0.38991785 0.15444472 -0.36127758 0
0.39348698 0.21483248 -0.36473975 0
0.40840721 0.39965582 -0.36220282 0
0.9444313 -0.46504441 -0.16484842 0
0.95023298 -0.4041169 -0.15475577 0
0.97466183 -0.38652232 -0.1354505 0
0.28823185 -0.46974862 -0.35861483 0
0.34202719 -0.42176467 -0.3561849 0
0.40287542 -0.4119485 -0.34367889 0
0.31554747 -0.31180423 -0.3682487 0
0.42619658 -0.2760663 -0.354588 0
0.5663228 -0.24676637 -0.33021775 0
0.30850744 -0.23410788 -0.36609891 0
0.4307971 -0.19901352 -0.35485426 0
0.56830931 -0.17431848 -0.33692548 0
0.71231079 -0.17850509 -0.31799337 0
0.90234137 -0.19047886 -0.29851353 0
0.28192329 -0.092462063 -0.37425786 0
0.29481316 -0.13662843 -0.37625843 0
0.4341774 -0.091714561 -0.35568789 0
0.56984091 -0.09512122 -0.34339586 0
0.72943878 -0.078909799 -0.3173534 0
0.91355228 -0.090465203 -0.29636854 0
0.25902796 -0.014002681 -0.3740153 0
0.43460608 -0.0227938 -0.35498464 0
0.57071829 -0.017637014 -0.34244534 0
0.7367425 0.0037732273 -0.32456028 0
0.92490053 0.029497728 -0.30550265 0
0.4247818 0.089851573 -0.36382008 0
0.56954861 0.074159235 -0.3461132 0
0.74485397 0.10193612 -0.33031827 0
0.93349075 0.11849273 -0.30789489 0
0.57725954 0.21148565 -0.34522074 0
0.7525363 0.20448929 -0.33019257 0
0.93946886 0.21484536 -0.31138209 0
0.57775211 0.32797623 -0.3565768 0
0.75449944 0.34491652 -0.34729093 0
0.94252443 0.32038254 -0.31929082 0
0.57646322 0.41975224 -0.36282453 0
0.75468302 0.40815556 -0.34373644 0
0.94339275 0.38100824 -0.31994706 0
0.57387781 0.48528022 -0.36692044 0
0.7526741 0.46199888 -0.33816171 0
0.94732904 0.47884023 -0.32669976 0
-0.42691708 -0.48059568 -0.34056884 0
-0.26903772 -0.47308815 -0.34780154 0
-0.18216276 -0.49550849 -0.33732498 0
0.4599061 -0.49001563 -0.3215937 0
0.74765825 -0.47293267 -0.28198829 0
0.84960222 -0.47722828 -0.25629446 0
0.91109896 -0.48539993 -0.20921357 0
-0.8387785 -0.42433363 -0.3849819 0
-0.76515865 -0.42732269 -0.37484622 0
-0.65972185 -0.41143954 -0.37045172 0
-0.55689335 -0.43323439 -0.35383722 0
-0.47523117 -0.40896595 -0.3518115 0
-0.39143753 -0.38867396 -0.36038366 0
-0.24615955 -0.40212816 -0.35718054 0
-0.13710785 -0.40398625 -0.34330297 0
-0.10477543 -0.40328139 -0.3297756 0
0.42319489 -0.37778312 -0.33953571 0
0.51653481 -0.40566686 -0.32014409 0
0.60517931 -0.42651618 -0.30070865 0
0.7439189 -0.42358983 -0.26837596 0
0.87912321 -0.3998903 -0.25273818 0
0.91166592 -0.35283142 -0.2271356 0
-0.76558924 -0.29650289 -0.39435127 0
-0.64676189 -0.34098691 -0.38616544 0
-0.5516839 -0.33232936 -0.38027591 0
-0.46310091 -0.32783034 -0.37220621 0
-0.34715414 -0.31577167 -0.37687397 0
-0.27184248 -0.31697768 -0.36872897 0
-0.18430424 -0.29713321 -0.35777265 0
-0.083137512 -0.28752616 -0.35094938 0
0.55709124 -0.31623521 -0.32639569 0
0.64788485 -0.33784246 -0.30616909 0
0.72549438 -0.29072952 -0.29622686 0
0.8129673 -0.24752612 -0.29283652 0
0.95351219 -0.30124119 -0.2283904 0
-0.72605848 -0.21158543 -0.39606461 0
-0.6654973 -0.22492024 -0.39421773 0
-0.59437656 -0.2048898 -0.39674681 0
-0.46303034 -0.23282875 -0.39163795 0
-0.34817314 -0.20448843 -0.39131388 0
-0.25882721 -0.20360491 -0.38043654 0
-0.16745806 -0.23721763 -0.36581156 0
-0.054143906 -0.22155559 -0.35517067 0
0.72201204 -0.14157355 -0.31349751 0
0.90743494 -0.16389586 -0.29201484 0
-0.69864798 -0.10400428 -0.40624362 0
-0.56614017 -0.11058521 -0.40314436 0
-0.43486738 -0.12316771 -0.40015233 0
-0.32874537 -0.12603009 -0.39535517 0
-0.25825214 -0.10813919 -0.38695878 0
-0.13070583 -0.14734107 -0.37189272 0
-0.069768429 -0.12453905 -0.36831528 0
-0.0060157776 -0.10844426 -0.36184156 0
-0.68267059 -0.02765128 -0.41254467 0
-0.54380703 -0.012594178 -0.40958604 0
-0.42548656 -0.02377072 -0.4033803 0
-0.31090641 -0.0056272149 -0.39850155 0
-0.21212387 -0.0060699135 -0.39059031 0
-0.091632843 -0.020213887 -0.37684345 0
0.021001339 -0.039966524 -0.36589402 0
0.23382378 0.00215514 -0.3571049 0
-0.66433048 0.084172964 -0.42011538 0
-0.5344553 0.099175535 -0.41441289 0
-0.42179823 0.082405522 -0.4077456 0
-0.30372477 0.078732751 -0.40174675 0
-0.20200157 0.095532484 -0.39379957 0
-0.082007408 0.098667614 -0.38796723 0
0.041550159 0.094073787 -0.37572503 0
0.21023369 0.12453429 -0.36889878 0
0.39263105 0.14806731 -0.35716632 0
0.57386923 0.10743184 -0.33664709 0
-0.65181065 0.17396449 -0.42151332 0
-0.53827953 0.22229697 -0.42542523 0
-0.4233284 0.16408889 -0.41190326 0
-0.30428457 0.1496653 -0.40142179 0
-0.19791603 0.20447005 -0.40307891 0
-0.076422215 0.19074409 -0.39206073 0
0.045096874 0.20371923 -0.38280213 0
0.2001977 0.20286363 -0.36649728 0
0.38072968 0.21402428 -0.36209828 0
-0.65480614 0.24598259 -0.42106691 0
-0.55078793 0.28896546 -0.42083251 0
-0.43080711 0.27932224 -0.42030498 0
-0.31165028 0.28675815 -0.41484916 0
-0.19719982 0.27777109 -0.40366837 0
-0.075966835 0.2839492 -0.39280191 0
0.044583321 0.28040415 -0.3823005 0
0.18883371 0.28207356 -0.36890689 0
0.36828804 0.31037951 -0.36759245 0
-0.67457581 0.3732793 -0.43100211 0
-0.57171106 0.39215761 -0.42712545 0
-0.44839859 0.37415808 -0.42231846 0
-0.33053064 0.40840033 -0.41930193 0
-0.32201719 0.37169805 -0.41803867 0
-0.20312023 0.3847658 -0.40946546 0
-0.080969334 0.37505007 -0.39739868 0
0.038926125 0.41135329 -0.39034995 0
0.16922474 0.41090047 -0.37916654 0
0.17973757 0.37923765 -0.38367891 0
0.3531661 0.37338439 -0.36471489 0
-0.69671202 0.46506196 -0.43491086 0
-0.59075594 0.48985302 -0.43579838 0
-0.34843016 0.46695882 -0.41989207 0
-0.22280884 0.49724436 -0.41889268 0
-0.090189934 0.46845472 -0.40128729 0
0.033736706 0.48215151 -0.39583144 0
0.16628695 0.44944042 -0.37934238 0
0.32956696 0.47745305 -0.36950114 0
-0.509974 -0.47234994 -0.33845773 0
0.95602417 -0.46202636 -0.1565614 0
0.99398756 -0.48704657 -0.11202702 0
-0.89832401 -0.46080256 -0.37634543 0
-0.75971317 -0.46404272 -0.36685142 0
-0.69396305 -0.46288466 -0.36029062 0
0.95837879 -0.35926765 -0.15817602 0
0.98261118 -0.36439544 -0.12463923 0
0.8704443 0.10155471 -0.31332386 0
0.66101646 0.21478204 -0.34353703 0
0.87552977 0.18915693 -0.31327862 0
0.87637329 0.31988603 -0.31950098 0
0.8744421 0.40913808 -0.33077112 0
-0.1750803 -0.48560578 -0.33725718 0
0.5441184 -0.45169801 -0.30441457 0
0.86726379 -0.4979994 -0.23421595 0
0.91904688 -0.47124222 -0.192265 0
-0.32595062 -0.3708027 -0.3616257 0
-0.25532913 -0.43012318 -0.34817877 0
-0.13754463 -0.4277367 -0.33778191 0
0.3509531 -0.39292678 -0.35490736 0
0.4568243 -0.40158361 -0.33274484 0
0.57262945 -0.38361475 -0.31053913 0
0.71042585 -0.35837126 -0.29430249 0
0.7328968 -0.34350508 -0.283622 0
0.88506413 -0.39930379 -0.23410729 0
0.94992018 -0.37632132 -0.20348683 0
-0.44527769 -0.28081721 -0.38023737 0
-0.30714178 -0.30563417 -0.370592 0
-0.20942783 -0.32534772 -0.35651734 0
-0.091173172 -0.33869314 -0.34224358 0
-0.035469055 -0.26816791 -0.34781238 0
0.36584234 -0.33920342 -0.34659216 0
0.50206232 -0.30843776 -0.33271241 0
0.60592604 -0.33229804 -0.31002638 0
0.80796194 -0.28799313 -0.271415 0
0.85769701 -0.28872722 -0.27624443 0
0.92206383 -0.32697785 -0.19508427 0
-0.52315283 -0.21952716 -0.39116636 0
-0.38640642 -0.26188767 -0.38268393 0
-0.33874989 -0.2192741 -0.38213822 0
-0.25983095 -0.21987808 -0.37114957 0
-0.16719246 -0.22558743 -0.36387372 0
0.064648628 -0.21107146 -0.36410198 0
0.13286209 -0.22487785 -0.35458434 0
0.36928511 -0.22786374 -0.35629806 0
0.50828886 -0.20116979 -0.34013003 0
0.63977718 -0.19309452 -0.32044846 0
-0.49638748 -0.11012854 -0.40354815 0
-0.35020828 -0.098460823 -0.39385766 0
-0.23470306 -0.1204429 -0.38410735 0
-0.1289835 -0.12567776 -0.37188607 0
0.11575747 -0.0719513 -0.38103101 0
0.36795139 -0.12635517 -0.35602704 0
0.5097208 -0.11811087 -0.34044638 0
0.85337162 -0.101225 -0.30205214 0
-0.48262405 -0.046594232 -0.40681306 0
-0.47996616 -0.033549204 -0.40071976 0
-0.34002495 0.013331637 -0.40282106 0
-0.22184038 -0.022278219 -0.38866338 0
-0.096939087 -0.0068870932 -0.37855837 0
0.079958916 -0.01930131 -0.36579481 0
0.31661797 0.039115444 -0.36218494 0
0.33764458 0.030157357 -0.3733142 0
0.50852489 0.0014535934 -0.35173544 0
0.64823008 -0.015144125 -0.33115074 0
0.8632865 -0.018176019 -0.30354196 0
-0.62732363 0.077471226 -0.41545719 0
-0.4788065 0.073304132 -0.4103426 0
-0.33807516 0.080743037 -0.40038824 0
-0.21174288 0.078650266 -0.39067435 0
-0.08784771 0.078296699 -0.38015649 0
0.059417725 0.088370085 -0.36836731 0
0.28068161 0.11675289 -0.3603664 0
0.50541925 0.079560965 -0.35187015 0
0.65771866 0.088070363 -0.33069298 0
-0.61935425 0.19378924 -0.42574161 0
-0.48283482 0.18733473 -0.41709113 0
-0.34167671 0.15453242 -0.39997101 0
-0.20829821 0.19721971 -0.40156624 0
-0.08374548 0.18170954 -0.38627434 0
0.060671806 0.18378067 -0.37077892 0
0.26324511 0.21662648 -0.36796695 0
0.49860764 0.18791759 -0.35354948 0
0.66202307 0.25075108 -0.33892995 0
0.87705278 0.23063813 -0.30935496 0
-0.63093042 0.27971154 -0.42657992 0
-0.49180031 0.28529787 -0.42359936 0
-0.35019588 0.27224118 -0.41239327 0
-0.20832443 0.27630341 -0.40792513 0
-0.085180283 0.27852049 -0.3904222 0
0.057823658 0.31158808 -0.38303995 0
0.2472167 0.29224074 -0.36798671 0
0.49649525 0.29003474 -0.36000013 0
0.66140842 0.30834973 -0.34278432 0
-0.65522623 0.39415056 -0.43089402 0
-0.51493216 0.37371564 -0.42399031 0
-0.37173796 0.39474711 -0.41978425 0
-0.21745777 0.38251698 -0.4107734 0
-0.09280777 0.40241206 -0.40300867 0
-0.088836193 0.35365003 -0.39954334 0
0.052920818 0.37087721 -0.3822583 0
0.22909164 0.42184395 -0.38496998 0
0.47744513 0.3832432 -0.36505893 0
0.65773106 0.39387673 -0.34365737 0
-0.67564201 0.47706303 -0.43658087 0
-0.55380487 0.47963142 -0.42436168 0
-0.3950448 0.4624455 -0.42005861 0
-0.10126734 0.46081716 -0.40280199 0
0.045092106 0.48200113 -0.39543164 0
0.21445322 0.4490343 -0.3794322 0
-0.32230377 -0.49510658 -0.33997622 0
0.9630971 -0.49610868 -0.13198805 0
-0.82514811 -0.46433249 -0.37093121 0
-0.73341465 -0.41896284 -0.37336212 0
-0.63740349 -0.45126987 -0.35476175 0
-0.52766609 -0.41733772 -0.35231364 0
-0.40729284 -0.36901435 -0.36296394 0
0.96430731 -0.37867221 -0.13875304 0
-0.73042583 -0.32637763 -0.38319594 0
-0.63163042 -0.35985565 -0.37862062 0
-0.5347724 -0.32600373 -0.37664765 0
-0.69265938 -0.19476965 -0.39927065 0
-0.67961931 -0.21100171 -0.38714439 0
-0.66176081 -0.1006548 -0.40410778 0
-0.64306164 -0.024204418 -0.40834606 0
-0.63031769 0.23652633 -0.41526267 0
-0.64607716 0.33259162 -0.42289698 0
-0.53907108 0.40211365 -0.41315097 0
-0.67678308 0.46694201 -0.43325415 0
0.35154676 -0.49274287 -0.34545997 0
0.48672676 -0.48273057 -0.31568012 0
0.77278662 -0.48007733 -0.27551043 0
0.38607883 -0.3887893 -0.35687891 0
0.51224804 -0.41313553 -0.32225573 0
0.62785435 -0.43440849 -0.29396164 0
0.65410185 -0.35453197 -0.30289 0
0.77038288 -0.37228462 -0.28010792 0
0.39892626 -0.30303386 -0.35143632 0
0.54421806 -0.30362797 -0.33396554 0
0.67918444 -0.26842925 -0.31380999 0
0.8234272 -0.29445863 -0.28005105 0
0.39055061 -0.17696764 -0.35812986 0
0.54349232 -0.16994743 -0.33966339 0
0.70353746 -0.16381116 -0.32079205 0
0.90340996 -0.17167871 -0.2979044 0
0.3647294 -0.085487112 -0.36069649 0
0.53401566 -0.076542929 -0.34326032 0
0.70128727 -0.10643247 -0.31602019 0
0.89760828 -0.09670262 -0.29610762 0
0.30605745 0.008898899 -0.36124218 0
0.5263443 -0.012591124 -0.3462469 0
0.69724035 0.013078123 -0.32472017 0
0.89271927 0.039129481 -0.30881345 0
0.23915339 0.13753329 -0.36611331 0
0.51301098 0.089713737 -0.35300681 0
0.69084406 0.13100003 -0.33573833 0
0.88557434 0.14669654 -0.31524229 0
0.48841906 0.19700584 -0.35492128 0
0.681952 0.23002407 -0.34245002 0
0.87870646 0.25009084 -0.32887718 0
-0.11695004 0.2826125 -0.40818238 0
0.011092663 0.30146205 -0.39415807 0
0.19262028 0.28113326 -0.3717446 0
0.45679951 0.33235538 -0.37109879 0
0.67084503 0.30745983 -0.34323892 0
0.8669157 0.31567472 -0.32495162 0
0.40716887 0.45053232 -0.37553331 0
0.43316984 0.36341804 -0.36563754 0
0.65611076 0.41676223 -0.35277215 0
0.85289955 0.43609875 -0.33793938 0
0.36792564 0.494672 -0.36822033 0
-0.9068253 -0.49867004 -0.36529917 0
-0.57767916 -0.49223644 -0.34101981 0
-0.51332235 -0.47805655 -0.3380121 0
-0.23238659 -0.47378647 -0.34351146 0
0.90245295 -0.47209495 -0.22577885 0
0.96868372 -0.49854091 -0.15096283 0
-0.99417543 -0.4281472 -0.37721691 0
-0.95222998 -0.46870834 -0.36571419 0
-0.80376863 -0.41596362 -0.38151461 0
-0.68848658 -0.42875242 -0.36961192 0
-0.60721254 -0.42822981 -0.36121944 0
-0.44515467 -0.41068694 -0.35057074 0
-0.32629824 -0.38831499 -0.36239129 0
-0.19425631 -0.37549388 -0.35026622 0
-0.094806671 -0.42701322 -0.33203167 0
0.89775705 -0.35455501 -0.24798881 0
0.94581175 -0.38719118 -0.18434805 0
-0.90576649 -0.33712667 -0.3934136 0
-0.86292362 -0.31784496 -0.39283505 0
-0.75093031 -0.32202601 -0.38458401 0
-0.61088896 -0.32129842 -0.38753837 0
-0.52079439 -0.3374508 -0.37644085 0
-0.45846319 -0.32034224 -0.37443435 0
-0.30093431 -0.32025743 -0.37122259 0
-0.16788244 -0.28251275 -0.36071187 0
-0.068475246 -0.32141733 -0.34648627 0
-0.050599575 -0.26441401 -0.35199356 0
0.89143896 -0.28942275 -0.24896941 0
0.99148655 -0.32076362 -0.20987009 0
-0.93271923 -0.19479509 -0.41662174 0
-0.83945704 -0.21228892 -0.40286446 0
-0.73214149 -0.24266335 -0.38880894 0
-0.57573748 -0.22691891 -0.39223787 0
-0.40051889 -0.23999895 -0.3887412 0
-0.27769852 -0.22128835 -0.38421491 0
-0.14347267 -0.17861296 -0.37412319 0
-0.029505253 -0.19963674 -0.35730907 0
-0.91546679 -0.12944064 -0.41850534 0
-0.82456636 -0.1396994 -0.40932477 0
-0.7187624 -0.12675014 -0.40255231 0
-0.56388092 -0.16657388 -0.39411139 0
-0.38198948 -0.11503097 -0.39820746 0
-0.2483449 -0.11926608 -0.38662678 0
-0.11276722 -0.091426358 -0.3781552 0
0.0028839111 -0.10036823 -0.36396414 0
-0.98791003 -0.011331499 -0.43591583 0
-0.89885855 -0.036727294 -0.42513099 0
-0.80671358 -0.053556651 -0.41386992 0
-0.70635891 -0.04144524 -0.40510306 0
-0.5541029 -0.03236185 -0.40854535 0
-0.38653326 -0.039969176 -0.39786473 0
-0.24473286 -0.0040250421 -0.39161202 0
-0.10424852 0.011616662 -0.38420451 0
0.033025742 -0.027341545 -0.36354586 0
-0.98808241 0.095095605 -0.44489974 0
-0.8880806 0.057380989 -0.4321337 0
-0.791852 0.075754195 -0.42555869 0
-0.69524765 0.065539286 -0.41775373 0
-0.55034781 0.089401603 -0.4182609 0
-0.39480639 0.051457733 -0.40485647 0
-0.24758101 0.095866546 -0.39827511 0
-0.10706854 0.10725802 -0.38795245 0
0.03062439 0.075479314 -0.37313589 0
-0.9999845 0.14197232 -0.44185004 0
-0.9008007 0.15997279 -0.43548703 0
-0.79936981 0.21897995 -0.43967295 0
-0.68928194 0.17159289 -0.4267782 0
-0.56032085 0.15876247 -0.42138067 0
-0.412395 0.17608388 -0.4132053 0
-0.2563448 0.21646373 -0.40958911 0
-0.11196947 0.20897907 -0.39945346 0
0.021089554 0.19400759 -0.38231805 0
0.21232605 0.19357932 -0.36084816 0
-0.92377138 0.26967913 -0.44335631 0
-0.81893063 0.28156817 -0.43863538 0
-0.70335245 0.27376238 -0.43270543 0
-0.58342981 0.27864891 -0.4297232 0
-0.57225943 0.2434634 -0.43010202 0
-0.43785715 0.29147416 -0.41840413 0
-0.26948643 0.2440089 -0.40214422 0
-0.12293673 0.30893236 -0.40369675 0
0.0042562485 0.33228499 -0.39241987 0
0.17232561 0.34453031 -0.37653837 0
-0.95172691 0.37318617 -0.45138893 0
-0.85233068 0.38781905 -0.44349402 0
-0.72716808 0.37752569 -0.44261584 0
-0.61624813 0.37147129 -0.43117157 0
-0.46800518 0.39102212 -0.42590243 0
-0.28959179 0.36946511 -0.41945562 0
-0.13291788 0.35662729 -0.40215063 0
-0.0046982765 0.38574016 -0.39554298 0
0.15440893 0.41361481 -0.37792861 0
-0.93416476 0.48032397 -0.45574293 0
-0.86241341 0.4523316 -0.45421338 0
-0.76849413 0.48763877 -0.44608513 0
-0.65831852 0.47009414 -0.43108159 0
-0.50502157 0.48790783 -0.43228465 0
-0.1534152 0.4701857 -0.41194203 0
-0.025730133 0.49035704 -0.40192831 0
0.13705111 0.49534774 -0.38191104 0
0.998487 -0.47174257 -0.11286343 0
0.99789286 -0.39175883 -0.11806521 0
