# .PCD v0.7 - Point Cloud Data file format
VERSION 0.7
FIELDS x y z intensity
SIZE 4 4 4 4
TYPE F F F F
COUNT 1 1 1 1
WIDTH 1295
HEIGHT 1
VIEWPOINT 0 0 0 1 0 0 0
POINTS 1295
DATA ascii
0.99860001 0.14473343 -0.36099872 0
0.58538055 0.24458838 -0.35836637 0
0.65764236 0.25625372 -0.35849074 0
0.77561569 0.24906254 -0.36082223 0
0.89371872 0.23417711 -0.36105305 0
0.98421669 0.25700808 -0.36041239 0
0.56994057 0.33944941 -0.35908833 0
0.68094063 0.33806562 -0.35803699 0
0.77885246 0.35063267 -0.36446071 0
0.87169075 0.33677435 -0.35845715 0
0.97439003 0.36443806 -0.36583573 0
0.58236885 0.45949411 -0.36047575 0
0.68256187 0.42730665 -0.35910815 0
0.78522301 0.44183779 -0.36416546 0
0.84790802 0.43136644 -0.35601395 0
0.94563293 0.45603418 -0.36136839 0
0.39793396 -0.4650116 -0.35278445 0
0.50367546 -0.44772816 -0.35344517 0
0.60525513 -0.48634815 -0.35226622 0
0.7077961 -0.44941425 -0.34474435 0
0.81860733 -0.4822731 -0.34803879 0
0.90492821 -0.4975853 -0.33827353 0
0.99800301 -0.4578371 -0.34143659 0
0.39738655 -0.34932232 -0.35596529 0
0.4939537 -0.35047197 -0.35525861 0
0.5875473 -0.38963413 -0.35092008 0
0.68554497 -0.37083006 -0.35327548 0
0.81282043 -0.35715055 -0.35000959 0
0.93036652 -0.36973667 -0.34923708 0
0.38689423 -0.27401686 -0.35178062 0
0.49800682 -0.25947475 -0.35258597 0
0.60374069 -0.2798419 -0.35210434 0
0.68033791 -0.24920177 -0.35334569 0
0.76452065 -0.25639772 -0.34957567 0
0.88684654 -0.26354742 -0.35167027 0
0.39363861 -0.16337109 -0.35078511 0
0.50593376 -0.15228462 -0.35375997 0
0.61698151 -0.15702581 -0.35584691 0
0.68569565 -0.1679697 -0.35150525 0
0.77595329 -0.16402149 -0.35661379 0
0.86727905 -0.15269089 -0.3533237 0
0.99099541 -0.19015026 -0.3485058 0
0.39494324 -0.066246986 -0.35059595 0
0.50470352 -0.075538635 -0.3515822 0
0.6185627 -0.057986259 -0.35409999 0
0.69064331 -0.052545547 -0.35290769 0
0.77739525 -0.053923607 -0.35277632 0
0.87427711 -0.044620514 -0.35664955 0
0.97276115 -0.061310291 -0.35500497 0
0.39188385 0.038022518 -0.35156125 0
0.50868225 0.034992218 -0.35436919 0
0.61873627 0.053178787 -0.35819957 0
0.68462372 0.044467926 -0.35027236 0
0.77368546 0.044622898 -0.35066146 0
0.86982536 0.025703907 -0.35197678 0
0.97235489 0.036661625 -0.35444847 0
0.41943932 0.14446878 -0.35099617 0
0.49661446 0.12340832 -0.35362878 0
0.61099243 0.13920355 -0.35730851 0
0.68320084 0.16833353 -0.35678303 0
0.76913071 0.12502337 -0.35092768 0
0.86623192 0.13982916 -0.35422841 0
0.96539307 0.13003397 -0.35269412 0
0.40762329 0.24518824 -0.35463411 0
0.52690125 0.23745966 -0.35756296 0
0.5989418 0.23185205 -0.35534289 0
0.67361641 0.25654268 -0.35689175 0
0.7684021 0.23157454 -0.3579556 0
0.854496 0.25120115 -0.35606778 0
0.95670891 0.22224283 -0.3541925 0
0.39680862 0.3557806 -0.3565484 0
0.50624466 0.34217024 -0.35536051 0
0.5997963 0.35097504 -0.35579616 0
0.69952202 0.35901737 -0.35513902 0
0.80804062 0.34355164 -0.3584097 0
0.93445587 0.35419846 -0.35500616 0
0.34119797 0.44995356 -0.35797778 0
0.41781044 0.45155239 -0.35975254 0
0.48314857 0.43738651 -0.35425532 0
0.59023094 0.4312501 -0.35378605 0
0.72951126 0.43200779 -0.35479376 0
0.82302475 0.44364834 -0.35681558 0
0.90997505 0.4701395 -0.3542648 0
0.17149925 -0.45754099 -0.35564813 0
0.2459259 -0.45370722 -0.35532901 0
0.32467461 -0.43380547 -0.35310817 0
0.43053436 -0.46223116 -0.35703567 0
0.55380821 -0.46226215 -0.35219792 0
0.64559364 -0.4497695 -0.35752752 0
0.74094391 -0.44112825 -0.35063049 0
0.8268795 -0.45455647 -0.35103068 0
0.93652534 -0.43836927 -0.34828255 0
0.18216896 -0.40011168 -0.35086325 0
0.22649002 -0.35286665 -0.35405797 0
0.33858299 -0.34202576 -0.35443559 0
0.42699242 -0.384202 -0.35566384 0
0.5299015 -0.34800196 -0.35451236 0
0.65398026 -0.38737106 -0.34648454 0
0.75885773 -0.32447433 -0.35448942 0
0.84190369 -0.36539984 -0.34885025 0
0.95102882 -0.35961246 -0.35062426 0
0.2370224 -0.2462883 -0.35074478 0
0.34985542 -0.24164486 -0.35690674 0
0.4241848 -0.25515699 -0.35730696 0
0.52743912 -0.24829769 -0.35453269 0
0.64384842 -0.26155186 -0.3571634 0
0.76703644 -0.2421422 -0.35382089 0
0.85704422 -0.24888992 -0.35206032 0
0.97049713 -0.25837946 -0.35215086 0
0.237463 -0.1230917 -0.35786152 0
0.35505867 -0.15571833 -0.35689071 0
0.42840195 -0.17030716 -0.35609755 0
0.50389862 -0.1512394 -0.3561115 0
0.63606644 -0.15449572 -0.35519761 0
0.75188255 -0.14104128 -0.35642526 0
0.86536598 -0.15701294 -0.3538208 0
0.98841858 -0.14933968 -0.3548961 0
0.239748 -0.063660622 -0.35219657 0
0.35624123 -0.049094677 -0.3571091 0
0.42661667 -0.073552608 -0.35341814 0
0.52670097 -0.060469151 -0.34959593 0
0.62637138 -0.037486076 -0.35830551 0
0.74678612 -0.036966324 -0.35633686 0
0.87060928 -0.048052311 -0.35544154 0
0.9896431 -0.068933487 -0.35301349 0
0.24350929 0.046761036 -0.35353491 0
0.34875107 0.062052727 -0.35437143 0
0.42074966 0.049545288 -0.35271057 0
0.49889183 0.048410416 -0.35614687 0
0.61777878 0.052471161 -0.35489205 0
0.74638557 0.046530247 -0.35732195 0
0.86750984 0.020143032 -0.35220003 0
0.98874283 0.034040451 -0.35253412 0
0.24106789 0.14417696 -0.35288858 0
0.34018707 0.15581751 -0.35278058 0
0.42920303 0.15945721 -0.35125321 0
0.51993561 0.13872957 -0.35414299 0
0.65089035 0.1531539 -0.35686544 0
0.7728157 0.15810251 -0.35828459 0
0.86825562 0.12816191 -0.35715848 0
0.99126434 0.12906218 -0.35808647 0
0.22789192 0.26564455 -0.35703692 0
0.33159256 0.26772165 -0.35596493 0
0.42156219 0.25581646 -0.35374641 0
0.57292175 0.24584818 -0.35726967 0
0.67466927 0.26153564 -0.36447364 0
0.76404953 0.23164129 -0.35692462 0
0.85524178 0.23692703 -0.35696107 0
0.98009872 0.28945971 -0.3633422 0
0.98979187 0.22361135 -0.36328647 0
0.17074966 0.34947348 -0.35344404 0
0.24776649 0.34187841 -0.3560549 0
0.33075142 0.36869335 -0.35522726 0
0.45060539 0.32127237 -0.35506675 0
0.55922318 0.36325502 -0.35930452 0
0.65602684 0.33624268 -0.35929674 0
0.75546646 0.3217802 -0.35903433 0
0.84093475 0.33939457 -0.35718066 0
0.96281242 0.33515024 -0.35822251 0
0.1487236 0.44407558 -0.35389158 0
0.2462101 0.44558001 -0.35802841 0
0.3375473 0.46081018 -0.35623133 0
0.43892288 0.4346199 -0.36064315 0
0.54030609 0.45096254 -0.35868794 0
0.63132858 0.42838907 -0.35498929 0
0.73490906 0.40526772 -0.35538039 0
0.82224083 0.43455029 -0.35590595 0
0.94147301 0.44836092 -0.35857898 0
0.06162262 -0.454741 -0.35250604 0
0.16833687 -0.47050428 -0.35522828 0
0.25357819 -0.44375753 -0.35158589 0
0.33038521 -0.46622753 -0.35622618 0
0.42648315 -0.44520807 -0.35249096 0
0.51481628 -0.47366905 -0.3544029 0
0.61452675 -0.4644742 -0.34751448 0
0.71030617 -0.46233225 -0.34795982 0
0.82722473 -0.46066713 -0.34770137 0
0.94711113 -0.45028973 -0.34510449 0
0.033985138 -0.36025143 -0.34862104 0
0.15668106 -0.36156845 -0.35252902 0
0.27635765 -0.30522394 -0.36057115 0
0.34862137 -0.35028553 -0.35678071 0
0.44438171 -0.32974052 -0.35321793 0
0.53542709 -0.35558939 -0.35828131 0
0.63586044 -0.33071375 -0.35380289 0
0.72820091 -0.34148407 -0.35084894 0
0.84683228 -0.35923195 -0.35402098 0
0.96710396 -0.33954811 -0.34620824 0
0.047842026 -0.26565075 -0.35251436 0
0.13910484 -0.25422764 -0.35377488 0
0.24873734 -0.24097395 -0.35587806 0
0.35656929 -0.24836588 -0.3534542 0
0.44939804 -0.24605799 -0.35023284 0
0.54953957 -0.25007534 -0.36002338 0
0.64486313 -0.24604321 -0.35400924 0
0.73705864 -0.25482273 -0.3512027 0
0.85494423 -0.28659439 -0.34763086 0
0.98645782 -0.24086189 -0.34865713 0
0.062192917 -0.13189316 -0.35501286 0
0.16439629 -0.17200899 -0.34957287 0
0.25675774 -0.15336275 -0.35342357 0
0.36069107 -0.15387154 -0.35367647 0
0.4581852 -0.15376043 -0.35707748 0
0.55641365 -0.15577602 -0.35915253 0
0.65139198 -0.1444416 -0.3540372 0
0.74363327 -0.16709042 -0.35237181 0
0.8699894 -0.15967894 -0.35540983 0
0.99996567 -0.16574192 -0.35202461 0
0.063764572 -0.035234451 -0.3523469 0
0.13293839 -0.071568966 -0.35184547 0
0.2562294 -0.059749126 -0.35226867 0
0.36243629 -0.045428276 -0.35545218 0
0.46044159 -0.059504032 -0.35940215 0
0.55129242 -0.056346893 -0.35350305 0
0.65390778 -0.037233829 -0.35409942 0
0.74970245 -0.038691044 -0.35578445 0
0.87217331 -0.081677914 -0.35350007 0
0.061784744 0.042270184 -0.35162067 0
0.13434601 0.034316063 -0.35344774 0
0.23589516 0.037006855 -0.35465735 0
0.36033821 0.036218166 -0.3564845 0
0.45031357 0.03630352 -0.35404295 0
0.54326057 0.065139294 -0.35268879 0
0.64847374 0.035945415 -0.35253951 0
0.74347878 0.047548771 -0.35128051 0
0.87290382 0.033882141 -0.35402817 0
0.06312561 0.14532375 -0.35772479 0
0.14962196 0.14127207 -0.35192269 0
0.25787163 0.13693714 -0.35542715 0
0.35192299 0.11587477 -0.35356283 0
0.43990898 0.13999462 -0.35140979 0
0.54408264 0.17950487 -0.35965794 0
0.6393795 0.14323378 -0.35243544 0
0.74261093 0.12373209 -0.35411829 0
0.86401939 0.12607574 -0.35015222 0
0.051244736 0.26007748 -0.3587122 0
0.17511749 0.2471137 -0.356897 0
0.2671814 0.2298913 -0.35507518 0
0.34284973 0.25114155 -0.35626015 0
0.42814636 0.27151823 -0.35329443 0
0.53264236 0.23275042 -0.35524827 0
0.63295555 0.25790882 -0.35561746 0
0.74341583 0.24898863 -0.36252022 0
0.85826111 0.25798607 -0.3577348 0
0.99508667 0.26059341 -0.35795581 0
0.055633545 0.36132002 -0.35533199 0
0.14627266 0.33553934 -0.35598084 0
0.25127792 0.33020878 -0.35466897 0
0.32220459 0.36914873 -0.35503882 0
0.42697906 0.30870438 -0.35553315 0
0.5182209 0.36382151 -0.35771546 0
0.62167168 0.34161186 -0.35582432 0
0.72287178 0.31448889 -0.3543843 0
0.84639931 0.31040764 -0.35510722 0
0.98265266 0.34517622 -0.35923669 0
0.0045795441 0.43123007 -0.35283431 0
0.062013626 0.46864462 -0.35701844 0
0.14478302 0.46928406 -0.35461351 0
0.25367355 0.4677062 -0.35493535 0
0.35598755 0.46099806 -0.35810846 0
0.4553318 0.43077374 -0.35677484 0
0.59104156 0.45996428 -0.35152474 0
0.6150074 0.45380545 -0.36313859 0
0.71749306 0.43945789 -0.36313275 0
0.83198929 0.44085836 -0.35908568 0
0.95515442 0.44245148 -0.35511768 0
-0.1008606 -0.44589138 -0.35639879 0
-0.025281906 -0.46129799 -0.35127202 0
0.097753525 -0.46435356 -0.35511863 0
0.228508 -0.44564056 -0.35578904 0
0.32996178 -0.44918776 -0.35611841 0
0.42752266 -0.47036552 -0.35695332 0
0.53848648 -0.43786478 -0.35421878 0
0.63676453 -0.45879889 -0.35963288 0
0.76836205 -0.44107914 -0.35289526 0
0.88786507 -0.48130035 -0.35060504 0
-0.079532623 -0.34827614 -0.35321635 0
-0.0031204224 -0.34080458 -0.35461283 0
0.075918198 -0.34938908 -0.35715294 0
0.18552971 -0.35843229 -0.35675114 0
0.34598923 -0.33024216 -0.3557699 0
0.448452 -0.34905195 -0.35695294 0
0.55207634 -0.35096407 -0.35448751 0
0.65300941 -0.35614491 -0.35700333 0
0.78852272 -0.31504631 -0.35950723 0
0.91027832 -0.36907053 -0.35046694 0
-0.063966751 -0.24690485 -0.35184038 0
0.0094242096 -0.25200796 -0.35193229 0
0.085203171 -0.25756025 -0.35319346 0
0.1686573 -0.2519145 -0.35468811 0
0.2523632 -0.25148153 -0.35657489 0
0.35332298 -0.24762011 -0.35592839 0
0.4585762 -0.24146938 -0.35662478 0
0.56399918 -0.25524569 -0.35609308 0
0.66304016 -0.26102781 -0.35389835 0
0.79170609 -0.26762533 -0.35498863 0
0.93878746 -0.22782278 -0.35729229 0
-0.014287949 -0.14462137 -0.35643479 0
0.096696854 -0.14118719 -0.35567921 0
0.17584991 -0.14872026 -0.35627067 0
0.25812912 -0.15813112 -0.35700634 0
0.35722923 -0.16290474 -0.35598856 0
0.46198845 -0.15569973 -0.35678211 0
0.57057953 -0.17418146 -0.35589218 0
0.67230415 -0.1432128 -0.3552708 0
0.80060196 -0.14796019 -0.35532263 0
0.94143105 -0.18224573 -0.35179889 0
-0.010354996 -0.060691833 -0.35601833 0
0.10175705 -0.051620483 -0.35631132 0
0.17552185 -0.050515175 -0.35301015 0
0.25325012 -0.075171947 -0.35028923 0
0.36027527 -0.048751831 -0.35828209 0
0.45954323 -0.055974007 -0.35467893 0
0.57402992 -0.074166298 -0.35799772 0
0.67613029 -0.032217979 -0.35596675 0
0.80819511 -0.018889427 -0.35906389 0
0.95115662 -0.058365345 -0.35689244 0
-0.0022525787 0.050365448 -0.35869133 0
0.099229813 0.036588669 -0.35410005 0
0.19363022 0.058823109 -0.35269493 0
0.25775146 0.035185337 -0.35721448 0
0.35280609 0.037137985 -0.35457063 0
0.45606804 0.058843613 -0.35623726 0
0.57138062 0.04583931 -0.35996592 0
0.6744194 0.074344635 -0.35833627 0
0.8026104 0.020625591 -0.35266057 0
0.95206261 0.033434391 -0.35632429 0
-0.061820984 0.19864607 -0.3536835 0
-0.021083832 0.14351416 -0.35737446 0
0.10815048 0.14523363 -0.36527303 0
0.18676758 0.16688299 -0.35271487 0
0.28158379 0.15464544 -0.35469371 0
0.35273743 0.15241432 -0.3592281 0
0.45001602 0.15948153 -0.35609481 0
0.56234932 0.14671135 -0.35807279 0
0.66454315 0.12325096 -0.35382903 0
0.80315399 0.13426685 -0.35711706 0
0.95449638 0.15459442 -0.36210069 0
-0.065984726 0.2837019 -0.35847494 0
0.009677887 0.24780607 -0.35586748 0
0.094013214 0.25036573 -0.36171934 0
0.21895218 0.25915289 -0.35482401 0
0.33307838 0.22514439 -0.34964707 0
0.44090462 0.26394653 -0.3563081 0
0.55303383 0.24962473 -0.357328 0
0.65849876 0.2372179 -0.3560856 0
0.79359436 0.25572586 -0.35797259 0
0.94038391 0.24507761 -0.35877091 0
-0.077701569 0.34356689 -0.35796028 0
-0.007642746 0.33728647 -0.35437864 0
0.090356827 0.3453536 -0.35639131 0
0.19147873 0.33432293 -0.35681948 0
0.32816696 0.32891273 -0.3553758 0
0.43092155 0.3444171 -0.35689902 0
0.53796577 0.34546423 -0.35543871 0
0.65447235 0.39662933 -0.36582536 0
0.78215599 0.34940004 -0.35791764 0
0.92852211 0.32216454 -0.35918134 0
-0.092302322 0.43732595 -0.36108664 0
0.0012226105 0.43582487 -0.35685956 0
0.10500336 0.4402647 -0.35968864 0
0.21294403 0.44398451 -0.35819218 0
0.31631088 0.41043282 -0.35673538 0
0.41366577 0.44549036 -0.35746947 0
0.52822495 0.45179701 -0.360277 0
0.63446808 0.45866919 -0.36056164 0
0.76109314 0.45265675 -0.35559276 0
0.90851593 0.45109129 -0.35991505 0
-0.27823639 -0.44553375 -0.35838842 0
-0.20398903 -0.45344496 -0.35719937 0
-0.095293045 -0.45508242 -0.36064449 0
0.019556046 -0.44901228 -0.35834965 0
0.14261627 -0.45513487 -0.35372052 0
0.25138474 -0.44628525 -0.35648146 0
0.3561821 -0.49550009 -0.36094031 0
0.36812973 -0.43447113 -0.35960647 0
0.47005653 -0.43399096 -0.35573956 0
0.60450554 -0.41669512 -0.3583459 0
0.73054695 -0.49067211 -0.35221782 0
0.87286377 -0.45666075 -0.35537162 0
-0.25631714 -0.34560108 -0.35586596 0
-0.1859169 -0.36952162 -0.35376677 0
-0.10948372 -0.36810684 -0.35668838 0
-0.0084323883 -0.36031389 -0.35612419 0
0.10755157 -0.35278559 -0.35900009 0
0.15999031 -0.33408308 -0.35695899 0
0.26392174 -0.34631109 -0.35529414 0
0.3776207 -0.36864805 -0.36013448 0
0.48624039 -0.32265663 -0.35577169 0
0.61682129 -0.33692789 -0.36040419 0
0.75158882 -0.3599534 -0.35805953 0
0.88849068 -0.37641811 -0.35143393 0
-0.20118523 -0.23476887 -0.35877281 0
-0.091274261 -0.25634193 -0.35819986 0
-0.014436722 -0.25947189 -0.35621351 0
0.067604065 -0.25600243 -0.36026046 0
0.17122269 -0.2436862 -0.36211354 0
0.27433586 -0.2443924 -0.35866296 0
0.38726044 -0.26882696 -0.36173126 0
0.49381065 -0.25605154 -0.35627103 0
0.62269402 -0.28022385 -0.35849237 0
0.75738335 -0.29134464 -0.35235092 0
0.76792145 -0.21135235 -0.35878387 0
0.91496658 -0.24405098 -0.35546067 0
-0.18022537 -0.14515448 -0.35807657 0
-0.082191467 -0.16338491 -0.35665095 0
-0.0047550201 -0.15587997 -0.35593244 0
0.075613022 -0.15106344 -0.35829383 0
0.17162323 -0.16888046 -0.3567746 0
0.2788868 -0.15380526 -0.35927603 0
0.39071083 -0.14628363 -0.35921705 0
0.498909 -0.1723218 -0.35857084 0
0.63150787 -0.18194628 -0.35880634 0
0.77311516 -0.13709593 -0.35939085 0
0.92966652 -0.11974764 -0.36001644 0
-0.20287704 -0.051817417 -0.36224699 0
-0.076004028 -0.042267323 -0.3574262 0
0.0048713684 -0.047665596 -0.3613449 0
0.078689575 -0.050874233 -0.35603464 0
0.17560577 -0.056328773 -0.35877472 0
0.28119659 -0.034300804 -0.36137462 0
0.39111328 -0.052595139 -0.35950574 0
0.5027256 -0.058580399 -0.3624163 0
0.63900185 -0.077291965 -0.36173722 0
0.7775631 -0.034915447 -0.36060971 0
0.93312645 -0.04893446 -0.36013472 0
-0.19663429 0.043363094 -0.36176938 0
-0.073450089 0.055084229 -0.36036742 0
-0.0021152496 0.035927296 -0.35381785 0
0.080171585 0.049583435 -0.35752431 0
0.17435837 0.032590866 -0.35709047 0
0.27394295 0.055890083 -0.35773537 0
0.39001083 0.047617435 -0.36214072 0
0.49633026 0.053057671 -0.36105445 0
0.6427803 0.044716835 -0.36627346 0
0.77527046 0.045886993 -0.35730726 0
0.93715477 0.070802689 -0.36275989 0
-0.18137741 0.15011215 -0.36396053 0
-0.076438904 0.15700197 -0.36180684 0
0.00020980835 0.15838194 -0.36078793 0
0.079660416 0.1364789 -0.36024359 0
0.17018509 0.15190887 -0.35774934 0
0.26712608 0.14653158 -0.35530189 0
0.37988091 0.12869406 -0.35659519 0
0.49149895 0.16545773 -0.36200297 0
0.6295948 0.13897038 -0.36075205 0
0.7751503 0.16847849 -0.36140472 0
0.93144798 0.12618828 -0.3583433 0
-0.24437332 0.29078579 -0.36154583 0
-0.19054413 0.2449379 -0.36257944 0
-0.084688187 0.25103998 -0.36271667 0
-0.010080338 0.24355125 -0.3595652 0
0.069824219 0.22425222 -0.35856733 0
0.19663239 0.25278616 -0.35914731 0
0.2624836 0.29551363 -0.36146638 0
0.37057304 0.22999763 -0.35534695 0
0.47864151 0.25774479 -0.35768151 0
0.62021255 0.24761486 -0.35929236 0
0.75943565 0.26560068 -0.35611728 0
0.76242065 0.21392441 -0.35471177 0
0.92325211 0.24711943 -0.36177376 0
-0.25729179 0.32050657 -0.35746017 0
-0.17033005 0.33472061 -0.36459783 0
-0.093341827 0.3549242 -0.36661708 0
0.01543045 0.34778404 -0.36007592 0
0.12394714 0.33235645 -0.36122262 0
0.25652885 0.3621583 -0.36336383 0
0.34727669 0.38771629 -0.35409307 0
0.36247063 0.35463667 -0.35983554 0
0.46283531 0.31679583 -0.35195798 0
0.61355209 0.35676622 -0.36286613 0
0.76446533 0.36066198 -0.36662772 0
-0.27101707 0.41430426 -0.36083922 0
-0.18861198 0.43542528 -0.36580634 0
-0.079139709 0.44673061 -0.36289665 0
0.021888733 0.44691038 -0.36640739 0
0.13626862 0.43492937 -0.36031976 0
0.24514198 0.45605421 -0.36589524 0
0.34789276 0.47807932 -0.36351937 0
0.45439148 0.48219442 -0.3629258 0
0.46465111 0.41130257 -0.361541 0
0.60173416 0.46237659 -0.36527848 0
0.74763107 0.44625664 -0.36382619 0
0.90259552 0.42903852 -0.36609238 0
-0.45323563 -0.44670439 -0.35771316 0
-0.37954712 -0.46008968 -0.35504702 0
-0.28030014 -0.47883892 -0.35374942 0
-0.16229439 -0.4539113 -0.35511959 0
-0.044174194 -0.45990849 -0.35196987 0
0.063272476 -0.46564436 -0.35718316 0
0.18238258 -0.44839859 -0.35807276 0
0.28964996 -0.46689034 -0.35712391 0
0.42709351 -0.46961975 -0.35686868 0
0.56669617 -0.47020149 -0.35148007 0
0.71677017 -0.46320295 -0.35631439 0
0.85853386 -0.44894361 -0.3523716 0
-0.4331398 -0.35745811 -0.3565298 0
-0.354702 -0.34302902 -0.35893151 0
-0.28577042 -0.38209343 -0.3573809 0
-0.18645668 -0.37929535 -0.359218 0
-0.07178688 -0.33928347 -0.35881042 0
0.041519165 -0.36070919 -0.35080695 0
0.19011879 -0.36296606 -0.35267356 0
0.29982948 -0.37530661 -0.35172325 0
0.44334984 -0.36877012 -0.3584637 0
0.58535194 -0.3493948 -0.35672128 0
0.72705078 -0.38119555 -0.35172695 0
0.86661339 -0.4062438 -0.35099897 0
0.87978172 -0.33371353 -0.35472783 0
-0.39004135 -0.25085497 -0.35917649 0
-0.26827812 -0.2772913 -0.35762289 0
-0.18896866 -0.26299381 -0.35489082 0
-0.11058807 -0.26305819 -0.35359854 0
-0.012760162 -0.25159216 -0.35710332 0
0.088460922 -0.23852396 -0.35516256 0
0.20336151 -0.2274518 -0.35691041 0
0.31194496 -0.25293398 -0.35700086 0
0.4529686 -0.27795839 -0.3578853 0
0.59225273 -0.28280926 -0.35531044 0
0.74232483 -0.25721931 -0.35649207 0
0.89010429 -0.28131771 -0.3510578 0
-0.35976601 -0.14024639 -0.36035112 0
-0.25354576 -0.14911127 -0.35871327 0
-0.17678833 -0.1347971 -0.35523835 0
-0.097305298 -0.1386857 -0.35649931 0
-0.0039100647 -0.15001583 -0.35533294 0
0.088699341 -0.1665082 -0.34839469 0
0.20521545 -0.14171219 -0.35612947 0
0.31597328 -0.15882158 -0.35790959 0
0.46160507 -0.15308428 -0.36307189 0
0.60338593 -0.16338348 -0.35890076 0
0.74598694 -0.17218924 -0.35291401 0
0.90437889 -0.15197039 -0.35596058 0
-0.37540245 -0.066075325 -0.35744378 0
-0.26555824 -0.036104679 -0.36032638 0
-0.17292595 -0.026166439 -0.35549641 0
-0.088960648 -0.039755821 -0.36145699 0
-0.004693985 -0.0913167 -0.35054868 0
0.099781036 -0.047599792 -0.35668454 0
0.20407104 -0.055924892 -0.35512394 0
0.31170654 -0.054142475 -0.35450435 0
0.45723152 -0.071507454 -0.35889778 0
0.60896492 -0.05094862 -0.36062044 0
0.75284386 -0.044793129 -0.35644931 0
0.90673065 -0.06197691 -0.35335195 0
-0.3657589 0.058202744 -0.36031669 0
-0.26813698 0.051867485 -0.35855043 0
-0.17057419 0.058875561 -0.35848713 0
-0.089820862 0.027146339 -0.35982814 0
0.0024356842 0.037012577 -0.35739189 0
0.096019745 0.040235996 -0.35282329 0
0.20378876 0.032447815 -0.35570303 0
0.30864906 0.073585033 -0.35672212 0
0.4490757 0.039161205 -0.35636041 0
0.60271835 0.014563084 -0.35809392 0
0.75412178 0.063054085 -0.35830796 0
0.91005325 0.031224728 -0.35555068 0
-0.36774826 0.16055346 -0.35936451 0
-0.25512505 0.15077066 -0.35806105 0
-0.17175674 0.14622688 -0.3612093 0
-0.090492249 0.13594294 -0.36242265 0
-0.0039348602 0.15141535 -0.35630533 0
0.095808029 0.13412237 -0.35609308 0
0.19950104 0.13414335 -0.35500666 0
0.30630302 0.16902065 -0.35825327 0
0.44374084 0.16378307 -0.35745689 0
0.59797859 0.13070107 -0.36092034 0
0.7455101 0.1459341 -0.3538835 0
0.91258621 0.13576126 -0.35990137 0
-0.36729431 0.27084541 -0.36016497 0
-0.26305199 0.26230335 -0.3605445 0
-0.18031502 0.26197577 -0.36290058 0
-0.1033802 0.25661278 -0.36089516 0
-0.011878967 0.24850702 -0.3571091 0
0.089374542 0.24538612 -0.35825729 0
0.1926403 0.25026608 -0.35708725 0
0.29681969 0.23965263 -0.35514525 0
0.4322319 0.26225328 -0.35476309 0
0.57893753 0.26349115 -0.35344452 0
0.58811378 0.20789862 -0.35673934 0
0.74079895 0.25863791 -0.35685399 0
0.90061378 0.25008726 -0.35993266 0
-0.43213272 0.35790014 -0.36102554 0
-0.38661766 0.3431983 -0.36324492 0
-0.27733421 0.34274292 -0.35973573 0
-0.17038345 0.35696697 -0.36130074 0
-0.057832718 0.36258888 -0.35869977 0
0.028406143 0.34328556 -0.35917127 0
0.15057564 0.35802174 -0.35615107 0
0.29069519 0.34757566 -0.35932133 0
0.57393074 0.35754824 -0.35748565 0
0.73836327 0.37473392 -0.36377299 0
0.88058281 0.38618183 -0.35977432 0
0.88955879 0.343606 -0.36214119 0
-0.45036125 0.47063303 -0.36501154 0
-0.37027359 0.44559145 -0.36310318 0
-0.26578331 0.45898485 -0.36420125 0
-0.16644859 0.43909788 -0.36058852 0
-0.048490524 0.4570713 -0.35644844 0
0.057380676 0.4463172 -0.35771242 0
0.16001511 0.44924688 -0.35547259 0
0.27307892 0.45588064 -0.3592703 0
0.42001534 0.43077135 -0.36105439 0
0.56118965 0.41422796 -0.35469484 0
0.72854614 0.44973803 -0.36419335 0
0.87048721 0.42247057 -0.3566168 0
-0.62356949 -0.43613005 -0.36116135 0
-0.5537014 -0.46176195 -0.35952482 0
-0.44578171 -0.46455145 -0.35924053 0
-0.33236504 -0.4361515 -0.36011556 0
-0.21777534 -0.4406414 -0.35665503 0
-0.12335587 -0.46208954 -0.35574892 0
-0.0089015961 -0.44399023 -0.35674176 0
0.098890305 -0.45486879 -0.3516421 0
0.24206161 -0.45115852 -0.35486385 0
0.3864975 -0.48698568 -0.3583588 0
0.54057312 -0.44827557 -0.36068588 0
0.68625832 -0.4539752 -0.35501334 0
0.86147499 -0.46131277 -0.34996283 0
-0.59765625 -0.31806803 -0.36274391 0
-0.5286274 -0.34898949 -0.35880527 0
-0.45067406 -0.33802366 -0.36058652 0
-0.34331131 -0.35123825 -0.35779184 0
-0.20368767 -0.36262178 -0.35300133 0
-0.1047554 -0.36261511 -0.35603243 0
0.0047264099 -0.34638739 -0.35850683 0
0.10551834 -0.36852646 -0.34550348 0
0.10948753 -0.37553358 -0.35434419 0
0.2544899 -0.34829044 -0.35653195 0
0.40615654 -0.35674334 -0.36004978 0
0.5544281 -0.35078096 -0.35949346 0
0.70000267 -0.35978222 -0.35796103 0
0.87795448 -0.37375307 -0.3522357 0
-0.53861237 -0.23110533 -0.36318296 0
-0.43349838 -0.22261572 -0.35974959 0
-0.35952568 -0.25162125 -0.35859194 0
-0.26298904 -0.25278854 -0.3572472 0
-0.15489006 -0.25797939 -0.35799944 0
-0.085573196 -0.22700453 -0.35865685 0
0.012254715 -0.27089167 -0.35585693 0
0.1220932 -0.24057341 -0.35748196 0
0.25966835 -0.25419903 -0.35548735 0
0.40947723 -0.2776823 -0.35586837 0
0.41312027 -0.21633482 -0.3576847 0
0.56155586 -0.26921225 -0.35565346 0
0.70996284 -0.24312305 -0.35393658 0
0.71155739 -0.26617765 -0.36045218 0
0.90014648 -0.25284433 -0.35490409 0
-0.53761482 -0.14648771 -0.36173299 0
-0.42457581 -0.14449167 -0.36165348 0
-0.34768867 -0.14924145 -0.36131385 0
-0.27141953 -0.15496874 -0.35823673 0
-0.17704773 -0.14539766 -0.35718304 0
-0.083810806 -0.1725111 -0.35311842 0
0.021783829 -0.15466881 -0.35408866 0
0.12710571 -0.12662411 -0.35770273 0
0.26291084 -0.15681458 -0.3555176 0
0.40821457 -0.13795567 -0.35176143 0
0.41568184 -0.1589613 -0.35938051 0
0.57344055 -0.14263201 -0.35993946 0
0.71785736 -0.16522408 -0.35797602 0
0.91693497 -0.11345768 -0.36135095 0
-0.54514122 -0.042103291 -0.36104894 0
-0.41802788 -0.059971809 -0.36393717 0
-0.34201622 -0.060682774 -0.36171696 0
-0.26268005 -0.056923866 -0.36295426 0
-0.17242432 -0.065870285 -0.35804483 0
-0.075403214 -0.072469234 -0.35749426 0
0.025299072 -0.051428318 -0.35301214 0
0.12627411 -0.038676262 -0.3530952 0
0.2655468 -0.066222668 -0.3586804 0
0.41983223 -0.022764206 -0.36488795 0
0.57276344 -0.036985397 -0.36027986 0
0.7252388 -0.07004118 -0.36233151 0
0.91238976 -0.094320774 -0.35334414 0
-0.54002571 0.066990852 -0.36160371 0
-0.44151878 0.046165943 -0.36430213 0
-0.34200096 0.026848793 -0.36053851 0
-0.26417351 0.039096355 -0.36012799 0
-0.16919327 0.044151783 -0.36052802 0
-0.072105408 0.039008141 -0.35971048 0
0.024892807 0.030033588 -0.35267401 0
0.12321281 0.03888607 -0.35043931 0
0.25553322 0.033201694 -0.35296983 0
0.40508842 0.061009884 -0.35621858 0
0.41589928 0.016179562 -0.36281219 0
0.56468391 0.06704855 -0.35870844 0
0.72240829 0.04770422 -0.35849312 0
0.91225052 0.0096511841 -0.35021344 0
0.92182732 0.0036530495 -0.36104169 0
-0.53025436 0.15784168 -0.36163834 0
-0.42489433 0.14613152 -0.36049521 0
-0.34209633 0.15430593 -0.36459315 0
-0.26706123 0.15781355 -0.36188835 0
-0.17360687 0.16484737 -0.36105254 0
-0.071178436 0.16520262 -0.36422539 0
0.030708313 0.15990353 -0.36188316 0
0.12784576 0.13550758 -0.35750511 0
0.25485992 0.13781071 -0.35553408 0
0.40449905 0.14953423 -0.35876018 0
0.55474854 0.15237713 -0.35452148 0
0.72004509 0.17746258 -0.3618857 0
0.89938354 0.16360188 -0.34650201 0
0.92195702 0.13956594 -0.36144623 0
-0.58997726 0.2965436 -0.36337674 0
-0.54931641 0.25492716 -0.36594516 0
-0.42987633 0.25096321 -0.36428496 0
-0.35603714 0.24545145 -0.36074901 0
-0.24833679 0.22623396 -0.35693434 0
-0.088359833 0.25732327 -0.35755232 0
-0.034385681 0.23855019 -0.35731322 0
0.052562714 0.25771999 -0.35901088 0
0.12493896 0.24398565 -0.3612822 0
0.25073814 0.23201275 -0.35699016 0
0.39711571 0.23682499 -0.35716215 0
0.55743217 0.25872707 -0.36166576 0
0.70794296 0.25545979 -0.35590941 0
0.7189579 0.24049759 -0.36359063 0
0.89915848 0.26726007 -0.35560441 0
-0.59932709 0.34287739 -0.36284363 0
-0.521698 0.33755398 -0.36302403 0
-0.44202614 0.33867788 -0.3645494 0
-0.34004021 0.35413122 -0.36086038 0
-0.22016525 0.34985447 -0.36039561 0
-0.12358856 0.33744574 -0.36277112 0
-0.0032939911 0.34428358 -0.35220453 0
0.0629673 0.36870718 -0.36330569 0
0.23787117 0.34509563 -0.35622573 0
0.38821983 0.34289217 -0.35801852 0
0.5531311 0.35286283 -0.36478126 0
0.70664406 0.36098623 -0.36213183 0
0.8877697 0.35483217 -0.35644254 0
-0.612957 0.43552208 -0.36617854 0
-0.53928185 0.44845438 -0.36590981 0
-0.44755936 0.44965267 -0.36499065 0
-0.32598114 0.46218157 -0.36796355 0
-0.20401573 0.45881462 -0.36668348 0
-0.1110096 0.45091438 -0.36198375 0
-0.0066051483 0.43730783 -0.35934487 0
0.099086761 0.43594217 -0.36069283 0
0.23022461 0.46404314 -0.36228296 0
0.37674904 0.43471718 -0.3589538 0
0.536726 0.43651056 -0.36099076 0
0.69085312 0.45566607 -0.35984105 0
0.87631416 0.44828415 -0.35666218 0
0.52264786 0.49655533 -0.35832995 0
-0.79701424 -0.4151392 -0.3608382 0
-0.72624207 -0.43769121 -0.35973716 0
-0.62615585 -0.44949913 -0.35726592 0
-0.50983429 -0.4271698 -0.35853276 0
-0.39783669 -0.44043064 -0.35162932 0
-0.29965401 -0.44471788 -0.3544617 0
-0.19798279 -0.46047878 -0.35462511 0
-0.093137741 -0.44203854 -0.35385722 0
0.043455124 -0.46468019 -0.35182571 0
0.19602966 -0.45174837 -0.35244334 0
0.36032486 -0.43215752 -0.35883182 0
0.50468636 -0.43429327 -0.35216457 0
0.68885422 -0.44691849 -0.35290965 0
0.88322449 -0.42292309 -0.34919623 0
-0.77498245 -0.31101847 -0.36629671 0
-0.71035004 -0.36310339 -0.36169484 0
-0.63285065 -0.35339689 -0.35945702 0
-0.51584435 -0.351717 -0.35615388 0
-0.37773323 -0.32658005 -0.35558984 0
-0.28478432 -0.35245848 -0.35241252 0
-0.17915535 -0.34887648 -0.35591218 0
-0.079538345 -0.34647989 -0.35121214 0
0.052154541 -0.37139654 -0.35044518 0
0.2038517 -0.34986925 -0.35152337 0
0.36294556 -0.37101173 -0.35375607 0
0.51717377 -0.33809423 -0.35505459 0
0.69958305 -0.34385967 -0.35116938 0
0.90324211 -0.3095932 -0.35439757 0
-0.77057266 -0.271173 -0.35744065 0
-0.71526718 -0.23943615 -0.36107889 0
-0.61992264 -0.27122307 -0.358574 0
-0.53840637 -0.23472309 -0.35723504 0
-0.438097 -0.24442625 -0.35639301 0
-0.30038071 -0.23033047 -0.35715026 0
-0.13269043 -0.24622488 -0.35643777 0
-0.063102722 -0.21329927 -0.3555752 0
0.061733246 -0.26043987 -0.35416517 0
0.21294403 -0.22211552 -0.35611349 0
0.3703022 -0.24229574 -0.35644916 0
0.52609634 -0.24855852 -0.35722357 0
0.70976448 -0.24241924 -0.35453179 0
0.91168976 -0.27385139 -0.35286143 0
-0.71682739 -0.1295743 -0.36074507 0
-0.60251617 -0.14686584 -0.36624041 0
-0.53029633 -0.14329815 -0.35732427 0
-0.45118523 -0.13239145 -0.35789117 0
-0.3576355 -0.15003777 -0.35900065 0
-0.26381874 -0.14448261 -0.35367611 0
-0.15751839 -0.13449907 -0.35660461 0
-0.061243057 -0.14277267 -0.35200807 0
0.071020126 -0.14774084 -0.35786855 0
0.20999146 -0.16145849 -0.35208991 0
0.36833763 -0.17503548 -0.3537221 0
0.52780342 -0.14733982 -0.3547627 0
0.71713829 -0.13873148 -0.35749432 0
0.92363739 -0.17704201 -0.35273254 0
-0.71270943 -0.045593739 -0.36095071 0
-0.6004734 -0.063931942 -0.36177802 0
-0.52693748 -0.053031445 -0.35705239 0
-0.44812202 -0.053316593 -0.35783631 0
-0.35321808 -0.037041187 -0.35861924 0
-0.2566967 -0.053296089 -0.35844472 0
-0.15512848 -0.033102036 -0.35550317 0
-0.055053711 -0.034625053 -0.35534924 0
0.072029114 -0.044630527 -0.35470816 0
0.21480942 -0.053713322 -0.3586106 0
0.3660202 -0.067485332 -0.35429084 0
0.52255249 -0.03477335 -0.35428607 0
0.71483612 -0.055336952 -0.35272521 0
0.92828178 -0.061233521 -0.35250595 0
-0.7096386 0.049922466 -0.36410347 0
-0.60255051 0.044679165 -0.35946739 0
-0.52394104 0.073347092 -0.36110765 0
-0.44369125 0.057042122 -0.36256152 0
-0.32652664 0.044083595 -0.35359043 0
-0.26015091 0.070510864 -0.35587597 0
-0.15617943 0.048578739 -0.35531849 0
-0.053226471 0.057652473 -0.35809183 0
0.076316833 0.066650867 -0.35926473 0
0.20722961 0.047876835 -0.35419843 0
0.36199951 0.053904057 -0.35677481 0
0.51857376 0.062116623 -0.35667881 0
0.72385597 0.083081722 -0.3629792 0
0.9281559 0.087794781 -0.35266516 0
0.93617249 0.062484264 -0.35996899 0
-0.72173882 0.15464878 -0.36317694 0
-0.61052704 0.14080429 -0.35716578 0
-0.49455833 0.18471622 -0.35934979 0
-0.44818687 0.1533556 -0.36238641 0
-0.35837936 0.1339798 -0.35787886 0
-0.25856209 0.17689228 -0.36168647 0
-0.15739059 0.14627409 -0.35805818 0
-0.054994583 0.18898344 -0.36164859 0
0.067796707 0.14115667 -0.35490072 0
0.20407104 0.14629889 -0.35471776 0
0.35271263 0.13419151 -0.35282159 0
0.50640869 0.14989662 -0.35200453 0
0.71181488 0.13476086 -0.35592231 0
0.92650795 0.15248775 -0.35340929 0
-0.76586342 0.2731328 -0.36419421 0
-0.70544815 0.25875902 -0.3632029 0
-0.61473274 0.24772549 -0.36207449 0
-0.53315353 0.24972391 -0.36447787 0
-0.41345215 0.24657917 -0.35990393 0
-0.29699135 0.22830153 -0.36082417 0
-0.17529297 0.20888472 -0.34909239 0
-0.10345459 0.24057579 -0.35466307 0
0.0554142 0.24375105 -0.35200715 0
0.19837952 0.25240612 -0.356765 0
0.34819984 0.28434753 -0.35736197 0
0.51314545 0.24779701 -0.36219144 0
0.70451927 0.25493956 -0.35687694 0
0.91542625 0.21015739 -0.35148948 0
-0.779953 0.35803413 -0.36485648 0
-0.70427513 0.3746357 -0.36618441 0
-0.63323593 0.37257528 -0.36316875 0
-0.5175705 0.36765432 -0.36516523 0
-0.37934875 0.33424854 -0.35906476 0
-0.27678108 0.33641481 -0.36154261 0
-0.17634392 0.34312057 -0.35945266 0
-0.068777084 0.34758663 -0.36357996 0
0.02945137 0.37917757 -0.34762692 0
0.051973343 0.36743212 -0.35970706 0
0.18645668 0.38010263 -0.35875189 0
0.33542252 0.34568071 -0.35338706 0
0.4927597 0.33599281 -0.3535265 0
0.69132233 0.36170006 -0.3551912 0
0.90171432 0.31184006 -0.35349104 0
-0.80387115 0.47907734 -0.36694756 0
-0.70786667 0.45887184 -0.36426082 0
-0.59441757 0.47103357 -0.36340955 0
-0.4866848 0.42718649 -0.36226976 0
-0.39003372 0.46124506 -0.36597887 0
-0.29036522 0.45451403 -0.36520252 0
-0.19177055 0.44894266 -0.36086407 0
-0.09139061 0.42492294 -0.357434 0
0.032159805 0.47240734 -0.3582873 0
0.16677666 0.45387411 -0.35420644 0
0.32356071 0.45242023 -0.35589471 0
0.48084831 0.41208839 -0.35243696 0
0.67646027 0.42701769 -0.35139915 0
0.89064598 0.4187603 -0.356076 0
-0.96570015 -0.43629122 -0.36621907 0
-0.88860321 -0.43247366 -0.36782658 0
-0.80848122 -0.41935062 -0.36687726 0
-0.68896484 -0.41786909 -0.36731228 0
-0.55817032 -0.44190693 -0.36149645 0
-0.4595108 -0.44613504 -0.36046556 0
-0.35214806 -0.43679237 -0.36199275 0
-0.25693703 -0.47167826 -0.35468572 0
-0.12034798 -0.44235229 -0.36087495 0
0.019447327 -0.47449303 -0.35544777 0
0.18774796 -0.44196415 -0.36439732 0
0.35344124 -0.42979145 -0.36588383 0
0.54561615 -0.42343283 -0.3653875 0
0.74534225 -0.45148277 -0.3582111 0
0.9466095 -0.4860301 -0.35202375 0
-0.94122124 -0.32330561 -0.36671144 0
-0.86772919 -0.33487844 -0.36717227 0
-0.79248047 -0.34034634 -0.3654817 0
-0.68504143 -0.35451698 -0.36286509 0
-0.56796455 -0.3217082 -0.36463469 0
-0.44077682 -0.34471989 -0.3652471 0
-0.33943558 -0.36304283 -0.36085474 0
-0.30181503 -0.33320618 -0.36046273 0
-0.23538971 -0.34983492 -0.36205518 0
-0.10434532 -0.33451414 -0.35932806 0
0.035833359 -0.33984423 -0.36147228 0
0.19189072 -0.36233473 -0.35809946 0
0.35744095 -0.3567729 -0.36225405 0
0.55267143 -0.34256315 -0.35841596 0
0.75842476 -0.34753847 -0.36066362 0
0.96637154 -0.37872171 -0.35627648 0
-0.88368034 -0.22661209 -0.36589131 0
-0.7789669 -0.25246668 -0.36545137 0
-0.69566917 -0.21802568 -0.36724886 0
-0.61857796 -0.22388458 -0.36480999 0
-0.52703667 -0.24667597 -0.36250514 0
-0.42992592 -0.25743961 -0.36228302 0
-0.32682037 -0.24790525 -0.35645828 0
-0.22443008 -0.26220751 -0.361945 0
-0.094913483 -0.24938011 -0.35840037 0
0.047597885 -0.21761084 -0.36187541 0
0.19909668 -0.26463699 -0.36069655 0
0.3608017 -0.25111628 -0.36085698 0
0.56201744 -0.25124216 -0.36038533 0
0.76815414 -0.23219919 -0.36021298 0
0.98958397 -0.26268578 -0.36084306 0
-0.89683914 -0.12485552 -0.36753136 0
-0.76768875 -0.14742422 -0.36599004 0
-0.69217873 -0.15241241 -0.36231869 0
-0.61498451 -0.15310812 -0.36014822 0
-0.51365089 -0.12726116 -0.36703399 0
-0.41676331 -0.12035036 -0.3646417 0
-0.31833458 -0.171278 -0.36030972 0
-0.21383286 -0.15081406 -0.36310697 0
-0.085922241 -0.14300776 -0.36041743 0
0.05447197 -0.13490105 -0.36315984 0
0.20049477 -0.16111755 -0.3602235 0
0.35849953 -0.14754581 -0.35794353 0
0.56144524 -0.15422964 -0.35605907 0
0.57463455 -0.14882231 -0.3693642 0
0.77488518 -0.13178921 -0.36183748 0
-0.87353897 -0.042383671 -0.36831355 0
-0.75751686 -0.033730507 -0.37117535 0
-0.68479729 -0.045969009 -0.36557469 0
-0.60459518 -0.047161579 -0.36717069 0
-0.51358223 -0.065371513 -0.36325476 0
-0.40631294 -0.0078392029 -0.3718417 0
-0.31129837 -0.052565575 -0.36243966 0
-0.21214676 -0.049550056 -0.36009061 0
-0.081787109 -0.030511856 -0.36046585 0
0.055906296 -0.052134514 -0.3611258 0
0.1980896 -0.04243803 -0.35737717 0
0.35773277 -0.022882462 -0.3610042 0
0.55953598 -0.085427284 -0.3566314 0
0.77441788 -0.056350231 -0.3589794 0
-0.87815285 0.044704914 -0.36381942 0
-0.77341843 0.054540634 -0.37011719 0
-0.68019485 0.066118717 -0.3699494 0
-0.60339546 0.052776814 -0.36798698 0
-0.50774956 0.057758331 -0.3686119 0
-0.41133308 0.049566269 -0.36668772 0
-0.31665039 0.052511215 -0.35771018 0
-0.21459961 0.026896477 -0.35730973 0
-0.082279205 0.064948082 -0.36062121 0
0.054132462 0.065002918 -0.35917473 0
0.19934845 0.066714764 -0.35911146 0
0.34668732 0.071542263 -0.35630175 0
0.55863762 0.028130054 -0.36150807 0
0.78720474 0.094013214 -0.3721098 0
-0.88294983 0.15918112 -0.37093088 0
-0.78476143 0.15349388 -0.37256035 0
-0.68881035 0.13734388 -0.36559749 0
-0.60882759 0.1655674 -0.36774468 0
-0.51023293 0.15916061 -0.36972594 0
-0.415905 0.14988708 -0.36589962 0
-0.30772972 0.14496803 -0.36851636 0
-0.20660973 0.13958406 -0.36763388 0
-0.081857681 0.17976999 -0.36516631 0
0.050765991 0.13607025 -0.35856521 0
0.20016479 0.16094875 -0.36269918 0
0.34442711 0.1495986 -0.35649097 0
0.54566574 0.12030888 -0.35625663 0
0.7755394 0.14582205 -0.36325258 0
-0.8807354 0.27050161 -0.37510651 0
-0.76970863 0.26390171 -0.37244713 0
-0.69686508 0.25239801 -0.36762205 0
-0.61645317 0.25881624 -0.36860082 0
-0.49643707 0.24883652 -0.36739695 0
-0.42328072 0.25556755 -0.36720458 0
-0.3181572 0.2641139 -0.36742914 0
-0.21432304 0.24984884 -0.36767542 0
-0.09450531 0.24649382 -0.35984677 0
0.049180984 0.25064039 -0.36370423 0
0.19016075 0.24820662 -0.35983339 0
0.34201431 0.2418375 -0.35891864 0
0.55051422 0.24013805 -0.36488906 0
0.77418709 0.25077438 -0.36649179 0
-0.93663406 0.37370872 -0.37448075 0
-0.87648964 0.35827589 -0.37441814 0
-0.79139519 0.36406851 -0.36907065 0
-0.69521332 0.36273432 -0.36673212 0
-0.59729385 0.34343481 -0.36786234 0
-0.46736145 0.34811068 -0.3676582 0
-0.33670235 0.35245562 -0.36284015 0
-0.22601128 0.35939789 -0.36817044 0
-0.098247528 0.37167072 -0.36699021 0
0.035621643 0.36639452 -0.36303759 0
0.17867088 0.34442663 -0.35872659 0
0.3325634 0.3083539 -0.3562519 0
0.54446793 0.33622646 -0.36584961 0
0.75290298 0.37459946 -0.35945901 0
0.77130127 0.32831526 -0.36875677 0
0.98897934 0.38898087 -0.36367822 0
-0.95882034 0.46529198 -0.37388667 0
-0.88638496 0.4630971 -0.3712658 0
-0.77848244 0.47157097 -0.37084255 0
-0.67243004 0.44361496 -0.36935326 0
-0.55167389 0.47685289 -0.37113729 0
-0.45148468 0.42577982 -0.36531407 0
-0.34626198 0.45316458 -0.36712396 0
-0.24592018 0.45513153 -0.3656964 0
-0.13044357 0.49976826 -0.36102763 0
-0.11462784 0.45697737 -0.36522475 0
0.017957687 0.45278597 -0.36039266 0
0.16229439 0.44290686 -0.35737079 0
0.17990685 0.42869949 -0.36648744 0
0.33274841 0.43666506 -0.36639208 0
0.52794266 0.42571878 -0.36152852 0
0.75024605 0.49699688 -0.36775917 0
0.97760582 0.44722271 -0.36270428 0
-0.89723206 -0.42912674 -0.36494988 0
-0.7777462 -0.46664381 -0.36129615 0
-0.66965294 -0.42237377 -0.3663761 0
-0.56889153 -0.44012451 -0.35790503 0
-0.46938515 -0.45133448 -0.36021027 0
-0.3466301 -0.48885822 -0.36128414 0
-0.32982254 -0.40114975 -0.36548582 0
-0.20088387 -0.44493151 -0.35990274 0
-0.055620193 -0.46006298 -0.35636622 0
0.10927963 -0.45006847 -0.36222932 0
0.31035614 -0.46356583 -0.35728818 0
0.52706146 -0.42335701 -0.36518067 0
0.74542046 -0.44926357 -0.35790387 0
0.94533348 -0.45395803 -0.3535111 0
-0.88607979 -0.3325491 -0.36688766 0
-0.75347328 -0.33772087 -0.36417595 0
-0.66127205 -0.3719101 -0.3602919 0
-0.55394936 -0.35216761 -0.35929924 0
-0.44874954 -0.33009291 -0.36252397 0
-0.32163811 -0.34313393 -0.36217916 0
-0.18695641 -0.34553289 -0.35585785 0
-0.0448246 -0.37198496 -0.35872743 0
0.11651039 -0.35475779 -0.36001793 0
0.32440186 -0.34249115 -0.36355373 0
0.53800964 -0.33219481 -0.36464328 0
0.75108719 -0.38030386 -0.35162526 0
0.95889854 -0.37534428 -0.3482427 0
-0.98791122 -0.23069572 -0.36875886 0
-0.91287804 -0.24729776 -0.36591253 0
-0.83475113 -0.25369596 -0.36743969 0
-0.66739655 -0.24882841 -0.36404297 0
-0.5422802 -0.27060318 -0.36141288 0
-0.53519821 -0.20680952 -0.36241776 0
-0.43649292 -0.23490286 -0.36398748 0
-0.3103714 -0.25410175 -0.36256066 0
-0.17472076 -0.23967648 -0.35732445 0
-0.031908035 -0.26428652 -0.35955298 0
0.12268066 -0.2380476 -0.36067235 0
0.32641983 -0.25670719 -0.36194032 0
0.54526711 -0.24629974 -0.36262816 0
0.76835442 -0.25681782 -0.36296985 0
0.98376656 -0.26130867 -0.35399491 0
-0.97869492 -0.14794827 -0.36932316 0
-0.90283012 -0.15465307 -0.36671382 0
-0.82216644 -0.13807631 -0.36840799 0
-0.72823143 -0.14428234 -0.36843881 0
-0.6301384 -0.11774969 -0.36613759 0
-0.53019905 -0.11295128 -0.36045346 0
-0.43227386 -0.14668131 -0.35928446 0
-0.30389786 -0.15491247 -0.35953116 0
-0.16786003 -0.16473055 -0.35897082 0
-0.022674561 -0.1417613 -0.35875785 0
0.12319946 -0.13183212 -0.35892373 0
0.32576561 -0.14649343 -0.36051264 0
0.55058861 -0.15525389 -0.3627612 0
0.77481651 -0.16277552 -0.36310124 0
-0.97724152 -0.05711937 -0.36392406 0
-0.89344978 -0.04512167 -0.37053499 0
-0.8203392 -0.057931423 -0.36486411 0
-0.72526169 -0.059528828 -0.36572725 0
-0.62730408 -0.022693634 -0.36497322 0
-0.42299843 -0.03228426 -0.36471879 0
-0.29773331 -0.027515888 -0.36092019 0
-0.15851593 -0.039699554 -0.36411899 0
-0.019037247 -0.040482521 -0.35869873 0
0.12658119 -0.022023678 -0.3591069 0
0.31686783 -0.052336216 -0.35516322 0
0.54666138 -0.038238525 -0.36148947 0
0.77769852 -0.042241573 -0.36105296 0
-0.97187614 0.076125622 -0.36952892 0
-0.89086914 0.071866512 -0.37242505 0
-0.81497383 0.035625458 -0.36932486 0
-0.72297668 0.067090511 -0.36767292 0
-0.62981987 0.044502258 -0.36256725 0
-0.52018547 0.034945488 -0.36781383 0
-0.42577362 0.041453838 -0.3618415 0
-0.29590416 0.072108269 -0.36308721 0
-0.15767097 0.055453777 -0.36391708 0
-0.02022171 0.054824829 -0.3574177 0
0.13095093 0.075343609 -0.36333624 0
0.31082535 0.044957638 -0.35519874 0
0.54119873 0.060090065 -0.36232027 0
0.77285957 0.017416477 -0.35480219 0
-0.97005463 0.19293165 -0.37582475 0
-0.88884735 0.19020844 -0.37791389 0
-0.82099342 0.1386447 -0.36733398 0
-0.72600746 0.16824722 -0.36852679 0
-0.62944984 0.17361784 -0.36766258 0
-0.52295876 0.13879824 -0.36773393 0
-0.42759895 0.16289425 -0.36405 0
-0.29733467 0.17512274 -0.36535218 0
-0.16073608 0.15162182 -0.36382648 0
-0.024534225 0.1529789 -0.35679239 0
0.12879753 0.15676403 -0.36344716 0
0.31173134 0.13936663 -0.35786512 0
0.53375244 0.14812136 -0.36082333 0
0.77633286 0.14537668 -0.36044452 0
-0.98313141 0.25534439 -0.37122756 0
-0.89002609 0.26049995 -0.37090892 0
-0.79603577 0.27632475 -0.37101492 0
-0.70480347 0.25333834 -0.36606777 0
-0.58915138 0.26378059 -0.36467037 0
-0.5 0.24588442 -0.36531159 0
-0.42997742 0.24295616 -0.36667347 0
-0.30517578 0.26205397 -0.36448279 0
-0.1682148 0.24407101 -0.36248294 0
-0.025850296 0.28363991 -0.36297932 0
0.11779022 0.20766592 -0.35665676 0
0.30836678 0.25686789 -0.35955557 0
0.52560043 0.21179867 -0.35560253 0
0.7635994 0.19990969 -0.35250506 0
-0.99590492 0.37396002 -0.37419227 0
-0.88112831 0.37701893 -0.3719292 0
-0.74673653 0.36797667 -0.36996791 0
-0.65528488 0.35429955 -0.36392152 0
-0.57416725 0.35703993 -0.3705495 0
-0.44455719 0.36418867 -0.36642802 0
-0.31010818 0.3789258 -0.36986899 0
-0.17280388 0.32776213 -0.36506844 0
-0.037973404 0.33683252 -0.35845068 0
0.11353874 0.33001184 -0.36145622 0
0.29967499 0.36961603 -0.36025849 0
0.52556229 0.32941628 -0.36186504 0
0.75991249 0.36115885 -0.35943982 0
0.77132797 0.32770824 -0.36549944 0
-0.88578033 0.45438719 -0.37317687 0
-0.76906586 0.44746733 -0.36587757 0
-0.66359901 0.45919132 -0.3696962 0
-0.55797577 0.41619396 -0.3648338 0
-0.46125984 0.44369364 -0.36407322 0
-0.32806206 0.44818258 -0.36543939 0
-0.18696594 0.45927334 -0.36744887 0
-0.041103363 0.45377827 -0.36631352 0
0.097057343 0.47436762 -0.3625837 0
0.28415489 0.47622442 -0.35889515 0
0.52116394 0.45299768 -0.36724472 0
0.75634384 0.45486879 -0.36394423 0
0.99505615 0.4485364 -0.3687104 0
-0.92685699 -0.42714119 -0.35532814 0
-0.83598709 -0.46769619 -0.35863477 0
-0.73285484 -0.47562599 -0.35648289 0
-0.63241577 -0.47991323 -0.35573286 0
-0.50304222 -0.47601318 -0.35229254 0
-0.3621254 -0.45669746 -0.35557079 0
-0.21829796 -0.45802689 -0.3539452 0
-0.073015213 -0.43977451 -0.34728828 0
0.1292572 -0.45697498 -0.35206404 0
0.35781097 -0.44730186 -0.35800049 0
0.5794735 -0.45409298 -0.35365689 0
0.80089378 -0.44378519 -0.34864405 0
-0.91742325 -0.37508488 -0.36123556 0
-0.81355095 -0.33823538 -0.36073306 0
-0.71388817 -0.36311769 -0.35838479 0
-0.61079025 -0.35107183 -0.36053774 0
-0.48200417 -0.34871864 -0.35961369 0
-0.34783363 -0.34752417 -0.35330284 0
-0.20473099 -0.35880852 -0.35475415 0
0.13566017 -0.33341217 -0.35276836 0
0.35946846 -0.36033201 -0.35433948 0
0.58826637 -0.36132765 -0.3526285 0
0.81010056 -0.36249352 -0.35218483 0
-0.9475975 -0.24839592 -0.35987303 0
-0.85048676 -0.22557068 -0.35790011 0
-0.74873924 -0.24607897 -0.36377656 0
-0.63117027 -0.23768377 -0.36019817 0
-0.46951866 -0.24894905 -0.36213276 0
-0.33482552 -0.23115158 -0.35694233 0
-0.19466972 -0.25383663 -0.35445511 0
-0.053064346 -0.27849388 -0.35389706 0
0.13506317 -0.25210714 -0.35061789 0
0.35857391 -0.28309155 -0.35223925 0
0.59231949 -0.27942181 -0.35000944 0
0.81586456 -0.26337099 -0.35109314 0
-0.98278618 -0.13327742 -0.36370778 0
-0.85783577 -0.15045643 -0.36308241 0
-0.79295921 -0.1321888 -0.3615064 0
-0.69053078 -0.14026403 -0.36108708 0
-0.59187317 -0.15661955 -0.36007059 0
-0.46011925 -0.14206982 -0.36413795 0
-0.32943153 -0.13801575 -0.35672748 0
-0.18499374 -0.13475132 -0.35811776 0
-0.044748306 -0.14521456 -0.35391143 0
0.13674164 -0.15601635 -0.35264054 0
0.36106491 -0.15843248 -0.35675317 0
0.59335899 -0.19882727 -0.34654289 0
0.82321358 -0.1478653 -0.35445628 0
-0.98311043 -0.052757263 -0.36013576 0
-0.8849144 -0.05637598 -0.36459085 0
-0.78706551 -0.036231041 -0.36497599 0
-0.68960953 -0.04632473 -0.35865015 0
-0.58784103 -0.064418793 -0.36068341 0
-0.46416473 -0.064465523 -0.35616505 0
-0.32747459 -0.042165756 -0.35646221 0
-0.18558121 -0.073041439 -0.35526174 0
-0.033857346 -0.024339676 -0.36292031 0
0.13464355 -0.090901375 -0.3492007 0
0.35828209 -0.062131405 -0.35797387 0
0.60427094 -0.085110188 -0.35735893 0
0.82682991 -0.044572353 -0.35465491 0
-0.98319054 0.042300701 -0.36087197 0
-0.88788033 0.029845715 -0.36174351 0
-0.79053688 0.055161476 -0.36220148 0
-0.68680573 0.079079628 -0.36315909 0
-0.58853912 0.019317627 -0.3597973 0
-0.46305466 0.059748173 -0.35830468 0
-0.3298912 0.019276142 -0.35451657 0
-0.18180656 0.025007248 -0.35918894 0
-0.041269302 0.022402287 -0.35573146 0
0.13764954 0.013048649 -0.35253701 0
0.34594345 0.015179157 -0.35308152 0
0.5912075 0.042886734 -0.35561538 0
0.6061554 0.011897087 -0.36421397 0
0.82799149 0.050742626 -0.35527697 0
-0.98582458 0.1466651 -0.36355275 0
-0.85951424 0.13810635 -0.36242133 0
-0.79024887 0.12548399 -0.36494085 0
-0.64354134 0.17094088 -0.3616522 0
-0.58490372 0.13769197 -0.36650732 0
-0.46206284 0.15219164 -0.36269471 0
-0.32851791 0.14307404 -0.36014792 0
-0.18114853 0.14278984 -0.36304158 0
-0.043457031 0.1357789 -0.35727879 0
0.13911057 0.15478992 -0.3581894 0
0.33867264 0.12717199 -0.35185722 0
0.58452415 0.15868187 -0.3577466 0
0.82063866 0.15000677 -0.35328165 0
-0.9619503 0.24638414 -0.3650485 0
-0.84355164 0.24214602 -0.36865616 0
-0.72266769 0.25145149 -0.36193556 0
-0.60145378 0.2025876 -0.35777378 0
-0.46908188 0.23974133 -0.36285222 0
-0.32789993 0.28619719 -0.36866093 0
-0.19955444 0.26596546 -0.35647792 0
-0.18718529 0.21000195 -0.36156657 0
-0.052818298 0.24147797 -0.35601094 0
0.1257515 0.2390728 -0.35260901 0
0.33791542 0.24380636 -0.35636628 0
0.58212471 0.26316404 -0.36024648 0
-0.90672874 0.32662296 -0.36685175 0
-0.81359863 0.35247374 -0.36604366 0
-0.71834564 0.36630678 -0.36148024 0
-0.61110687 0.33369541 -0.36180386 0
-0.59241486 0.31545067 -0.37184143 0
-0.48178864 0.36008549 -0.36384109 0
-0.34241676 0.31948233 -0.36156687 0
-0.20351028 0.35689211 -0.36085975 0
-0.060613632 0.31502533 -0.35584986 0
0.11587906 0.36470985 -0.35517865 0
0.33271027 0.33792162 -0.35856357 0
0.57104683 0.33470011 -0.35660747 0
0.79708481 0.38220739 -0.35307854 0
0.8153553 0.31686306 -0.36100522 0
-0.91886139 0.4390583 -0.37097839 0
-0.84450531 0.47479534 -0.36216414 0
-0.72884941 0.43427277 -0.36255017 0
-0.62942696 0.43795156 -0.36148542 0
-0.50032234 0.47565603 -0.36426261 0
