# .PCD v0.7 - Point Cloud Data file format
VERSION 0.7
FIELDS x y z intensity
SIZE 4 4 4 4
TYPE F F F F
COUNT 1 1 1 1
WIDTH 1294
HEIGHT 1
VIEWPOINT 0 0 0 1 0 0 0
POINTS 1294
DATA ascii
0.7762413 -0.36617756 -0.33760753 0
0.88006973 -0.41510105 -0.32864571 0
0.98360443 -0.41458893 -0.32499027 0
0.65315628 -0.26026249 -0.35398942 0
0.69688225 -0.25100708 -0.34596163 0
0.80506897 -0.28185844 -0.33966747 0
0.90393257 -0.28376484 -0.33668765 0
0.99255562 -0.32187271 -0.33408901 0
0.70793915 -0.15641975 -0.34888867 0
0.82056618 -0.15035439 -0.34112337 0
0.90945244 -0.18808746 -0.33679178 0
0.75542641 -0.060712814 -0.35044089 0
0.8404007 -0.073355675 -0.34356934 0
0.94290543 -0.082072258 -0.34035462 0
0.75709724 0.049819946 -0.35503212 0
0.85876083 0.0057182312 -0.34713659 0
0.97590065 0.015717506 -0.34277207 0
0.78023338 0.14148998 -0.35515514 0
0.87576294 0.10665417 -0.34910768 0
0.95998383 0.098504066 -0.34444514 0
0.79380417 0.23625183 -0.35657471 0
0.8888588 0.22343063 -0.3526721 0
0.98570442 0.20426273 -0.34902185 0
0.74632454 0.33559418 -0.35746977 0
0.81337738 0.33326435 -0.3532021 0
0.91340065 0.31433964 -0.35212162 0
0.73301315 0.46043587 -0.35752624 0
0.83507729 0.43480206 -0.3537803 0
0.9344101 0.40538216 -0.35465172 0
0.94235802 0.48191452 -0.34853777 0
0.41790199 -0.41740704 -0.34894341 0
0.49286842 -0.41376019 -0.34872487 0
0.5858078 -0.45175076 -0.34692895 0
0.69284058 -0.44990635 -0.33581325 0
0.79714012 -0.48071289 -0.32769075 0
0.90595245 -0.48915291 -0.32082844 0
0.45989799 -0.31512737 -0.35218444 0
0.53864479 -0.29944515 -0.34942541 0
0.62447739 -0.3606205 -0.34920609 0
0.70747948 -0.36343288 -0.34086829 0
0.79985619 -0.37939262 -0.33821505 0
0.86793327 -0.41840744 -0.3296417 0
0.52425957 -0.22118187 -0.35470107 0
0.63052177 -0.24827099 -0.35237145 0
0.72841072 -0.25739193 -0.34841281 0
0.84413528 -0.28791142 -0.3431794 0
0.93074036 -0.28648567 -0.33867112 0
0.55015755 -0.12624741 -0.35685629 0
0.65923119 -0.15675926 -0.34967074 0
0.75276756 -0.18004704 -0.34940773 0
0.85261536 -0.17470646 -0.3456918 0
0.96446419 -0.17646694 -0.33890596 0
0.57209778 -0.024319649 -0.36000088 0
0.66202354 -0.043325424 -0.3548162 0
0.76414871 -0.036940575 -0.35450563 0
0.85120773 -0.095677376 -0.34692478 0
0.98196602 -0.10808659 -0.33867663 0
0.57495689 0.083898544 -0.36274114 0
0.66758347 0.061955452 -0.35941705 0
0.78625107 0.058663368 -0.35785034 0
0.89151192 -0.00030231476 -0.34950376 0
0.59104538 0.16653538 -0.35979775 0
0.7303524 0.15071201 -0.36140808 0
0.79499626 0.1335144 -0.35598427 0
0.90135765 0.099629402 -0.35067034 0
0.58070564 0.31858158 -0.36338174 0
0.63871765 0.27425766 -0.36048037 0
0.7127533 0.23479462 -0.36351275 0
0.80865097 0.25711346 -0.35965836 0
0.9170723 0.22406673 -0.35374835 0
0.57130623 0.37247562 -0.36055678 0
0.64079666 0.34803867 -0.35573632 0
0.72922325 0.33448219 -0.3604441 0
0.8508358 0.34695053 -0.35820872 0
0.96558762 0.32569218 -0.35408145 0
0.55146599 0.48262119 -0.35715222 0
0.6640873 0.4738369 -0.35717216 0
0.76633263 0.44669342 -0.35758951 0
0.87599564 0.45134163 -0.35880294 0
0.96264648 0.41752911 -0.35360113 0
0.21510506 -0.4746151 -0.35512632 0
0.30658722 -0.49447346 -0.35222369 0
0.44717598 -0.46368313 -0.35392681 0
0.51526642 -0.48542118 -0.35008556 0
0.25749779 -0.38188457 -0.35334706 0
0.32169342 -0.40509129 -0.35244799 0
0.43285942 -0.40823078 -0.35040665 0
0.54668045 -0.40987206 -0.34868377 0
0.61848831 -0.46122646 -0.34171832 0
0.76101875 -0.44999599 -0.33339927 0
0.83885002 -0.47637367 -0.32353663 0
0.93273735 -0.48654366 -0.32086602 0
0.29852676 -0.2851038 -0.35900047 0
0.35014915 -0.29244518 -0.35771161 0
0.43853188 -0.30077171 -0.3552947 0
0.553442 -0.31526661 -0.34889001 0
0.6595993 -0.34898376 -0.34614062 0
0.73007202 -0.3710413 -0.34048831 0
0.80226326 -0.40614319 -0.33316472 0
0.9057045 -0.38435555 -0.33072314 0
0.3688221 -0.19770813 -0.36074042 0
0.47893906 -0.197299 -0.36064065 0
0.55992699 -0.22940922 -0.35211799 0
0.68566704 -0.21768284 -0.34777501 0
0.77428818 -0.27587986 -0.34040543 0
0.85840988 -0.29873085 -0.3402423 0
0.94885826 -0.29038811 -0.33649582 0
0.37335968 -0.098305702 -0.35965586 0
0.47869492 -0.10012531 -0.35977319 0
0.57176971 -0.1397686 -0.35481453 0
0.66597748 -0.14215565 -0.34971157 0
0.8050766 -0.18366814 -0.34486514 0
0.8938942 -0.19376469 -0.34323981 0
0.97934723 -0.19393158 -0.33630008 0
0.38627815 0.027605057 -0.3629117 0
0.50769997 0.0057077408 -0.36160824 0
0.60485268 -0.032853127 -0.36062843 0
0.67371368 -0.032344818 -0.35130444 0
0.79181671 -0.05727005 -0.35033178 0
0.92200661 -0.095159531 -0.3439464 0
0.43263245 0.10646629 -0.36003211 0
0.49235535 0.061779976 -0.35899532 0
0.62569618 0.060749054 -0.35984731 0
0.69722557 0.043117523 -0.3601802 0
0.83627129 0.03839016 -0.35236162 0
0.94273186 -0.0050497055 -0.34279677 0
0.42968559 0.20308399 -0.36240914 0
0.55935287 0.1705246 -0.36227208 0
0.64485359 0.18254185 -0.36372164 0
0.71426392 0.1426115 -0.35982949 0
0.81786346 0.13287354 -0.3546637 0
0.9398613 0.099979401 -0.35141456 0
0.39307022 0.32877064 -0.35666943 0
0.45633316 0.2887516 -0.36199743 0
0.55839348 0.2999258 -0.36070761 0
0.63469124 0.27840519 -0.35766724 0
0.72392273 0.25032806 -0.36175546 0
0.85876465 0.23965549 -0.35382569 0
0.95317268 0.18217564 -0.35239467 0
0.38763237 0.42733383 -0.35635257 0
0.47068787 0.38747501 -0.35820732 0
0.54825783 0.37847614 -0.35728297 0
0.66349792 0.39094448 -0.36074421 0
0.76606178 0.34630489 -0.35973293 0
0.85206413 0.29997349 -0.35348293 0
0.59412384 0.47994804 -0.35974962 0
0.70958328 0.46829414 -0.35987562 0
0.80273056 0.44387531 -0.35720789 0
0.89993858 0.41883373 -0.35511968 0
0.99894524 0.40591431 -0.35396537 0
0.065324783 -0.42601967 -0.36052796 0
0.14613533 -0.45997047 -0.35815728 0
0.24105072 -0.46094894 -0.35503057 0
0.36335373 -0.44457626 -0.35088497 0
0.43370628 -0.49564552 -0.34798235 0
0.095458984 -0.35188961 -0.35955021 0
0.17367554 -0.35130596 -0.35864452 0
0.26912689 -0.37580395 -0.35743752 0
0.37957764 -0.40144634 -0.35995659 0
0.47594833 -0.38936901 -0.34795263 0
0.56401443 -0.40400028 -0.34871435 0
0.65821648 -0.44426823 -0.33747685 0
0.7691288 -0.45926285 -0.32742968 0
0.90267563 -0.48160267 -0.3194719 0
0.99378967 -0.49704361 -0.31853712 0
0.12689781 -0.26239681 -0.35839632 0
0.20615387 -0.2588129 -0.35763633 0
0.27519417 -0.2892189 -0.3563948 0
0.39101982 -0.29359722 -0.35588494 0
0.50638199 -0.31142998 -0.35001308 0
0.58939934 -0.33518791 -0.34756264 0
0.68235397 -0.33761215 -0.34919545 0
0.76557732 -0.34806347 -0.34211925 0
0.86824226 -0.36049271 -0.33499122 0
0.95592499 -0.41121483 -0.32433513 0
0.15053558 -0.18817234 -0.36025223 0
0.19806671 -0.15082932 -0.35726574 0
0.31798363 -0.16263962 -0.36229053 0
0.39167213 -0.17944622 -0.3621223 0
0.50828171 -0.21010208 -0.35495955 0
0.63585854 -0.20962524 -0.35199073 0
0.71504593 -0.25054359 -0.34466469 0
0.8048954 -0.24445915 -0.34339383 0
0.90965462 -0.25859547 -0.33682147 0
0.23335457 -0.049352646 -0.35615113 0
0.33024979 -0.090322495 -0.3554723 0
0.42097855 -0.078821182 -0.36230513 0
0.49144745 -0.09667778 -0.35796532 0
0.60863113 -0.12203693 -0.35304016 0
0.74780846 -0.14482212 -0.34667367 0
0.83508301 -0.14992332 -0.34666368 0
0.93945885 -0.16388226 -0.33993709 0
0.23345184 0.045336723 -0.36028007 0
0.35704613 0.034508705 -0.35980019 0
0.44043732 0.017712593 -0.36363479 0
0.51484871 -0.006316185 -0.35959065 0
0.62510681 -0.041641235 -0.35451028 0
0.7775898 -0.043042183 -0.35218596 0
0.85718155 -0.068632126 -0.34779233 0
0.96704674 -0.064967155 -0.34236014 0
0.20891571 0.15983295 -0.35497347 0
0.25784302 0.14340782 -0.36291388 0
0.36806297 0.13585854 -0.35886627 0
0.44521713 0.087759972 -0.35944036 0
0.53052521 0.097856522 -0.36098465 0
0.62317467 0.074754715 -0.35908085 0
0.74047279 0.032062531 -0.35489199 0
0.87285233 0.011734962 -0.34405845 0
0.99052048 0.026535034 -0.34574378 0
0.22301674 0.26941299 -0.36017957 0
0.29292297 0.23715115 -0.35781038 0
0.37708664 0.24173737 -0.3614099 0
0.47151375 0.20774937 -0.35822308 0
0.53327942 0.18854332 -0.35869354 0
0.6348896 0.18327141 -0.36040825 0
0.77242088 0.1345644 -0.35849157 0
0.89602661 0.11203098 -0.34867397 0
0.22093201 0.36400795 -0.35865125 0
0.29568672 0.34515953 -0.35852748 0
0.37282372 0.32779217 -0.35922113 0
0.49690056 0.31777096 -0.3608914 0
0.62852478 0.29869175 -0.35699061 0
0.70652008 0.26616383 -0.35826322 0
0.79875946 0.2142086 -0.35940859 0
0.91055298 0.22911167 -0.35036525 0
0.21312141 0.45249557 -0.35685214 0
0.31063271 0.4370575 -0.35809013 0
0.4191246 0.41110134 -0.35733256 0
0.52871513 0.38968563 -0.35803691 0
0.62220764 0.37607861 -0.35553148 0
0.72786903 0.39030075 -0.35861278 0
0.83936119 0.33936501 -0.36121717 0
0.91831017 0.33748436 -0.351567 0
0.52518272 0.48047733 -0.3595756 0
0.60810852 0.49816036 -0.35413703 0
0.71494484 0.46078396 -0.35513589 0
0.82736206 0.43459511 -0.35760382 0
0.91847229 0.4367094 -0.35305533 0
-0.11616135 -0.49918556 -0.36094016 0
-0.11548615 -0.38947487 -0.36038408 0
-0.0072650909 -0.40703964 -0.36242494 0
0.094654083 -0.44684315 -0.35918045 0
0.161726 -0.46751118 -0.35625991 0
0.28326225 -0.48455238 -0.35382754 0
0.52741432 -0.47763062 -0.34588888 0
-0.077562332 -0.29096794 -0.36180028 0
0.012111664 -0.33637524 -0.36054412 0
0.11063385 -0.33364487 -0.3594093 0
0.20578766 -0.35955238 -0.35749409 0
0.29553413 -0.35612297 -0.3573181 0
0.37260628 -0.3910017 -0.35429662 0
0.49923897 -0.42953491 -0.34862128 0
0.63154793 -0.46140766 -0.33925197 0
0.69885254 -0.4483223 -0.33544955 0
0.89559937 -0.48164463 -0.32309347 0
-0.052639008 -0.21982098 -0.36527142 0
0.023929596 -0.21595097 -0.36586154 0
0.12571716 -0.250247 -0.36269695 0
0.23968506 -0.26433849 -0.35932186 0
0.32120323 -0.292346 -0.35741007 0
0.41399384 -0.28415871 -0.35830063 0
0.49858475 -0.30973625 -0.3518379 0
0.57693863 -0.34236336 -0.3488915 0
0.69818687 -0.32126617 -0.34779233 0
0.77035713 -0.40732288 -0.33314785 0
0.89872742 -0.38144875 -0.33154529 0
-0.025020599 -0.11096001 -0.35935351 0
0.045101166 -0.13311958 -0.36186072 0
0.15839767 -0.14599991 -0.35931703 0
0.26452637 -0.16753387 -0.3563228 0
0.35930443 -0.18174553 -0.35895234 0
0.4426651 -0.2054224 -0.35682112 0
0.52314186 -0.24261093 -0.35139728 0
0.61476898 -0.23940277 -0.35051805 0
0.72477531 -0.24007797 -0.34406197 0
0.81928062 -0.2960844 -0.34160149 0
0.93888855 -0.28266144 -0.33496857 0
-0.014478683 -0.027338982 -0.35258088 0
0.063444138 -0.036257744 -0.35737473 0
0.16023064 -0.031553268 -0.36060169 0
0.26896667 -0.043937683 -0.36062759 0
0.38101387 -0.081297874 -0.3563804 0
0.47475624 -0.098529816 -0.35665545 0
0.55454254 -0.14531231 -0.35193738 0
0.64919472 -0.13864422 -0.35585457 0
0.75477028 -0.14165688 -0.34689909 0
0.85747147 -0.1764431 -0.34454659 0
0.9588089 -0.21830463 -0.33511087 0
0.0042114258 0.066460609 -0.35749787 0
0.086715698 0.087129593 -0.36154175 0
0.15715599 0.067495346 -0.36033136 0
0.27316284 0.043819427 -0.36252409 0
0.40159988 0.027234077 -0.35878477 0
0.48848724 -0.017468452 -0.35333925 0
0.59268951 -0.02081871 -0.35904986 0
0.68084717 -0.030371666 -0.35853425 0
0.7843132 -0.046557426 -0.35458875 0
0.88252068 -0.084472656 -0.34448186 0
0.99532127 -0.099100113 -0.34213346 0
0.018444061 0.17802048 -0.35950908 0
0.099720001 0.18515587 -0.3637915 0
0.21401596 0.14391708 -0.36143684 0
0.32106781 0.11292934 -0.3616316 0
0.41582298 0.10614777 -0.36218482 0
0.51177406 0.082691193 -0.36159378 0
0.61042023 0.05546093 -0.35962868 0
0.70313454 0.057057381 -0.36105394 0
0.80358887 0.036089897 -0.35520253 0
0.90943909 0.015492439 -0.34942985 0
0.026237488 0.27629375 -0.35994989 0
0.099428177 0.27521896 -0.35977095 0
0.21436691 0.24764729 -0.36181787 0
0.32808304 0.21246052 -0.36182544 0
0.42116737 0.21920586 -0.36073902 0
0.52249908 0.17418766 -0.3634029 0
0.62978935 0.16458035 -0.3652218 0
0.72013855 0.14275932 -0.36272717 0
0.82690811 0.15022945 -0.35731506 0
0.92476463 0.1082983 -0.34609634 0
0.027524948 0.37239647 -0.35995507 0
0.13658905 0.35173035 -0.35859293 0
0.23521996 0.34713173 -0.3646315 0
0.32421112 0.3173027 -0.35847011 0
0.43018723 0.32674599 -0.36532825 0
0.51902962 0.29394245 -0.36065176 0
0.62628555 0.26683331 -0.36200309 0
0.72370148 0.24730301 -0.36069721 0
0.83584404 0.25283623 -0.35637677 0
0.94919968 0.23233795 -0.35404092 0
0.060634613 0.48845863 -0.3603428 0
0.15370178 0.43933487 -0.35894296 0
0.25734711 0.43583584 -0.36358565 0
0.31722069 0.41456795 -0.35533658 0
0.41776848 0.42191029 -0.36020926 0
0.52428627 0.42377186 -0.36513457 0
0.61951828 0.39747047 -0.36048427 0
0.7204113 0.36492157 -0.36038873 0
0.83436012 0.34057331 -0.35484254 0
0.9516716 0.33491707 -0.35129857 0
0.57076645 0.47071266 -0.35634184 0
0.695158 0.49150562 -0.35278001 0
0.72006226 0.47352886 -0.3631385 0
0.83038712 0.41534901 -0.35501862 0
0.9537735 0.42935753 -0.35180557 0
0.82983971 0.49518299 -0.35760793 0
-0.3738308 -0.48535824 -0.36304921 0
-0.29551888 -0.4936676 -0.35943523 0
-0.34100914 -0.42042065 -0.36549067 0
-0.28170967 -0.38994026 -0.36060819 0
-0.17457581 -0.39129639 -0.36082339 0
-0.081256866 -0.44699478 -0.35965976 0
0.026109695 -0.42850494 -0.35154417 0
0.12953568 -0.48010063 -0.35478079 0
0.31041908 -0.48727226 -0.34746224 0
0.42366409 -0.48644924 -0.34376371 0
-0.26212692 -0.27589703 -0.36286184 0
-0.16723442 -0.29382038 -0.36188433 0
-0.081892014 -0.34868717 -0.35758877 0
0.01789093 -0.347188 -0.35950881 0
0.14559174 -0.35586643 -0.35576397 0
0.25915718 -0.38870049 -0.35475147 0
0.34033203 -0.40823841 -0.3473779 0
0.44750404 -0.42310143 -0.34813738 0
0.57240868 -0.40484524 -0.34761292 0
0.64269638 -0.46628761 -0.33667567 0
0.74675751 -0.45432281 -0.33049726 0
0.85131454 -0.49669456 -0.32105643 0
0.87974548 -0.46801376 -0.3209767 0
-0.25938988 -0.1999464 -0.35810331 0
-0.14743805 -0.20493603 -0.35846949 0
-0.046857834 -0.24337578 -0.35784459 0
0.033903122 -0.22650909 -0.35861775 0
0.11553764 -0.24825859 -0.35466138 0
0.23476601 -0.27654743 -0.35645837 0
0.34922218 -0.2943964 -0.35419077 0
0.48259354 -0.32837105 -0.34770644 0
0.62723923 -0.34866524 -0.34787872 0
0.71859741 -0.32586002 -0.34497315 0
0.80542755 -0.37512875 -0.33670494 0
0.92806244 -0.40692616 -0.32471541 0
-0.23352051 -0.092168808 -0.3562001 0
-0.12099838 -0.10074997 -0.35875994 0
-0.012456894 -0.12470722 -0.36056274 0
0.053293228 -0.14746094 -0.35610971 0
0.14288139 -0.15922546 -0.36092451 0
0.23477364 -0.16396713 -0.35727867 0
0.35007477 -0.2223978 -0.35240263 0
0.41999245 -0.19532776 -0.35297516 0
0.52124405 -0.22499275 -0.35337055 0
0.62457085 -0.26098061 -0.34887123 0
0.74636269 -0.24382591 -0.34410095 0
0.84671593 -0.27648067 -0.33926761 0
0.98072815 -0.28690338 -0.33295548 0
-0.21535492 0.0032463074 -0.35522747 0
-0.10887909 -0.02497673 -0.35596982 0
0.0063076019 -0.02746582 -0.35801628 0
0.078231812 -0.034647942 -0.3565712 0
0.16342163 -0.051086426 -0.35619923 0
0.26046181 -0.058737755 -0.3597165 0
0.35453987 -0.092306137 -0.35792032 0
0.44297028 -0.12626553 -0.3560493 0
0.55146217 -0.13541126 -0.35549316 0
0.66195869 -0.14962959 -0.35036805 0
0.75847054 -0.19949722 -0.34003764 0
0.87244225 -0.18799591 -0.33512801 0
-0.200243 0.10646439 -0.35536456 0
-0.085739136 0.083197594 -0.35785779 0
0.025817871 0.082003593 -0.36122286 0
0.08915329 0.06191349 -0.35317466 0
0.17688942 0.046586037 -0.35330409 0
0.26828194 0.011252403 -0.35449234 0
0.37116241 0.0042381287 -0.35657859 0
0.46259499 -0.04232502 -0.35705703 0
0.58153915 -0.033433914 -0.35720673 0
0.69241524 -0.042402267 -0.35138562 0
0.7936573 -0.082843781 -0.3459155 0
0.90337944 -0.079133987 -0.33810619 0
-0.15460777 0.20649242 -0.35386512 0
-0.082258224 0.17235661 -0.35644272 0
0.033138275 0.16805553 -0.35966378 0
0.10931015 0.18418503 -0.35869494 0
0.18637466 0.12655449 -0.35293812 0
0.28458595 0.12427902 -0.35583824 0
0.3805294 0.097383499 -0.35409489 0
0.4825573 0.077008247 -0.35887751 0
0.60419083 0.06894207 -0.35672405 0
0.72750473 0.083441734 -0.35976258 0
0.8204155 0.027795792 -0.34625101 0
0.9338665 0.02594471 -0.34552041 0
-0.14872169 0.30775642 -0.35672861 0
-0.032588959 0.2794323 -0.35937336 0
0.037368774 0.26137161 -0.35698947 0
0.11520386 0.27271461 -0.35812339 0
0.20421028 0.23165894 -0.35911265 0
0.29239655 0.23600578 -0.35681748 0
0.38801193 0.1897068 -0.35487822 0
0.48670006 0.17571068 -0.3559964 0
0.61209297 0.15953732 -0.35666603 0
0.74071121 0.14630604 -0.36048687 0
0.84227943 0.12704468 -0.34923658 0
0.95005417 0.096673012 -0.34691647 0
-0.14014053 0.41855717 -0.35778648 0
-0.034742355 0.3861208 -0.35639036 0
0.058916092 0.37853241 -0.35648397 0
0.15851593 0.36911106 -0.35547295 0
0.26271248 0.33504105 -0.35855281 0
0.38903427 0.32352352 -0.35469717 0
0.46052361 0.26947498 -0.35841522 0
0.62329292 0.27893543 -0.36178425 0
0.74744225 0.24044895 -0.35952672 0
0.85778427 0.21914291 -0.35258782 0
0.96552467 0.19343281 -0.34761631 0
-0.040945053 0.48389244 -0.35458794 0
0.063438416 0.45923138 -0.35385725 0
0.200737 0.43577099 -0.35445476 0
0.29485703 0.43099403 -0.35611171 0
0.38507652 0.44194794 -0.35309622 0
0.4889183 0.3644228 -0.35689136 0
0.60173607 0.3861866 -0.35197878 0
0.61734581 0.34156132 -0.35892922 0
0.74005699 0.35045433 -0.35597238 0
0.86828232 0.32164955 -0.35474882 0
0.97770119 0.31913948 -0.34840423 0
0.48259163 0.4762888 -0.35599709 0
0.59300041 0.47224236 -0.35050991 0
0.73575401 0.48314571 -0.35718235 0
0.7338295 0.42045498 -0.35440201 0
0.85892296 0.4378109 -0.35170206 0
0.99546242 0.45170403 -0.3550899 0
-0.54559326 -0.42724419 -0.36607677 0
-0.47436142 -0.45194054 -0.36114115 0
-0.36334038 -0.46028328 -0.36263603 0
-0.24848557 -0.48075199 -0.36442605 0
-0.15534782 -0.48207283 -0.36338931 0
-0.50338554 -0.34319973 -0.36406872 0
-0.4294281 -0.35236454 -0.36350286 0
-0.34842873 -0.34647369 -0.36089393 0
-0.24910355 -0.39283752 -0.36474237 0
-0.12773514 -0.41433334 -0.35954735 0
-0.035152435 -0.41794682 -0.3645103 0
0.060216904 -0.42606449 -0.35726735 0
0.14251137 -0.45422363 -0.35752606 0
0.25329018 -0.45736313 -0.35432994 0
-0.48291588 -0.28853607 -0.35879207 0
-0.43104362 -0.24969292 -0.36147878 0
-0.31877518 -0.2585001 -0.36144418 0
-0.23903656 -0.31539345 -0.36275443 0
-0.1314106 -0.29764271 -0.36101389 0
-0.016096115 -0.35803986 -0.35294244 0
0.098150253 -0.31427479 -0.36013785 0
0.17279434 -0.36905479 -0.35458651 0
0.28127098 -0.38231277 -0.35599741 0
0.38822746 -0.40789413 -0.35141581 0
0.50337791 -0.4225235 -0.34712538 0
0.59732437 -0.47135353 -0.34227252 0
0.68548584 -0.49427605 -0.3297427 0
0.73043633 -0.43257141 -0.33359277 0
0.85017776 -0.46070957 -0.32615882 0
-0.40216255 -0.14659595 -0.35727966 0
-0.29021454 -0.16159153 -0.36307681 0
-0.21936607 -0.18781567 -0.36336979 0
-0.11650467 -0.19903088 -0.36024106 0
-0.0041618347 -0.23229885 -0.36264029 0
0.1205101 -0.23462486 -0.35878471 0
0.20796776 -0.25693035 -0.35681728 0
0.31804276 -0.28599548 -0.35665482 0
0.41296768 -0.33978367 -0.35276666 0
0.43556213 -0.28185844 -0.35644469 0
0.54517174 -0.307271 -0.34904128 0
0.64820099 -0.34984493 -0.34527341 0
0.77524376 -0.36848259 -0.33678341 0
0.90340233 -0.38991547 -0.33181515 0
-0.38028526 -0.025301933 -0.36340597 0
-0.27015686 -0.077880859 -0.36235586 0
-0.20046806 -0.1050024 -0.36146709 0
-0.12281036 -0.099349976 -0.36110902 0
0.0067749023 -0.12553883 -0.35983768 0
0.12317276 -0.13241291 -0.36062133 0
0.23213959 -0.16788673 -0.35781598 0
0.35465813 -0.18171501 -0.35847256 0
0.45245552 -0.23434544 -0.35359517 0
0.57408524 -0.22614384 -0.34853309 0
0.69671249 -0.21839046 -0.35345358 0
0.8117466 -0.27423573 -0.33821997 0
0.9540844 -0.28635025 -0.3356334 0
-0.36773109 0.032783508 -0.35725749 0
-0.25046158 0.026912689 -0.3617149 0
-0.1854248 -0.0094327927 -0.35801631 0
-0.084606171 -0.013976097 -0.35379881 0
0.017580032 -0.0086050034 -0.36203447 0
0.13624382 -0.029040337 -0.35971239 0
0.25624847 -0.061489105 -0.35854679 0
0.36983109 -0.10276127 -0.35594106 0
0.49457741 -0.10993862 -0.35842791 0
0.60240555 -0.14307022 -0.35254642 0
0.7031002 -0.19308472 -0.34925064 0
0.84929657 -0.15770245 -0.34336975 0
0.98318672 -0.19821548 -0.33918056 0
-0.34482956 0.14087677 -0.35769856 0
-0.23853111 0.13764668 -0.35810694 0
-0.16980934 0.11280251 -0.35633761 0
-0.093038559 0.098126411 -0.35955617 0
0.024738312 0.081448555 -0.3579239 0
0.15036201 0.05325985 -0.36002827 0
0.26503563 0.0061817169 -0.35476691 0
0.38683891 -0.0012054443 -0.35463777 0
0.51608849 -0.018773079 -0.35546654 0
0.6267395 -0.065617561 -0.35569775 0
0.73877335 -0.071774483 -0.35238338 0
0.87483978 -0.071739197 -0.34646374 0
0.99784851 -0.14150047 -0.33533767 0
-0.33030701 0.23722649 -0.35627729 0
-0.23067284 0.23145866 -0.35578829 0
-0.14238548 0.21955681 -0.35397354 0
-0.056627274 0.18339443 -0.35676631 0
0.07485199 0.17485428 -0.35899299 0
0.19578743 0.15854359 -0.36001858 0
0.28456688 0.11246014 -0.35885596 0
0.40586281 0.09196949 -0.35941994 0
0.52959061 0.075317383 -0.35579926 0
0.66350555 0.064833641 -0.36033922 0
0.76197433 0.030859947 -0.34902442 0
0.90060806 0.020632744 -0.35047117 0
-0.32215118 0.35916233 -0.35948858 0
-0.21967506 0.34317303 -0.3580991 0
-0.13315201 0.31579304 -0.35571527 0
0.014184952 0.27969074 -0.35887924 0
0.11714172 0.27750587 -0.36566189 0
0.1999321 0.23247337 -0.3580938 0
0.29065132 0.22182655 -0.35782328 0
0.42276764 0.25189972 -0.36342013 0
0.42086601 0.1853714 -0.3638649 0
0.54463577 0.19429588 -0.36004162 0
0.68757248 0.16952038 -0.36419809 0
0.77858543 0.10558891 -0.35057765 0
0.9199543 0.10995674 -0.3497659 0
-0.36386681 0.45161915 -0.35538864 0
-0.28933144 0.43077087 -0.35783705 0
-0.20295715 0.44274521 -0.35655344 0
-0.093168259 0.37521172 -0.35642582 0
0.021110535 0.39770317 -0.36001134 0
0.11174393 0.3542757 -0.35993949 0
0.20715714 0.32274437 -0.35950467 0
0.29437637 0.32521915 -0.35726175 0
0.41366196 0.29986095 -0.35798395 0
0.54361534 0.29003525 -0.35858208 0
0.68489838 0.26407623 -0.3616465 0
0.80101204 0.22463131 -0.35608256 0
0.93883514 0.22320843 -0.35184783 0
-0.084949493 0.48890305 -0.36112604 0
0.017723083 0.48735809 -0.3587456 0
0.10342026 0.44927788 -0.35496417 0
0.20140457 0.40850639 -0.35524043 0
0.29249954 0.42216396 -0.35527754 0
0.41232491 0.41505718 -0.35749364 0
0.54042244 0.39074707 -0.35783163 0
0.65294647 0.4123497 -0.34736434 0
0.67186928 0.36891174 -0.35556406 0
0.80438232 0.33521366 -0.35656399 0
0.93813515 0.31459522 -0.34525907 0
0.96203232 0.34098148 -0.36028048 0
0.53725052 0.49241543 -0.35859683 0
0.65958786 0.48486996 -0.35274637 0
0.7966938 0.46899605 -0.35574186 0
0.95022774 0.42542267 -0.35062015 0
0.97670174 -0.49423695 -0.31711757 0
-0.70183945 -0.41577435 -0.36141974 0
-0.64364243 -0.41176414 -0.36079061 0
-0.55802536 -0.46083736 -0.36208037 0
-0.45173645 -0.46667671 -0.36022446 0
-0.35598564 -0.46900845 -0.36618319 0
-0.25939941 -0.48142624 -0.36174691 0
-0.14551163 -0.49378204 -0.36264932 0
-0.61111641 -0.3213644 -0.36122307 0
-0.50875473 -0.35541821 -0.36376205 0
-0.42018127 -0.34392452 -0.35965794 0
-0.34842682 -0.37936878 -0.36425552 0
-0.2501545 -0.3754034 -0.36007291 0
-0.16810799 -0.41877079 -0.36195692 0
-0.068344116 -0.42710114 -0.35470578 0
0.026350021 -0.44163895 -0.35485598 0
0.14177704 -0.46032524 -0.35424495 0
0.2616291 -0.47096634 -0.35121706 0
0.38748741 -0.47830105 -0.35009074 0
0.61647797 -0.49826908 -0.33867204 0
-0.62192726 -0.22354031 -0.35665983 0
-0.50131035 -0.24613857 -0.36022228 0
-0.37362862 -0.21139717 -0.3674646 0
-0.31031609 -0.26836109 -0.36382642 0
-0.21245766 -0.26480293 -0.35982096 0
-0.12726974 -0.30604649 -0.36482763 0
-0.02406311 -0.2990427 -0.35985821 0
0.06498909 -0.32572269 -0.35672292 0
0.17873955 -0.3637991 -0.35969323 0
0.30056953 -0.36538029 -0.35137385 0
0.41744995 -0.39357662 -0.34872067 0
0.5332489 -0.42371368 -0.34417641 0
0.64298248 -0.46420956 -0.33303773 0
0.79391861 -0.45630932 -0.32420561 0
0.94890213 -0.45719242 -0.31979108 0
-0.59182167 -0.13276291 -0.35975346 0
-0.49995613 -0.13737011 -0.36065745 0
-0.38968468 -0.14336109 -0.36233619 0
-0.28478813 -0.16940308 -0.35965878 0
-0.19298553 -0.18329144 -0.35614976 0
-0.095022202 -0.20458317 -0.36568168 0
-0.00047683716 -0.21722698 -0.35935885 0
0.088775635 -0.24192047 -0.35635531 0
0.19932747 -0.29372692 -0.35269666 0
0.33679199 -0.27154541 -0.35297421 0
0.44637871 -0.31585979 -0.35093477 0
0.4648838 -0.26723385 -0.35139239 0
0.56541634 -0.33200359 -0.34373477 0
0.70550156 -0.35400772 -0.34060541 0
0.855196 -0.36759567 -0.33350435 0
-0.55443001 -0.0035228729 -0.36113647 0
-0.46077919 -0.060832977 -0.35572219 0
-0.3665657 -0.058498383 -0.35915512 0
-0.26430321 -0.077064514 -0.35911053 0
-0.16826057 -0.093877792 -0.36222777 0
-0.071870804 -0.11292362 -0.36403394 0
0.023609161 -0.11830997 -0.35855225 0
0.11050224 -0.15666008 -0.356801 0
0.23623657 -0.17130566 -0.35941291 0
0.3631649 -0.19989586 -0.35569933 0
0.488451 -0.2039957 -0.35638058 0
0.61615944 -0.19840813 -0.35691649 0
0.7404995 -0.26464558 -0.33976549 0
0.89332199 -0.27366352 -0.33845553 0
-0.53609467 0.091368675 -0.35769019 0
-0.47429085 0.043560028 -0.35727972 0
-0.35081863 0.033770561 -0.35725045 0
-0.24372864 0.029434204 -0.36001074 0
-0.14964676 -0.0014343262 -0.36378911 0
-0.059656143 -0.014162064 -0.3576014 0
0.044721603 -0.013175011 -0.35774657 0
0.13881302 -0.031249046 -0.35916522 0
0.25193405 -0.094887733 -0.3568708 0
0.39135742 -0.047963142 -0.34829658 0
0.39509392 -0.087491989 -0.35991877 0
0.51551819 -0.12147903 -0.35570857 0
0.62796974 -0.16036797 -0.35232642 0
0.76653671 -0.18379784 -0.3417314 0
0.78738213 -0.11733246 -0.34502727 0
0.91815186 -0.19041538 -0.33455077 0
-0.52457619 0.16803074 -0.35634756 0
-0.45449448 0.14759731 -0.35802785 0
-0.35401917 0.13260365 -0.35892132 0
-0.23159981 0.11020756 -0.36039367 0
-0.14299011 0.094633102 -0.35769051 0
-0.046453476 0.10686111 -0.35583526 0
0.052082062 0.059822083 -0.35561502 0
0.14765167 0.05472374 -0.35398737 0
0.27274323 0.01878643 -0.35646906 0
0.55891609 0.016191483 -0.36200503 0
0.66156006 -0.054667473 -0.35465217 0
0.79991341 -0.063942909 -0.34175271 0
0.96072578 -0.060189247 -0.3452321 0
-0.5053196 0.2693243 -0.36162037 0
-0.42086601 0.25025463 -0.35560003 0
-0.31500244 0.22719479 -0.35882506 0
-0.22605133 0.19008923 -0.356857 0
-0.1352253 0.19853115 -0.35425523 0
-0.025735855 0.21939087 -0.36188367 0
0.061775208 0.16705418 -0.35467613 0
0.16005325 0.12991619 -0.35621595 0
0.27999878 0.11109066 -0.351879 0
0.41063881 0.062113762 -0.35096803 0
0.42640877 0.10244179 -0.35997549 0
0.56728363 0.092506409 -0.3573927 0
0.68799782 0.043260574 -0.35594937 0
0.83392334 0.050014496 -0.35032591 0
0.96881676 -0.014789581 -0.33927357 0
-0.49706841 0.38439941 -0.36172101 0
-0.37734222 0.35008812 -0.35965049 0
-0.28968239 0.31711006 -0.35770005 0
-0.21146774 0.32489109 -0.35849479 0
-0.12394142 0.33010769 -0.3551181 0
-0.027765274 0.27378082 -0.35707995 0
0.075391769 0.2811203 -0.35695615 0
0.18264771 0.25318432 -0.36360982 0
0.29729271 0.2420454 -0.35841915 0
0.43248558 0.22082996 -0.35822225 0
0.57614899 0.20185375 -0.35836315 0
0.71109009 0.14833641 -0.3574481 0
0.85134888 0.12874222 -0.35099944 0
-0.47516441 0.4833107 -0.35751548 0
-0.39038467 0.44217205 -0.35810831 0
-0.28791046 0.41865921 -0.3565346 0
-0.21129227 0.44467831 -0.35638615 0
-0.11861801 0.36694622 -0.35706165 0
-0.019176483 0.40537739 -0.35853672 0
0.078830719 0.36550903 -0.35652384 0
0.17376709 0.32119656 -0.35500789 0
0.29471016 0.29570961 -0.35540518 0
0.43494606 0.30629349 -0.35886008 0
0.56896591 0.28746891 -0.35395783 0
0.72014618 0.26206779 -0.35890904 0
0.85706711 0.19601345 -0.34751499 0
-0.069477081 0.48223495 -0.35724118 0
0.069217682 0.48734856 -0.35136327 0
0.091796875 0.47720432 -0.36295655 0
0.19022751 0.44526005 -0.36276853 0
0.3032093 0.42670536 -0.3583782 0
0.42476082 0.4068346 -0.35404024 0
0.57155037 0.38660145 -0.35633451 0
0.71300507 0.3610096 -0.35592729 0
0.87071037 0.28647232 -0.35070252 0
0.56746483 0.46908855 -0.35630792 0
0.7151947 0.46069336 -0.35899711 0
0.8637867 0.4438591 -0.34768817 0
0.88008308 0.38832569 -0.35396919 0
-0.87635612 -0.49569464 -0.36230513 0
-0.79316902 -0.49647713 -0.36381492 0
-0.70274544 -0.49738407 -0.36337721 0
-0.81061745 -0.40628624 -0.36336917 0
-0.69525909 -0.40382004 -0.36270845 0
-0.59080505 -0.40052891 -0.36520645 0
-0.4907074 -0.44284153 -0.36500555 0
-0.39948463 -0.48483086 -0.36215529 0
-0.29046059 -0.49152851 -0.36206454 0
-0.17186928 -0.4734621 -0.36511901 0
-0.7695694 -0.28437614 -0.36551604 0
-0.69784355 -0.31272411 -0.36029384 0
-0.57719421 -0.3370924 -0.36380786 0
-0.44517708 -0.34138966 -0.36394876 0
-0.34588432 -0.36251545 -0.36401215 0
-0.25348473 -0.40032387 -0.36473402 0
-0.13857269 -0.38762951 -0.36141676 0
-0.045408249 -0.42528725 -0.36671358 0
0.087236404 -0.43076515 -0.35945216 0
0.19791603 -0.49116325 -0.35713819 0
0.34248924 -0.47453499 -0.35102999 0
-0.73161507 -0.19198036 -0.36148819 0
-0.65506172 -0.19789696 -0.36260298 0
-0.57870865 -0.22007179 -0.36498263 0
-0.47233772 -0.24803352 -0.36433542 0
-0.30942726 -0.24817467 -0.36266243 0
-0.21179008 -0.28450012 -0.36369914 0
-0.11008644 -0.30441475 -0.36094847 0
-0.011579514 -0.32704353 -0.36321297 0
0.12902069 -0.31011009 -0.36499372 0
0.23949814 -0.38454342 -0.35603413 0
0.37407684 -0.3883152 -0.34940615 0
0.49630547 -0.4288168 -0.34753996 0
0.62290573 -0.48879528 -0.33147249 0
0.75272751 -0.49229527 -0.32549599 0
0.80347252 -0.42231274 -0.33276662 0
-0.69867325 -0.094871521 -0.35925338 0
-0.62728882 -0.11265469 -0.35917333 0
-0.55361938 -0.13128567 -0.36025921 0
-0.47044945 -0.14022255 -0.36146635 0
-0.38793564 -0.15433311 -0.36310673 0
-0.28784561 -0.16808605 -0.36213639 0
-0.18312263 -0.18031979 -0.36247799 0
-0.081701279 -0.21221733 -0.36175102 0
0.014818192 -0.23514366 -0.35931551 0
0.14038277 -0.26399994 -0.36008543 0
0.29214859 -0.25035477 -0.36164278 0
0.41164398 -0.2936573 -0.35516298 0
0.52725792 -0.34306526 -0.34944841 0
0.68167686 -0.36567497 -0.34701532 0
0.69989014 -0.33250904 -0.34606284 0
0.83467102 -0.39712143 -0.33095405 0
0.97724342 -0.44922161 -0.31738591 0
-0.63195229 -0.0027503967 -0.36288244 0
-0.5220623 -0.018668175 -0.36177745 0
-0.44542503 -0.039840698 -0.36219966 0
-0.36603165 -0.063405991 -0.36277211 0
-0.26927376 -0.085341454 -0.36150521 0
-0.16485214 -0.096450806 -0.3619369 0
-0.061132431 -0.13353539 -0.36088032 0
0.044424057 -0.12072754 -0.35971528 0
0.16994095 -0.14770222 -0.35943294 0
0.30265236 -0.20597267 -0.35577598 0
0.4484005 -0.19790363 -0.35641131 0
0.5599041 -0.26065922 -0.35295534 0
0.72297287 -0.26618862 -0.34325901 0
0.88657379 -0.27957249 -0.34075612 0
-0.61349487 0.079212189 -0.36178085 0
-0.50151253 0.068658829 -0.3616758 0
-0.42869186 0.056899071 -0.35815185 0
-0.35644341 0.019085884 -0.35540348 0
-0.24642372 0.026558876 -0.36287335 0
-0.14993477 0.0021629333 -0.35904035 0
-0.040342331 -0.035629272 -0.36217287 0
0.067485809 -0.012084007 -0.35950911 0
0.19986916 -0.021893501 -0.36211598 0
0.3337822 -0.085635185 -0.35984683 0
0.48462677 -0.093714714 -0.35882759 0
0.60175514 -0.1471796 -0.35608381 0
0.75917816 -0.15622711 -0.34491703 0
0.91379738 -0.19975662 -0.3413417 0
0.92640877 -0.15750885 -0.3389056 0
-0.58620453 0.18718719 -0.36353883 0
-0.48867989 0.15594482 -0.3587639 0
-0.39185715 0.16141891 -0.35690632 0
-0.33280182 0.12702942 -0.36142954 0
-0.23886681 0.11240959 -0.35849437 0
-0.13339806 0.11584473 -0.359687 0
-0.02208519 0.083021164 -0.36318541 0
0.084331512 0.093167305 -0.36102811 0
0.20120811 0.017942429 -0.35541189 0
0.3506279 0.0046014786 -0.35853899 0
0.50219154 -0.014045715 -0.35595703 0
0.62520599 -0.077456474 -0.35698533 0
0.64777184 -0.0094404221 -0.361045 0
0.7863121 -0.068051338 -0.34710634 0
0.95398331 -0.074381828 -0.34524509 0
-0.61911011 0.34352303 -0.35751361 0
-0.5885601 0.28217793 -0.36152884 0
-0.4609623 0.26146507 -0.3690384 0
-0.37983322 0.2690239 -0.3560788 0
-0.28857803 0.24050522 -0.35788071 0
-0.2188797 0.22597313 -0.3622264 0
-0.12186623 0.21599865 -0.35875428 0
-0.01345253 0.18391037 -0.36050883 0
0.083084106 0.14301109 -0.35615709 0
0.22151566 0.12978745 -0.3589544 0
0.37410736 0.1235342 -0.36333564 0
0.52513885 0.093062401 -0.36150485 0
0.66568375 0.055983543 -0.35988623 0
0.8162365 0.033245087 -0.3520886 0
0.97437668 0.0013780594 -0.34412032 0
-0.60840797 0.42804146 -0.36163425 0
-0.54014778 0.37952042 -0.35909551 0
-0.4566288 0.36742496 -0.3646819 0
-0.33209419 0.35430717 -0.3573539 0
-0.22563744 0.30093956 -0.35211894 0
-0.11268044 0.32045555 -0.35815537 0
-0.0047454834 0.2868681 -0.35896492 0
0.096952438 0.2563076 -0.35751623 0
0.23321342 0.25106335 -0.35886258 0
0.37592316 0.21506596 -0.35932055 0
0.5279007 0.18510532 -0.35808694 0
0.68056488 0.14155388 -0.35653785 0
0.83949089 0.12086105 -0.35475361 0
0.99398804 0.082676888 -0.34261119 0
-0.60954285 0.48902702 -0.36067307 0
-0.54165649 0.47063732 -0.35693866 0
-0.44374084 0.4615593 -0.3586022 0
-0.34607124 0.43312168 -0.35882556 0
-0.21240997 0.40402126 -0.35702875 0
-0.10852432 0.40143871 -0.35812935 0
-0.0029335022 0.3838501 -0.35635012 0
0.12073708 0.41405964 -0.36598769 0
0.23823166 0.34529591 -0.358089 0
0.37764168 0.29304218 -0.35914654 0
0.68506432 0.26337242 -0.35695183 0
0.86098862 0.24094296 -0.35714674 0
-0.20991325 0.48636913 -0.35776827 0
0.0059757233 0.49029064 -0.36036301 0
0.11179543 0.47859192 -0.36028418 0
0.23542786 0.4506216 -0.35499635 0
0.38035202 0.4234848 -0.35890341 0
0.53781891 0.37749386 -0.36228809 0
0.695755 0.38306808 -0.36307997 0
0.86026573 0.32350636 -0.35086849 0
0.51879692 0.47530174 -0.35405052 0
0.68050575 0.44393921 -0.35652816 0
0.86462975 0.43581295 -0.35511959 0
-0.98137474 -0.44764709 -0.36959955 0
-0.89157104 -0.47857475 -0.36727494 0
-0.80184555 -0.48310041 -0.36234719 0
-0.99812889 -0.36188889 -0.37102041 0
-0.88562393 -0.37202168 -0.36742458 0
-0.75284386 -0.38082123 -0.37189311 0
-0.65992355 -0.38168144 -0.36988825 0
-0.56218529 -0.41094971 -0.36592859 0
-0.46459198 -0.44542408 -0.36783266 0
-0.34696579 -0.45503426 -0.36914343 0
-0.25013733 -0.48867512 -0.36586782 0
-0.11286163 -0.49325085 -0.36534423 0
-0.94417572 -0.25317478 -0.36801729 0
-0.87243843 -0.27388096 -0.36667642 0
-0.76566696 -0.29436302 -0.36981922 0
-0.65151978 -0.30836868 -0.36714238 0
-0.53141785 -0.33582306 -0.36220574 0
-0.4227562 -0.3459959 -0.36457989 0
-0.32809067 -0.41264534 -0.3691296 0
-0.30572319 -0.35463333 -0.36727127 0
-0.20528221 -0.37190723 -0.36310494 0
-0.06986618 -0.37822819 -0.36518219 0
0.041374207 -0.47303295 -0.35928252 0
0.1874485 -0.46425819 -0.36175039 0
0.32768059 -0.46416569 -0.35824981 0
-0.90523148 -0.15859509 -0.36462912 0
-0.840065 -0.19440556 -0.36251783 0
-0.76453972 -0.20627785 -0.36520615 0
-0.66367722 -0.21617317 -0.36428633 0
-0.54814148 -0.22889996 -0.36676517 0
-0.49325562 -0.21961498 -0.3644219 0
-0.3930397 -0.24973488 -0.36255378 0
-0.28493309 -0.29146099 -0.36724341 0
-0.16999435 -0.26508522 -0.36219636 0
-0.043859482 -0.30180359 -0.36656451 0
0.084840775 -0.34792328 -0.36401376 0
0.21676826 -0.38798332 -0.35712332 0
0.34670639 -0.4129467 -0.35444495 0
0.52379608 -0.40408421 -0.34980071 0
0.63604927 -0.47054291 -0.3430495 0
0.82095718 -0.45937347 -0.3294096 0
0.97638321 -0.48591805 -0.31970769 0
-0.83166122 -0.059017181 -0.36648628 0
-0.72717667 -0.099370956 -0.36576766 0
-0.65206337 -0.11582565 -0.36358362 0
-0.5706501 -0.12664032 -0.3673645 0
-0.46646118 -0.13251019 -0.36881799 0
-0.36505699 -0.15115643 -0.36507413 0
-0.25808334 -0.19482708 -0.36801088 0
-0.15095901 -0.20080757 -0.36213908 0
-0.028230667 -0.24699974 -0.36418048 0
0.10244942 -0.28141022 -0.35773769 0
0.12675476 -0.204422 -0.36349776 0
0.26586342 -0.26220798 -0.3600105 0
0.38896179 -0.30534267 -0.355746 0
0.55774879 -0.31502438 -0.35340607 0
0.69057465 -0.38246918 -0.34677204 0
0.72752571 -0.34282207 -0.34278658 0
0.89694977 -0.38473797 -0.32965732 0
-0.7954464 0.025582314 -0.3650099 0
-0.70208168 -0.0094223022 -0.3634463 0
-0.62452126 -0.015498161 -0.36244282 0
-0.54453468 -0.024708748 -0.36453235 0
-0.45309067 -0.058955193 -0.36287761 0
-0.34482765 -0.062737465 -0.36494678 0
-0.23340034 -0.074769974 -0.36450294 0
-0.13137817 -0.11922455 -0.36375186 0
-0.0024681091 -0.15175152 -0.36367992 0
0.14478111 -0.13219738 -0.36349362 0
0.30196381 -0.14232254 -0.36352572 0
0.43017006 -0.20088768 -0.35858411 0
0.59173012 -0.22982597 -0.35526186 0
0.7646637 -0.24373913 -0.34819731 0
0.94542503 -0.25435925 -0.33964795 0
-0.80151558 0.12146473 -0.36849666 0
-0.67493248 0.108778 -0.3632313 0
-0.59621429 0.089432716 -0.36695847 0
-0.52409744 0.073400497 -0.36146 0
-0.42959213 0.05120182 -0.36396265 0
-0.32177162 0.054558754 -0.36607927 0
-0.21671677 0.017421722 -0.3640385 0
-0.10783195 -0.007853508 -0.36667311 0
0.023113251 -0.049973488 -0.36574894 0
0.16692543 -0.032339096 -0.36387926 0
0.31768036 -0.073190689 -0.36306545 0
0.46359634 -0.11011791 -0.36221984 0
0.61680222 -0.16235065 -0.35348225 0
0.78729057 -0.17447662 -0.34503141 0
0.97942734 -0.15597343 -0.3418406 0
-0.77882767 0.21410465 -0.36723691 0
-0.65548706 0.20422268 -0.36538357 0
-0.58859444 0.17290878 -0.35878104 0
-0.50517273 0.17208004 -0.36213893 0
-0.41537857 0.13897038 -0.36156827 0
-0.31325722 0.14460754 -0.36173731 0
-0.20037651 0.1163168 -0.36587211 0
-0.094734192 0.10318375 -0.36443365 0
0.048059464 0.069550514 -0.36929455 0
0.17869949 0.047604561 -0.35993502 0
0.34246826 0.044039726 -0.36471772 0
0.4936409 -0.017355919 -0.36660391 0
0.65472984 -0.054808617 -0.35928464 0
0.81910896 -0.077627182 -0.34877992 0
0.99860191 -0.096404076 -0.34259167 0
-0.74523735 0.31658936 -0.36852673 0
-0.64071274 0.30511665 -0.36601344 0
-0.56499481 0.29314327 -0.36476102 0
-0.49056244 0.25775909 -0.36416206 0
-0.39874458 0.25719833 -0.36128137 0
-0.30422401 0.23503304 -0.35859597 0
-0.19627953 0.19787693 -0.35970518 0
-0.07995224 0.21471691 -0.36449385 0
0.051431656 0.16461754 -0.36305505 0
0.19990349 0.16837692 -0.36304852 0
0.34645653 0.099539757 -0.35987329 0
0.5115242 0.10248184 -0.36350176 0
0.68503761 0.039493561 -0.36328861 0
0.84989357 0.024256706 -0.35223472 0
-0.78283501 0.4660511 -0.36516568 0
-0.73778915 0.41155243 -0.36641118 0
-0.63248634 0.39916039 -0.36619225 0
-0.56032753 0.37879372 -0.36288455 0
-0.4849987 0.345891 -0.36180985 0
-0.35516357 0.35195065 -0.36179286 0
-0.28287888 0.38259602 -0.36357778 0
-0.18784714 0.29924393 -0.35767096 0
-0.076587677 0.30779934 -0.35946912 0
0.061069489 0.27322483 -0.3607505 0
0.20128441 0.26671219 -0.35702723 0
0.19524002 0.21529388 -0.35602796 0
0.35941887 0.22007656 -0.36235657 0
0.51504707 0.20812416 -0.35977137 0
0.71129036 0.1480608 -0.36378893 0
0.87907028 0.12578392 -0.35644543 0
-0.79040909 0.49753284 -0.360879 0
-0.70227051 0.49646568 -0.36765003 0
-0.51708794 0.47700405 -0.3624846 0
-0.41290092 0.44295692 -0.36344016 0
-0.2771492 0.44927216 -0.36495748 0
-0.18338013 0.45859718 -0.35521856 0
-0.17414284 0.42342472 -0.36118236 0
-0.081916809 0.3686552 -0.35331753 0
0.073497772 0.38189602 -0.36346731 0
0.22280502 0.35952568 -0.36675963 0
0.51709747 0.31887054 -0.35972285 0
0.51109886 0.25405502 -0.35675094 0
0.71565437 0.24776363 -0.35945243 0
0.89393616 0.20983791 -0.35597518 0
-0.063663483 0.46147537 -0.36213642 0
0.080226898 0.48796749 -0.36506602 0
0.22109413 0.44672012 -0.36331987 0
0.37071419 0.40284348 -0.36527473 0
0.51555824 0.38620472 -0.35916826 0
0.71641541 0.37089062 -0.35996825 0
0.72733688 0.34292507 -0.36561766 0
0.90533257 0.2927742 -0.35596666 0
0.51365852 0.47708321 -0.35952362 0
0.71649361 0.43425751 -0.36084893 0
0.91887665 0.40006065 -0.35868034 0
0.91480446 0.49095345 -0.35731706 0
-0.97940636 -0.451828 -0.37150538 0
-0.90498543 -0.48351049 -0.36582556 0
-0.80212593 -0.49119473 -0.3657741 0
-0.68712807 -0.4988203 -0.36358857 0
-0.95288467 -0.3645277 -0.36469373 0
-0.85744095 -0.39134407 -0.36249059 0
-0.74547768 -0.38188648 -0.365486 0
-0.6613884 -0.45365906 -0.35738847 0
-0.53098297 -0.43201351 -0.36333561 0
-0.41795158 -0.44277573 -0.36830047 0
-0.28559875 -0.48233986 -0.36676997 0
-0.14339256 -0.49921036 -0.36311916 0
-0.95201302 -0.28564835 -0.36365181 0
-0.83146858 -0.28160381 -0.36447951 0
-0.71620178 -0.30806637 -0.36103535 0
-0.61136818 -0.33235455 -0.36598271 0
-0.49106598 -0.33607101 -0.36638832 0
-0.38865662 -0.37293434 -0.36527672 0
-0.25377846 -0.39951611 -0.36464468 0
-0.11642647 -0.42439747 -0.35885593 0
0.032598495 -0.44355774 -0.36319855 0
0.17466545 -0.4541893 -0.35873014 0
-0.94057083 -0.18939972 -0.36652243 0
-0.84227562 -0.20389557 -0.36804888 0
-0.72240067 -0.18443203 -0.36698747 0
-0.61457634 -0.22528553 -0.3588275 0
-0.46862411 -0.25332546 -0.36028099 0
-0.36273193 -0.28455734 -0.35911152 0
-0.22023582 -0.30301857 -0.36538291 0
-0.077035904 -0.30863667 -0.36307305 0
0.056957245 -0.36462212 -0.35792315 0
0.19003677 -0.41355419 -0.35699132 0
0.21562767 -0.34439182 -0.36009961 0
0.3758297 -0.38878441 -0.35128579 0
0.54955292 -0.43507862 -0.34680983 0
0.68299866 -0.45969868 -0.33551961 0
0.84755325 -0.48549366 -0.32202181 0
-0.90513039 -0.089235306 -0.36587238 0
-0.82455254 -0.088963509 -0.36279553 0
-0.74738312 -0.10266113 -0.36127636 0
-0.64903641 -0.10835075 -0.36440516 0
-0.54709625 -0.11309242 -0.36206594 0
-0.43201065 -0.12214947 -0.36339158 0
-0.32951164 -0.16611862 -0.36337146 0
-0.19498253 -0.21526814 -0.36404756 0
-0.058671951 -0.24427795 -0.36110762 0
0.093568802 -0.2451582 -0.36164856 0
0.23488617 -0.2946167 -0.35597914 0
0.57729912 -0.35471821 -0.34686425 0
0.75993729 -0.36971283 -0.33834502 0
0.90484047 -0.41029549 -0.329687 0
-0.97139168 0.0616436 -0.36776584 0
-0.86833763 0.034436226 -0.36589107 0
-0.79027557 0.035163879 -0.36207861 0
-0.71267128 0.017525673 -0.3631402 0
-0.62267494 -0.0098743439 -0.36179382 0
-0.53437042 -0.042265892 -0.35471961 0
-0.41528893 -0.038045883 -0.36191708 0
-0.30918312 -0.074134827 -0.36351305 0
-0.16474915 -0.093762398 -0.3682065 0
-0.026935577 -0.128582 -0.36370692 0
0.11193657 -0.16208744 -0.35737741 0
0.27144814 -0.16968822 -0.35980201 0
0.44228172 -0.21956444 -0.36108407 0
0.62506294 -0.23569298 -0.35531554 0
0.80818748 -0.26256657 -0.34418756 0
0.96946907 -0.31662464 -0.33572134 0
-0.97391129 0.13737965 -0.36430863 0
-0.8605175 0.14781857 -0.36663178 0
-0.76758957 0.14146709 -0.36145344 0
-0.68723869 0.11353207 -0.36727929 0
-0.61326599 0.0480299 -0.3565408 0
-0.50275421 0.072963715 -0.36202243 0
-0.40151024 0.046625137 -0.36022615 0
-0.29520607 0.02966404 -0.35928002 0
-0.15489769 -0.012700081 -0.36339045 0
-0.0018920898 -0.018818855 -0.36450785 0
0.14084816 -0.037798882 -0.35986999 0
0.28938866 -0.081495285 -0.35646424 0
0.47587967 -0.12829685 -0.35836408 0
0.64750481 -0.17594147 -0.34976426 0
0.83607864 -0.18105412 -0.3439998 0
-0.94280243 0.25810719 -0.36615574 0
-0.84777451 0.23488522 -0.36415714 0
-0.75048256 0.22482586 -0.36375466 0
-0.6764679 0.17955208 -0.36511603 0
-0.58390999 0.17321301 -0.36233291 0
-0.49121094 0.16008472 -0.35746717 0
-0.38642311 0.13370323 -0.36009657 0
-0.27600861 0.15599155 -0.36048132 0
-0.14370155 0.097679138 -0.35998851 0
0.0033321381 0.046760559 -0.36147365 0
0.16085815 0.068193436 -0.36085919 0
0.30886841 0.0097236633 -0.35790509 0
0.49580002 -0.06368351 -0.35092521 0
0.69158554 -0.052438736 -0.35911405 0
0.86545753 -0.089776039 -0.34432757 0
-0.92697525 0.35923481 -0.36438778 0
-0.81777191 0.33001328 -0.36283618 0
-0.7364502 0.3110714 -0.36577892 0
-0.65820694 0.28682518 -0.36683902 0
-0.57030487 0.28697014 -0.36034665 0
-0.47508621 0.25260067 -0.35998383 0
-0.37297249 0.23458767 -0.35859644 0
-0.26172447 0.25039101 -0.36125299 0
-0.12729263 0.22133541 -0.36009997 0
0.018861771 0.16197205 -0.36338145 0
0.16676331 0.15127373 -0.35579455 0
0.3295536 0.112257 -0.36140919 0
0.52575302 0.064852715 -0.35849866 0
0.71583176 0.037751198 -0.35521692 0
0.89764404 0.014624596 -0.34809133 0
-0.90735817 0.46777153 -0.36430153 0
-0.80618477 0.44124222 -0.36444724 0
-0.72475433 0.42655468 -0.36656582 0
-0.64993286 0.40788364 -0.3643803 0
-0.56124878 0.38396835 -0.360394 0
-0.46207428 0.36330128 -0.36127347 0
-0.35954094 0.35014725 -0.35976464 0
-0.25880051 0.32157135 -0.35760567 0
-0.1215229 0.32028484 -0.35664931 0
0.023159027 0.29599094 -0.35489514 0
0.022546768 0.23967552 -0.35860953 0
0.18172646 0.26309967 -0.35787389 0
0.33763313 0.22692108 -0.36055747 0
0.53962898 0.16211224 -0.36006814 0
0.75205231 0.15844917 -0.36313838 0
0.91546631 0.088625908 -0.34448364 0
-0.50509834 0.47031307 -0.3615784 0
-0.38223648 0.46356392 -0.35808554 0
-0.2460537 0.42894268 -0.36093304 0
0.03459549 0.38951397 -0.35819563 0
0.19953346 0.37789917 -0.36386776 0
0.34156036 0.36441994 -0.35936466 0
0.34301376 0.32095146 -0.36204726 0
0.54450417 0.26037884 -0.36115384 0
0.76003838 0.23950958 -0.36020839 0
0.9431057 0.20800686 -0.34995666 0
-0.1042347 0.48840141 -0.36162305 0
0.031885147 0.44752312 -0.35498694 0
0.20290756 0.45346832 -0.36371452 0
0.33791351 0.40188599 -0.35594535 0
0.52867889 0.38298512 -0.35273695 0
0.54801178 0.36431503 -0.36261764 0
0.75162125 0.37409973 -0.3548986 0
0.76821899 0.34491634 -0.36328664 0
0.96621704 0.32566643 -0.35585567 0
0.74430466 0.43442059 -0.35226679 0
0.96777344 0.37486267 -0.35259414 0
0.98361015 0.46751022 -0.35751259 0
-0.97685814 -0.45875645 -0.37111473 0
-0.76121521 -0.48648548 -0.36438185 0
-0.6498909 -0.49927711 -0.36903498 0
-0.93253899 -0.37260532 -0.3662661 0
-0.84241676 -0.40738869 -0.36634931 0
-0.71045685 -0.38263607 -0.36534539 0
-0.60829163 -0.41589451 -0.36497283 0
-0.47439003 -0.45476341 -0.36455393 0
-0.31920815 -0.46635437 -0.37004492 0
-0.99584198 -0.23451328 -0.36982614 0
-0.88379288 -0.25888062 -0.36606935 0
-0.79454231 -0.29642105 -0.36506149 0
-0.67868042 -0.29848671 -0.36557695 0
-0.57444191 -0.32797623 -0.36025205 0
-0.43279266 -0.3491869 -0.36302847 0
-0.2967701 -0.40954971 -0.36639184 0
-0.13829994 -0.39819622 -0.3679612 0
0.004152298 -0.42917728 -0.36191192 0
0.17540169 -0.46689892 -0.35641208 0
0.36381149 -0.47432518 -0.34991586 0
-0.99186897 -0.14901161 -0.36685261 0
-0.85637283 -0.18452644 -0.36174849 0
-0.75893402 -0.20169544 -0.36449251 0
-0.64829063 -0.20472908 -0.36651891 0
-0.55293465 -0.24414825 -0.35340133 0
-0.55020523 -0.25167274 -0.36228645 0
-0.40266609 -0.25003624 -0.36383483 0
-0.25476646 -0.28469849 -0.36698031 0
-0.10771561 -0.30460644 -0.36594591 0
0.034070969 -0.33878803 -0.36406347 0
0.20685959 -0.38352203 -0.35793421 0
0.57293701 -0.45976734 -0.34647721 0
0.69779587 -0.47690296 -0.33215073 0
-0.99052048 -0.048088074 -0.36690006 0
-0.89566422 -0.066028595 -0.36528462 0
-0.79011154 -0.089925766 -0.36576498 0
-0.71645927 -0.071468353 -0.36597249 0
-0.62776566 -0.13171291 -0.36324126 0
-0.51432037 -0.12093925 -0.3643041 0
-0.38121796 -0.158288 -0.36201978 0
-0.23777008 -0.20745182 -0.36215472 0
-0.22351265 -0.14766026 -0.36346796 0
-0.086536407 -0.22554874 -0.36143064 0
0.064138412 -0.22566891 -0.35907379 0
0.061729431 -0.24860096 -0.36576968 0
0.24973869 -0.26829529 -0.35956752 0
0.42570305 -0.31196785 -0.35517365 0
0.62121201 -0.33757401 -0.35467899 0
0.7632103 -0.40697098 -0.33467394 0
0.98594093 -0.41398811 -0.32582676 0
-0.96105576 0.050692558 -0.36876574 0
-0.88695908 0.03177166 -0.36551338 0
-0.79236794 0.024784088 -0.36410913 0
-0.7052784 -0.018154144 -0.35999173 0
-0.59818649 -0.018932343 -0.36051244 0
-0.48958015 -0.0095977783 -0.36359566 0
-0.36109924 -0.062951088 -0.36125895 0
-0.21474838 -0.069666862 -0.35693005 0
-0.21101189 -0.091593742 -0.36469576 0
-0.052816391 -0.10293293 -0.3646659 0
0.085466385 -0.15030003 -0.36246487 0
0.29052734 -0.13390541 -0.36484662 0
0.64982033 -0.26651764 -0.35124025 0
0.83015823 -0.28598213 -0.34482643 0
-0.94007874 0.13691807 -0.36844146 0
-0.86129189 0.12683678 -0.36941838 0
-0.77398682 0.10230064 -0.36431906 0
-0.67959023 0.078932762 -0.36354011 0
-0.57678604 0.08211422 -0.35859707 0
-0.47513199 0.077118874 -0.35828483 0
-0.34274483 0.025823593 -0.3636868 0
-0.18322754 0.041845322 -0.36909759 0
-0.035118103 0.0012216568 -0.36416015 0
0.10930061 -0.057821274 -0.36603475 0
0.28934097 -0.11433029 -0.35669965 0
0.49038315 -0.14944458 -0.36174643 0
0.68083763 -0.18732262 -0.34961581 0
0.70568085 -0.11542797 -0.3524639 0
0.86175919 -0.19392776 -0.33773643 0
-0.92485428 0.22310352 -0.3665604 0
-0.84608459 0.221632 -0.3658258 0
-0.75167084 0.21010113 -0.36590967 0
-0.65696144 0.18815327 -0.36485168 0
