# .PCD v0.7 - Point Cloud Data file format
VERSION 0.7
FIELDS x y z intensity
SIZE 4 4 4 4
TYPE F F F F
COUNT 1 1 1 1
WIDTH 1294
HEIGHT 1
VIEWPOINT 0 0 0 1 0 0 0
POINTS 1294
DATA ascii
0.94418716 0.28142118 -0.36440408 0
0.41713333 0.37268305 -0.36067146 0
0.50917625 0.33892632 -0.35697365 0
0.61435509 0.33722305 -0.36131963 0
0.73588562 0.35048246 -0.36372781 0
0.83213615 0.35859251 -0.36415654 0
0.93485069 0.37672853 -0.36679029 0
0.41786957 0.46071148 -0.35652432 0
0.5182457 0.429883 -0.35751477 0
0.63305473 0.45334721 -0.36234871 0
0.71047401 0.4450469 -0.35993803 0
0.81414795 0.4521966 -0.36373064 0
0.91548538 0.43090582 -0.36174816 0
0.23733902 -0.44251013 -0.36208689 0
0.33402824 -0.46304417 -0.35943949 0
0.47054863 -0.42624331 -0.36434394 0
0.5481472 -0.43172455 -0.3603617 0
0.64015579 -0.44480896 -0.35828176 0
0.74461365 -0.44138098 -0.36524063 0
0.85647583 -0.44262886 -0.36722299 0
0.96101952 -0.46467161 -0.36228424 0
0.26075935 -0.33739471 -0.36015743 0
0.32829666 -0.37334538 -0.36020046 0
0.44045258 -0.35257673 -0.3615455 0
0.56414032 -0.34724855 -0.36276495 0
0.66334343 -0.32696009 -0.36285341 0
0.76516151 -0.33598804 -0.36228934 0
0.87586212 -0.34569263 -0.37062359 0
0.98151398 -0.35962439 -0.37035719 0
0.27515221 -0.24969053 -0.36141092 0
0.34745407 -0.25530624 -0.35993636 0
0.42612457 -0.23584938 -0.36373779 0
0.54585838 -0.25475883 -0.36074924 0
0.67238045 -0.24928236 -0.35671824 0
0.77845001 -0.24138832 -0.36135036 0
0.88639069 -0.26839399 -0.36510462 0
0.99485779 -0.26267338 -0.36706901 0
0.99762344 -0.2511282 -0.36939105 0
0.28697586 -0.13884783 -0.36118466 0
0.36108971 -0.13042212 -0.36120051 0
0.43130875 -0.15583515 -0.35820943 0
0.54984856 -0.13835287 -0.36194804 0
0.68710709 -0.14523649 -0.3643285 0
0.78914452 -0.15820217 -0.36538193 0
0.8926506 -0.17688608 -0.35834375 0
0.89995956 -0.16682053 -0.36933273 0
0.29534531 -0.040776253 -0.36451179 0
0.36620522 -0.026726246 -0.36171907 0
0.43618965 -0.067622662 -0.35841113 0
0.53929138 -0.045478344 -0.3593649 0
0.68956375 -0.068272591 -0.36058414 0
0.79090881 -0.063306332 -0.36025035 0
0.79860306 -0.090428352 -0.37201717 0
0.90864372 -0.032338619 -0.36980152 0
0.28866386 0.043679237 -0.35786057 0
0.34366798 0.041169167 -0.36350271 0
0.43567657 0.04955864 -0.35826898 0
0.55514717 0.058086395 -0.36146289 0
0.6696701 0.037775517 -0.3635233 0
0.79620743 0.060965061 -0.36450535 0
0.90438843 0.045609951 -0.36412019 0
0.28149605 0.1558671 -0.35720366 0
0.36154747 0.14411449 -0.36137655 0
0.43391609 0.13770247 -0.35994682 0
0.54526138 0.1644249 -0.36212987 0
0.6668911 0.14833355 -0.36406648 0
0.78920937 0.15101099 -0.36165249 0
0.90372276 0.14932394 -0.36639968 0
0.27314568 0.2672267 -0.36003682 0
0.35533524 0.26027584 -0.36463892 0
0.43689156 0.26937532 -0.3604179 0
0.55208015 0.23801565 -0.35825151 0
0.68437767 0.27649689 -0.36653218 0
0.78193283 0.26148176 -0.36309087 0
0.90002251 0.24175024 -0.36842293 0
0.26430893 0.36962843 -0.3643831 0
0.33604622 0.34660864 -0.3609291 0
0.45147324 0.35492229 -0.35857773 0
0.56646538 0.36942005 -0.36215746 0
0.67432594 0.35482836 -0.3665317 0
0.77596855 0.32888079 -0.3644709 0
0.8836956 0.36554146 -0.36712912 0
0.95590591 0.35708475 -0.36760187 0
0.23734283 0.45632982 -0.36066589 0
0.3454895 0.46765137 -0.36293536 0
0.44669342 0.45532131 -0.36037043 0
0.53913689 0.45592833 -0.3566795 0
0.65549278 0.44823837 -0.365008 0
0.76940346 0.44526958 -0.37118828 0
0.86739731 0.43837738 -0.36462957 0
0.97392845 0.44112873 -0.36508873 0
0.055324554 -0.4482255 -0.36338228 0
0.19026566 -0.45123386 -0.36048836 0
0.28404236 -0.44636917 -0.35897094 0
0.36233521 -0.44569826 -0.36388946 0
0.45890427 -0.43498087 -0.36671931 0
0.55299568 -0.44974756 -0.3602882 0
0.660532 -0.43463087 -0.36369354 0
0.75972366 -0.47474432 -0.36381775 0
0.90126801 -0.45867252 -0.36984542 0
0.076969147 -0.35079432 -0.36030072 0
0.14712715 -0.37273407 -0.36239374 0
0.26407814 -0.3533659 -0.36110193 0
0.38440323 -0.33030939 -0.36439455 0
0.47167969 -0.36759233 -0.36443165 0
0.57245445 -0.34294415 -0.36479896 0
0.67796326 -0.33720827 -0.35836858 0
0.78226471 -0.35938215 -0.36460423 0
0.92053986 -0.35746908 -0.36738038 0
0.094892502 -0.24360847 -0.36168659 0
0.16633606 -0.25803041 -0.36235377 0
0.27236748 -0.26655388 -0.36291409 0
0.3802166 -0.21557951 -0.36307359 0
0.48995399 -0.24369526 -0.36568946 0
0.58191681 -0.2617631 -0.36089253 0
0.69527054 -0.22748184 -0.36447266 0
0.7983799 -0.25119257 -0.3649559 0
0.94098473 -0.23050213 -0.37448972 0
0.10298157 -0.16726685 -0.36094067 0
0.18322372 -0.13057137 -0.367374 0
0.25024796 -0.14820433 -0.35968632 0
0.36104965 -0.1242609 -0.36285907 0
0.49401093 -0.14595222 -0.35723642 0
0.59588432 -0.12599802 -0.36327952 0
0.70619202 -0.12834358 -0.36717606 0
0.81167221 -0.14202404 -0.36910152 0
0.94778633 -0.13808537 -0.36983272 0
0.11070442 -0.049624443 -0.36199784 0
0.18296432 -0.055815697 -0.36151344 0
0.26172829 -0.033098698 -0.3668842 0
0.373106 -0.036201954 -0.36341995 0
0.50185776 -0.009806633 -0.36124015 0
0.60141754 -0.022631645 -0.36345357 0
0.71104813 -0.027650356 -0.36602992 0
0.81474495 -0.047899723 -0.36576092 0
0.95660782 -0.029015064 -0.37304032 0
0.11308289 0.077721596 -0.36422709 0
0.18967628 0.074804783 -0.36732039 0
0.25858307 0.04811573 -0.3626903 0
0.38291168 0.055665016 -0.36523795 0
0.49381256 0.034863949 -0.3538838 0
0.60412407 0.06788063 -0.36548519 0
0.71315765 0.061649323 -0.36707157 0
0.81941032 0.056398869 -0.36865115 0
0.95877647 0.042660236 -0.37363279 0
0.10633087 0.14517832 -0.36163986 0
0.18142319 0.13971949 -0.36298686 0
0.25630951 0.14546537 -0.36417875 0
0.37127113 0.16021442 -0.36532256 0
0.5039196 0.18002272 -0.36770901 0
0.60226059 0.17577791 -0.36708882 0
0.71145439 0.15120602 -0.36756209 0
0.81578064 0.16159058 -0.36785424 0
0.82692719 0.13564634 -0.37659663 0
0.95233345 0.1369381 -0.36886314 0
0.099182129 0.26226234 -0.36497968 0
0.17282867 0.24368429 -0.36359406 0
0.27653694 0.26193285 -0.36433887 0
0.37919235 0.26016617 -0.36368689 0
0.487463 0.2127614 -0.35771614 0
0.59493637 0.28410387 -0.3679269 0
0.69824028 0.2638588 -0.36413658 0
0.81042862 0.25036478 -0.36827496 0
0.94610023 0.22932768 -0.36779338 0
0.087375641 0.34080744 -0.36478812 0
0.15224075 0.35054684 -0.36102545 0
0.27111435 0.3593502 -0.36188206 0
0.38570786 0.37625837 -0.36548898 0
0.48239326 0.34957314 -0.36525512 0
0.57707024 0.36401987 -0.36330608 0
0.68640327 0.3758173 -0.36507279 0
0.80141258 0.34745407 -0.36898673 0
0.94574547 0.36054707 -0.37623817 0
0.078077316 0.46254253 -0.36665243 0
0.17292976 0.47852755 -0.36564267 0
0.26044083 0.46007586 -0.36269256 0
0.3721962 0.45565271 -0.36598599 0
0.45907021 0.44705296 -0.36143219 0
0.57818031 0.44130754 -0.3708421 0
0.68084908 0.45973396 -0.36955786 0
0.78311157 0.45508194 -0.36770234 0
0.92956924 0.47282267 -0.37547839 0
-0.1780262 -0.4479332 -0.35696876 0
-0.079446793 -0.4569149 -0.36002421 0
0.025276184 -0.42322731 -0.36173832 0
0.13155365 -0.44075203 -0.35837829 0
0.22522163 -0.44499874 -0.35801923 0
0.32245445 -0.44977045 -0.36109543 0
0.42669487 -0.44655418 -0.35850242 0
0.52527046 -0.46182919 -0.36124623 0
0.65692902 -0.44932318 -0.35973844 0
0.8051796 -0.44973373 -0.3623665 0
0.96194458 -0.45189095 -0.36529118 0
-0.15726471 -0.34599781 -0.35502893 0
-0.085399628 -0.36518192 -0.36120307 0
0.050405502 -0.3487134 -0.35868007 0
0.14966393 -0.33831692 -0.36015737 0
0.23962212 -0.35007858 -0.35333455 0
0.34137154 -0.33261538 -0.36028129 0
0.44489479 -0.33893728 -0.36283603 0
0.54453659 -0.34068298 -0.36346605 0
0.67268181 -0.35675383 -0.36031237 0
0.82393456 -0.33751917 -0.36666906 0
0.97346687 -0.37998343 -0.36512697 0
0.98383522 -0.30850935 -0.36748672 0
-0.14370728 -0.25760412 -0.35626811 0
-0.068246841 -0.25450897 -0.36011666 0
0.019460678 -0.27029657 -0.35939419 0
0.12273598 -0.23796034 -0.35763374 0
0.25748444 -0.21971321 -0.35963273 0
0.35435104 -0.22500181 -0.36129808 0
0.45488167 -0.25435543 -0.36293474 0
0.55222702 -0.25313377 -0.35858873 0
0.6865921 -0.25646544 -0.36262405 0
0.83378983 -0.24151087 -0.36244744 0
0.99521828 -0.22115612 -0.37182915 0
-0.13049507 -0.13443804 -0.35975337 0
-0.055782318 -0.12931156 -0.36054438 0
0.016090393 -0.15991974 -0.36023685 0
0.13689804 -0.15547991 -0.35726351 0
0.26062393 -0.15128851 -0.35684621 0
0.3572197 -0.17470694 -0.35928366 0
0.45941544 -0.16807795 -0.35869932 0
0.55895424 -0.16015959 -0.35876364 0
0.69130898 -0.18221903 -0.35890177 0
0.84226227 -0.13543987 -0.36331338 0
-0.12862587 -0.097548962 -0.35854572 0
-0.077581406 -0.045170307 -0.359308 0
0.019031525 -0.080836773 -0.3586843 0
0.13533783 -0.040571213 -0.35951021 0
0.26709366 -0.036124706 -0.36015806 0
0.365242 -0.067061424 -0.36327162 0
0.46769905 -0.037303448 -0.36306286 0
0.56362152 -0.062311172 -0.3601259 0
0.70387459 -0.051485538 -0.36649659 0
0.84392929 -0.071846485 -0.36203137 0
0.99767303 -0.059149265 -0.36234972 0
-0.12652969 0.057487965 -0.36009735 0
-0.056026459 0.042638302 -0.35749733 0
0.018339157 0.063037872 -0.35877532 0
0.13367462 0.049654007 -0.35854521 0
0.26293564 0.04780674 -0.35702217 0
0.3614254 0.036223412 -0.35914898 0
0.46121407 0.042541981 -0.35722154 0
0.5648365 0.051646709 -0.36092362 0
0.70466042 0.040846348 -0.36590099 0
0.84734154 0.040494442 -0.36493248 0
0.99899864 0.054272652 -0.36388627 0
-0.12827873 0.17655659 -0.36397284 0
-0.058877945 0.15792608 -0.36015728 0
0.0067234039 0.14746141 -0.35369477 0
0.12923431 0.14543676 -0.35914087 0
0.25938416 0.15839291 -0.35906917 0
0.36038589 0.15247917 -0.36233097 0
0.45843124 0.13460541 -0.35840172 0
0.5573101 0.17528868 -0.35923758 0
0.69965172 0.14587498 -0.36423615 0
0.84537697 0.15186787 -0.36593598 0
0.99847221 0.14514208 -0.36607921 0
-0.14157867 0.23518848 -0.3595795 0
-0.072351456 0.22512341 -0.3561545 0
0.023200989 0.25660324 -0.35989994 0
0.12650681 0.25126028 -0.35916716 0
0.24465752 0.25978565 -0.3562237 0
0.3488636 0.24851131 -0.36032236 0
0.45106316 0.25407219 -0.36058366 0
0.546278 0.25145578 -0.35620508 0
0.68899536 0.26194334 -0.36275315 0
0.83922577 0.25259399 -0.36681151 0
0.99834824 0.24317694 -0.37084484 0
-0.15327263 0.35484791 -0.36355513 0
-0.081266403 0.32866764 -0.35993403 0
0.022377014 0.35624552 -0.36156383 0
0.14391327 0.34656239 -0.35925108 0
0.23025131 0.36298084 -0.35684121 0
0.33357239 0.33626413 -0.35798407 0
0.43357277 0.34899855 -0.35744941 0
0.54527664 0.35622168 -0.36372495 0
0.6855278 0.34936237 -0.36683291 0
0.82382965 0.36512184 -0.36488116 0
0.97756386 0.33599234 -0.36310902 0
0.99340248 0.33099794 -0.37289548 0
-0.18248177 0.44015741 -0.35845703 0
-0.077653885 0.45109749 -0.36179626 0
0.033370972 0.44611359 -0.36055312 0
0.13073349 0.45946169 -0.36371174 0
0.21491623 0.4397068 -0.35654491 0
0.31389809 0.43343258 -0.35671011 0
0.41322517 0.44582748 -0.35584572 0
0.52469635 0.45275593 -0.36106384 0
0.66235733 0.43488836 -0.36095428 0
0.68388176 0.41467619 -0.37117663 0
0.80470467 0.40605545 -0.35726175 0
0.97310448 0.44361687 -0.3695032 0
-0.35789108 -0.45753837 -0.36049289 0
-0.28210258 -0.46300459 -0.36073732 0
-0.16702271 -0.44911575 -0.36081511 0
-0.040250778 -0.44808388 -0.3585954 0
0.058931351 -0.43764019 -0.36130521 0
0.16167259 -0.42797041 -0.36374593 0
0.26594734 -0.43992329 -0.36171889 0
0.36862946 -0.44496441 -0.36240232 0
0.49424934 -0.48327255 -0.35968006 0
0.64537621 -0.42747259 -0.36229926 0
0.80373001 -0.43932486 -0.35737523 0
0.96864891 -0.44420671 -0.36657232 0
-0.33205795 -0.34069538 -0.36442983 0
-0.26313782 -0.37674761 -0.36055282 0
-0.18223572 -0.35480022 -0.3587659 0
-0.080015182 -0.3413496 -0.36273295 0
0.027946472 -0.33821297 -0.35972309 0
0.17388153 -0.3547802 -0.36158431 0
0.27902412 -0.34361839 -0.35472062 0
0.38579559 -0.33501482 -0.36159605 0
0.51573944 -0.34803724 -0.36273485 0
0.6619854 -0.32477427 -0.36301583 0
0.82283592 -0.32607985 -0.36432481 0
0.97871017 -0.38381338 -0.36705375 0
0.98479652 -0.33922672 -0.36604095 0
-0.32244873 -0.27479839 -0.35742345 0
-0.25732613 -0.24638557 -0.36050659 0
-0.16547585 -0.24802446 -0.36177832 0
-0.086839676 -0.24724674 -0.3609952 0
-0.0033092499 -0.22718859 -0.3649928 0
0.087020874 -0.24994707 -0.35919297 0
0.18785286 -0.2494092 -0.36232555 0
0.29143715 -0.26510239 -0.36184734 0
0.39402199 -0.25677443 -0.35971817 0
0.52569199 -0.25044012 -0.35943812 0
0.67098618 -0.25363827 -0.36251307 0
0.83641434 -0.24088097 -0.37163389 0
0.99731827 -0.24140453 -0.36865935 0
-0.26716995 -0.12724638 -0.36169344 0
-0.1572094 -0.15300179 -0.35946974 0
-0.077823639 -0.14194536 -0.36014396 0
-0.0014915466 -0.14936256 -0.35709122 0
0.097545624 -0.14013815 -0.36088523 0
0.19543648 -0.13663006 -0.35954791 0
0.30084229 -0.15948153 -0.36147952 0
0.40416718 -0.14834785 -0.36217862 0
0.53677177 -0.14996529 -0.36497003 0
0.67811775 -0.18202162 -0.36292654 0
0.68360901 -0.10395002 -0.3628161 0
0.84057236 -0.14514923 -0.36446756 0
-0.24585724 -0.042751789 -0.36014539 0
-0.1490593 -0.030989647 -0.36252987 0
-0.075712204 -0.042441845 -0.35757136 0
0.0033779144 -0.052401543 -0.35785711 0
0.099031448 -0.05098772 -0.35858995 0
0.20202827 -0.035797596 -0.36271432 0
0.30389786 -0.055931568 -0.35987458 0
0.40602684 -0.046236992 -0.35997957 0
0.53704643 -0.052387238 -0.36063325 0
0.689291 -0.034800529 -0.3662785 0
0.84869194 -0.0070524216 -0.36660671 0
-0.27682877 0.031222343 -0.36030638 0
-0.14771652 0.086862564 -0.36456257 0
-0.076505661 0.051870823 -0.35774279 0
0.0049171448 0.03632164 -0.35965517 0
0.1005249 0.054701805 -0.36024624 0
0.20015335 0.037003994 -0.36099827 0
0.30100441 0.040305614 -0.35710549 0
0.40292358 0.055253506 -0.35743821 0
0.53287125 0.023579597 -0.35618556 0
0.68855476 0.05616951 -0.36448452 0
0.85031319 0.081913471 -0.36807728 0
-0.26770401 0.14276552 -0.36149329 0
-0.16317558 0.12754059 -0.35428131 0
-0.075891495 0.17066669 -0.36305612 0
-0.0023384094 0.14486408 -0.35784471 0
0.092996597 0.14960003 -0.35804826 0
0.1961937 0.16822338 -0.36224961 0
0.30358315 0.15434504 -0.36307767 0
0.40071678 0.1557169 -0.35940093 0
0.53561401 0.14999866 -0.36245072 0
0.67974472 0.11796236 -0.35773355 0
0.8451519 0.17365074 -0.36606437 0
-0.32535172 0.27861452 -0.35846323 0
-0.26817513 0.24334764 -0.36263347 0
-0.16393852 0.2561965 -0.36239693 0
-0.084436417 0.24098778 -0.36176687 0
0.01832962 0.24378204 -0.35664546 0
0.13703537 0.27442455 -0.36222106 0
0.18873024 0.26019287 -0.36250138 0
0.2921772 0.25404596 -0.36086729 0
0.39000511 0.23411894 -0.35638529 0
0.51982498 0.23084164 -0.35483953 0
0.68484497 0.23769855 -0.36715215 0
0.84080505 0.2635169 -0.36710489 0
-0.33498764 0.34991837 -0.35990587 0
-0.25660133 0.34973812 -0.36118853 0
-0.1813755 0.35485172 -0.36088452 0
-0.068143845 0.34420347 -0.36110282 0
0.051218033 0.35250473 -0.36144727 0
0.17352676 0.35318995 -0.36063093 0
0.2782135 0.35828972 -0.36025113 0
0.37558556 0.38055611 -0.35900387 0
0.38732529 0.32180119 -0.36097598 0
0.5158062 0.32175016 -0.358531 0
0.67006111 0.30985451 -0.36143479 0
0.83680916 0.35583019 -0.37043881 0
0.99785995 0.35018301 -0.37045258 0
-0.35066986 0.44074059 -0.36177051 0
-0.27976608 0.47540236 -0.36297673 0
-0.17559052 0.46593142 -0.35932934 0
-0.072956085 0.43972445 -0.3595677 0
0.056535721 0.47417307 -0.36315715 0
0.15759087 0.46378231 -0.36250299 0
0.25668716 0.4589901 -0.358051 0
0.37142563 0.47469091 -0.3652693 0
0.50896645 0.44250393 -0.36473545 0
0.65659142 0.4571104 -0.36541149 0
0.81615829 0.42378378 -0.36307994 0
0.98262024 0.43813181 -0.36745882 0
-0.50487518 -0.45087862 -0.35949743 0
-0.42358589 -0.44492674 -0.35860384 0
-0.34264755 -0.44088912 -0.35652643 0
-0.26248932 -0.45314598 -0.35822386 0
-0.17760658 -0.44575548 -0.35349649 0
-0.079246521 -0.46137571 -0.35877997 0
0.026760101 -0.45304108 -0.3566775 0
0.14368439 -0.42320156 -0.35899425 0
0.24538231 -0.45876551 -0.35762513 0
0.38334846 -0.46978378 -0.36206394 0
0.5368576 -0.43084908 -0.36019266 0
0.69823074 -0.42966938 -0.36086223 0
0.86844826 -0.44150496 -0.35811725 0
-0.44395065 -0.3494668 -0.35851848 0
-0.3271389 -0.35832071 -0.35501501 0
-0.24610519 -0.36185026 -0.35408938 0
-0.15644264 -0.33114624 -0.36069101 0
-0.060281754 -0.35396147 -0.36003017 0
0.043457031 -0.34756947 -0.35696274 0
0.15212059 -0.35698891 -0.35465774 0
0.25722885 -0.36773634 -0.35266614 0
0.40079498 -0.34461498 -0.36089933 0
0.54657555 -0.34117031 -0.35643643 0
0.70331192 -0.39244175 -0.35827976 0
0.70894623 -0.34670305 -0.35683632 0
0.88296127 -0.33034563 -0.35829741 0
-0.46851349 -0.24335289 -0.3543427 0
-0.35716057 -0.24560499 -0.35931444 0
-0.23083115 -0.24612665 -0.35465941 0
-0.14751434 -0.25942135 -0.35973692 0
-0.048963547 -0.25108767 -0.35626036 0
0.05553627 -0.25500536 -0.35893559 0
0.17015266 -0.24052143 -0.36470824 0
0.27037811 -0.24266672 -0.35445437 0
0.41088104 -0.23579454 -0.3584826 0
0.55784798 -0.22924995 -0.35908887 0
0.72151756 -0.24733067 -0.36100069 0
0.89452171 -0.22814798 -0.36180454 0
-0.46094131 -0.15999937 -0.35401279 0
-0.33395195 -0.14324427 -0.35965264 0
-0.22343063 -0.15206957 -0.35448873 0
-0.14069176 -0.15744638 -0.35629663 0
-0.040655136 -0.12940264 -0.35583919 0
0.059591293 -0.16415405 -0.35524929 0
0.17305183 -0.17086983 -0.36065364 0
0.28486443 -0.13948727 -0.36546791 0
0.41814232 -0.13329411 -0.36058986 0
0.56079674 -0.13999176 -0.35687181 0
0.73194885 -0.12889576 -0.363877 0
0.90354347 -0.12548065 -0.365805 0
-0.45508766 -0.051184177 -0.35593334 0
-0.35227776 -0.055383682 -0.35526991 0
-0.24005508 -0.046789169 -0.36184651 0
-0.13570595 -0.053023815 -0.35746253 0
-0.038499832 -0.047700882 -0.35577554 0
0.06924057 -0.030487061 -0.36100674 0
0.17678642 -0.043590069 -0.35962123 0
0.27979851 -0.049903393 -0.35636434 0
0.41489029 -0.035324574 -0.35501724 0
0.56410599 -0.052173615 -0.35850942 0
0.73318672 -0.052395821 -0.36184514 0
0.90467072 -0.04747057 -0.36398521 0
-0.45499802 0.076264381 -0.35774702 0
-0.34656143 0.041501999 -0.35667822 0
-0.23729134 0.024380684 -0.35798952 0
-0.13693428 0.044691086 -0.35732156 0
-0.036439896 0.048994541 -0.35900217 0
0.067098618 0.05394268 -0.36009088 0
0.17025757 0.073079586 -0.35565692 0
0.27365112 0.051143646 -0.35249344 0
0.42126274 0.073967457 -0.36256981 0
0.56380463 0.053295135 -0.35872096 0
0.73471451 0.029555321 -0.36308765 0
0.90516853 0.0047297478 -0.36417735 0
0.90553665 0.074367046 -0.36540759 0
-0.45923424 0.17087889 -0.35949266 0
-0.34579468 0.13363361 -0.35536647 0
-0.22704697 0.12812042 -0.35420531 0
-0.1432209 0.1327014 -0.35594666 0
-0.043401718 0.14572811 -0.35743549 0
0.06048584 0.15485811 -0.35893315 0
0.16669655 0.16877651 -0.35736531 0
0.2716465 0.16076565 -0.3560406 0
0.41440582 0.13556671 -0.35949886 0
0.56339836 0.17114258 -0.36210823 0
0.72924995 0.13162756 -0.36099833 0
0.90199661 0.15226316 -0.36515301 0
-0.45678902 0.25173235 -0.35529643 0
-0.35095787 0.24094582 -0.35920709 0
-0.2378521 0.24965811 -0.35562438 0
-0.15551376 0.25520039 -0.35640195 0
-0.052270889 0.22502756 -0.35649067 0
0.048786163 0.251719 -0.35747826 0
0.15681839 0.25727463 -0.35690624 0
0.26286507 0.25747061 -0.35652691 0
0.39759254 0.3027916 -0.35864836 0
0.40916252 0.24266577 -0.36181223 0
0.55088806 0.24790335 -0.3578226 0
0.72264862 0.23698473 -0.36154464 0
0.89303398 0.26870012 -0.36490995 0
-0.46755981 0.34739113 -0.35816607 0
-0.34363556 0.33305931 -0.35813266 0
-0.25063896 0.35475349 -0.35768598 0
-0.17379951 0.3748126 -0.35667443 0
-0.065782547 0.32390928 -0.3565529 0
0.031801224 0.34916306 -0.35562688 0
0.14270782 0.33584404 -0.35480797 0
0.25313187 0.3598218 -0.3589536 0
0.389925 0.37662029 -0.36022896 0
0.53292274 0.3214035 -0.35178566 0
0.70452499 0.36212349 -0.35898525 0
0.71173286 0.3054862 -0.35886422 0
0.8864975 0.35557461 -0.36671162 0
-0.51411629 0.45615625 -0.35724097 0
-0.42870522 0.43945789 -0.35827106 0
-0.35056496 0.4621973 -0.35991353 0
-0.25940132 0.45472288 -0.35564917 0
-0.1867733 0.42925358 -0.35566717 0
-0.056034088 0.44790506 -0.35570338 0
0.022979736 0.46674299 -0.36235255 0
0.14328384 0.45677614 -0.36633882 0
0.23007584 0.46313238 -0.35649198 0
0.36845398 0.45278358 -0.35561752 0
0.52969551 0.44268656 -0.36066294 0
0.69210243 0.44153309 -0.35895461 0
0.87495995 0.44891262 -0.36759758 0
0.60514832 -0.44094324 -0.36048388 0
0.78673744 -0.43298292 -0.3614018 0
0.29583931 -0.37326145 -0.36336094 0
0.62061119 -0.32338095 -0.36182672 0
0.79610825 -0.36432838 -0.35785431 0
0.31598854 -0.22151566 -0.36857891 0
0.46244812 -0.2866931 -0.36574337 0
0.63040543 -0.22746754 -0.35931361 0
0.81835556 -0.22075701 -0.3707673 0
0.067289352 -0.10738802 -0.36601263 0
0.32110405 -0.11934042 -0.36494866 0
0.47417641 -0.092695236 -0.36284021 0
0.63788223 -0.11988783 -0.3590067 0
0.82062721 -0.16145897 -0.36563361 0
0.18112373 -0.054635525 -0.36610588 0
0.32204628 -0.072997093 -0.36384332 0
0.4742794 -0.017451763 -0.36152607 0
0.64024353 -0.070096493 -0.3593303 0
0.82652092 -0.064333916 -0.36670166 0
0.82532501 0.033388138 -0.36361748 0
0.47085953 0.1766963 -0.36329499 0
0.64628029 0.13138437 -0.36570507 0
0.82134247 0.15110111 -0.36269504 0
0.31695747 0.23969412 -0.36646295 0
0.63070679 0.26790857 -0.36007982 0
0.64226151 0.23898935 -0.36661756 0
0.81938362 0.25576162 -0.36611655 0
0.45419121 0.40992308 -0.36776224 0
0.62497139 0.31838131 -0.35968885 0
0.81064796 0.33923769 -0.36555442 0
0.44431114 0.44349098 -0.36490297 0
0.62853813 0.43620872 -0.37103018 0
0.80644226 0.44475508 -0.37095875 0
-0.60410118 -0.45010209 -0.3606821 0
-0.50733566 -0.4250865 -0.35876694 0
-0.38912773 -0.42805719 -0.35835207 0
-0.30256271 -0.42648768 -0.3555094 0
-0.19691467 -0.42639494 -0.36022866 0
-0.08927536 -0.43243313 -0.35951224 0
0.024787903 -0.44429541 -0.35752761 0
0.13695908 -0.45443964 -0.36140311 0
0.14394379 -0.41163063 -0.35979518 0
0.28723526 -0.4279232 -0.36241823 0
0.4352417 -0.47009659 -0.35884562 0
0.43891907 -0.44160032 -0.35601002 0
0.60859108 -0.40686131 -0.35689801 0
-0.61957932 -0.33121538 -0.36238652 0
-0.53430176 -0.30687428 -0.36048067 0
-0.42225838 -0.33012056 -0.35906667 0
-0.18271446 -0.34330082 -0.3599143 0
-0.072631836 -0.3283143 -0.35894844 0
0.043149948 -0.3345027 -0.36185345 0
0.15568733 -0.32459497 -0.35905939 0
0.29985428 -0.33747339 -0.36120474 0
0.45064354 -0.36620522 -0.3600173 0
0.62151909 -0.29881954 -0.35630912 0
-0.60618782 -0.24401569 -0.35931647 0
-0.52290535 -0.22282457 -0.35956633 0
-0.44037247 -0.22530413 -0.36212683 0
-0.31600761 -0.24333477 -0.36068511 0
-0.16938591 -0.23918867 -0.36037594 0
-0.11380577 -0.23757505 -0.36272183 0
-0.06221962 -0.22661829 -0.35673058 0
0.054187775 -0.24033928 -0.36146852 0
0.16714287 -0.22493935 -0.36054128 0
0.30997276 -0.20592737 -0.3565883 0
0.46062469 -0.25030947 -0.35653976 0
0.628479 -0.20478392 -0.3530677 0
-0.59593964 -0.15322542 -0.36045104 0
-0.51544571 -0.13615847 -0.35892546 0
-0.43812752 -0.16174936 -0.35582119 0
-0.30825806 -0.15355968 -0.35934964 0
-0.16825294 -0.15748453 -0.35165778 0
-0.16175652 -0.15583229 -0.36030257 0
-0.050552368 -0.12920284 -0.36355707 0
0.058937073 -0.17786503 -0.36043882 0
0.17320061 -0.14744473 -0.36144605 0
0.46291733 -0.18303394 -0.3534947 0
-0.59009552 -0.051160336 -0.36044654 0
-0.5114212 -0.031688213 -0.35866839 0
-0.43032646 -0.035283566 -0.35879493 0
-0.31330681 -0.048603535 -0.35799047 0
-0.25782967 -0.08602047 -0.36437595 0
-0.15671921 -0.031199932 -0.36058873 0
-0.050050735 -0.036267281 -0.36025384 0
0.062128067 -0.076495171 -0.35846573 0
0.18014526 -0.012609482 -0.36419487 0
0.3175087 -0.024795532 -0.35829359 0
0.63965988 -0.028025627 -0.35764301 0
-0.58958435 0.052350521 -0.36073074 0
-0.51546288 0.064692497 -0.35619855 0
-0.42606354 0.08374691 -0.36359763 0
-0.34306717 0.0750947 -0.36261439 0
-0.23690987 0.07011652 -0.35892609 0
-0.16235542 0.055631161 -0.35604101 0
-0.054559708 0.032360554 -0.35604811 0
0.063817978 0.049734592 -0.36012575 0
0.17548943 0.037732124 -0.3600333 0
0.31181526 0.022901058 -0.353365 0
0.46713448 0.059312344 -0.35591841 0
-0.59484291 0.15659428 -0.36088094 0
-0.51703644 0.14310312 -0.35836419 0
-0.43179512 0.16789961 -0.36281472 0
-0.31914139 0.14194536 -0.35751605 0
-0.16164589 0.18858624 -0.3623684 0
-0.052164078 0.14615726 -0.36210051 0
0.060441971 0.16507626 -0.36147445 0
0.17435074 0.14373064 -0.36231679 0
0.31742668 0.1449976 -0.3620863 0
0.45636749 0.17443085 -0.35248232 0
-0.60921669 0.24839687 -0.35804558 0
-0.52681732 0.26514149 -0.36081973 0
-0.42801094 0.27027798 -0.35872346 0
-0.30947304 0.25017691 -0.35954702 0
-0.170681 0.27662849 -0.3623662 0
-0.071094513 0.309412 -0.35987821 0
-0.058544159 0.26777124 -0.36462039 0
0.052261353 0.25958395 -0.3614482 0
0.16596985 0.26558495 -0.36328375 0
0.30763054 0.26523924 -0.36163697 0
0.45439529 0.28749514 -0.35854104 0
-0.62724304 0.34413004 -0.35687059 0
-0.54936981 0.37940788 -0.35866448 0
-0.41616821 0.37750673 -0.36287838 0
-0.29449844 0.36444521 -0.35818344 0
-0.19113922 0.34677982 -0.35616556 0
-0.090509415 0.37249517 -0.35462505 0
0.030761719 0.37909651 -0.35819367 0
0.040882111 0.31352091 -0.35831922 0
0.14568901 0.35747194 -0.35774761 0
0.29184151 0.34973764 -0.35831606 0
0.60583687 0.4082799 -0.35535866 0
-0.61538696 0.47379637 -0.36074284 0
-0.49619484 0.45935678 -0.36281669 0
-0.39673996 0.46803331 -0.36061364 0
-0.3132515 0.46467876 -0.35872474 0
-0.20703125 0.46658039 -0.35971621 0
-0.092092514 0.44535923 -0.36082226 0
0.017932892 0.49439907 -0.362488 0
0.12503242 0.47472954 -0.35752046 0
0.2798748 0.46018267 -0.36117849 0
0.4266758 0.46654749 -0.35731122 0
-0.90815926 -0.44970751 -0.35683531 0
-0.8289566 -0.43720675 -0.35012743 0
-0.70820045 -0.45016789 -0.35523009 0
-0.59217072 -0.44701695 -0.35719717 0
-0.49669647 -0.45657921 -0.3560493 0
-0.39371872 -0.43615603 -0.35271716 0
-0.28827095 -0.45188475 -0.35570529 0
-0.18232918 -0.44688606 -0.36166114 0
-0.052022934 -0.45278645 -0.3566862 0
0.090005875 -0.44931412 -0.35769233 0
0.24118423 -0.43812418 -0.36054176 0
0.39361 -0.40472937 -0.35873136 0
0.58314896 -0.4003377 -0.35850006 0
0.80242729 -0.44176483 -0.35945702 0
-0.88706017 -0.34539914 -0.35841027 0
-0.8091774 -0.33452415 -0.35969976 0
-0.73468399 -0.34807205 -0.35825431 0
-0.59733391 -0.3504622 -0.35403499 0
-0.47922897 -0.33956242 -0.3559944 0
-0.37731552 -0.32750988 -0.3569904 0
-0.27584648 -0.36037397 -0.35585985 0
-0.174963 -0.3809247 -0.35630599 0
-0.041406631 -0.36343718 -0.35592139 0
0.099905014 -0.35557127 -0.35687637 0
0.2462635 -0.34044361 -0.35255277 0
0.39970016 -0.32716322 -0.35776132 0
0.58695221 -0.32665968 -0.35617739 0
0.81189537 -0.34748745 -0.35996577 0
-0.87298012 -0.24798489 -0.35799319 0
-0.803936 -0.27775955 -0.35176879 0
-0.72291756 -0.24124336 -0.35463578 0
-0.62910461 -0.25323915 -0.35568571 0
-0.56317711 -0.22881889 -0.35585958 0
-0.39324379 -0.24066782 -0.3580367 0
-0.2691288 -0.24986887 -0.34989071 0
-0.26559448 -0.26598835 -0.35678542 0
-0.16049194 -0.25067949 -0.35971737 0
-0.032798767 -0.26470137 -0.35614663 0
0.10328293 -0.27409077 -0.35206214 0
0.25471306 -0.22364473 -0.3546958 0
0.40237045 -0.25049543 -0.35559201 0
0.59390259 -0.2255826 -0.35877728 0
0.81689644 -0.24067259 -0.35728651 0
-0.86880112 -0.1949439 -0.35548124 0
-0.81567764 -0.1501832 -0.35603321 0
-0.71912384 -0.15341139 -0.35109925 0
-0.61176682 -0.14862919 -0.35457191 0
-0.51277542 -0.1392436 -0.35337234 0
-0.46216011 -0.16928577 -0.3583442 0
-0.35791779 -0.11879301 -0.36254141 0
-0.25979233 -0.14173412 -0.35579097 0
-0.15869713 -0.16062355 -0.35553873 0
-0.027542114 -0.16557646 -0.35657775 0
0.11031723 -0.15643549 -0.35543472 0
0.25872803 -0.14198828 -0.35687181 0
0.40686607 -0.13167906 -0.35730559 0
0.5939846 -0.14965153 -0.35644811 0
0.82685852 -0.11072063 -0.36447304 0
-0.81806564 -0.053032875 -0.35550973 0
-0.71279716 -0.019257069 -0.35592872 0
-0.63660431 -0.05398941 -0.35415152 0
-0.55749893 -0.059771061 -0.35460189 0
-0.4293766 -0.031104088 -0.35539049 0
-0.36198616 -0.038841248 -0.35734549 0
-0.26099586 -0.042331219 -0.35381126 0
-0.15837288 -0.047114372 -0.35495657 0
-0.027505875 -0.052949905 -0.35572004 0
0.11085129 -0.034918785 -0.35576868 0
0.25832558 -0.034571171 -0.35695571 0
0.40529823 -0.053116322 -0.35617813 0
0.59431458 -0.035490036 -0.35637921 0
0.82767487 -0.047523022 -0.36503315 0
-0.86995506 0.027335167 -0.35048115 0
-0.81891441 0.055095673 -0.36278442 0
-0.71844482 0.049133301 -0.35286361 0
-0.6412468 0.025299549 -0.35164741 0
-0.56074333 0.028954983 -0.35356992 0
-0.46518707 0.029885769 -0.35419071 0
-0.36338806 0.073998451 -0.35890624 0
-0.2621727 0.051158905 -0.35542145 0
-0.16466141 0.031559467 -0.35156906 0
-0.029605865 0.05025959 -0.35646164 0
0.10210037 0.079587936 -0.35302705 0
0.25790024 0.062276363 -0.3594932 0
0.39975929 0.047977448 -0.3549996 0
0.58782005 0.036084175 -0.35261235 0
0.82339287 0.035207748 -0.36289451 0
-0.87280464 0.15386772 -0.35552323 0
-0.79794312 0.15653706 -0.35601887 0
-0.72441673 0.15034723 -0.35448468 0
-0.63169861 0.16097403 -0.3547194 0
-0.53044128 0.14176702 -0.3579874 0
-0.41617012 0.15191793 -0.36014086 0
-0.26648521 0.14588642 -0.35704628 0
-0.17671967 0.18719816 -0.35208285 0
-0.15884209 0.14553976 -0.36147934 0
-0.036260605 0.1416111 -0.35630715 0
0.11241531 0.12944698 -0.36291766 0
0.25092888 0.13017368 -0.35762632 0
0.39947128 0.19306612 -0.36227661 0
0.58542061 0.13364744 -0.35539687 0
0.81717682 0.16314697 -0.36367685 0
-0.88308907 0.26241159 -0.3577362 0
-0.81706047 0.25773001 -0.35262123 0
-0.74390984 0.25786972 -0.35127616 0
-0.60159302 0.26116562 -0.35810333 0
-0.48126602 0.23665619 -0.35577959 0
-0.3849678 0.24064922 -0.35489619 0
-0.27549553 0.23394346 -0.35717571 0
-0.17613029 0.29565191 -0.3606928 0
-0.046800613 0.27199364 -0.35841352 0
0.093496323 0.25495148 -0.35836166 0
0.2303791 0.22488451 -0.35018355 0
0.24760818 0.21729136 -0.36064839 0
0.38110161 0.28018522 -0.35678887 0
0.57735252 0.263556 -0.35830203 0
0.80907822 0.26315546 -0.36432338 0
-0.89507675 0.35431242 -0.36018145 0
-0.81118202 0.36748505 -0.35347837 0
-0.7071228 0.36359882 -0.35606936 0
-0.60662842 0.3657403 -0.35939127 0
-0.50009727 0.3625598 -0.35654646 0
-0.39967346 0.34830904 -0.35597134 0
-0.28956413 0.3562603 -0.35948586 0
-0.1922245 0.34248209 -0.35571006 0
-0.06662941 0.37432814 -0.35600668 0
-0.054286957 0.35081959 -0.36059225 0
0.071714401 0.35967112 -0.35436347 0
0.22319603 0.35756874 -0.35704482 0
0.36515045 0.37116766 -0.35493386 0
0.56453705 0.34213781 -0.35657501 0
0.79278183 0.32443905 -0.35886115 0
-0.92170334 0.46834564 -0.3604039 0
-0.82959557 0.45447731 -0.35742104 0
-0.69967842 0.43325472 -0.35211945 0
-0.625103 0.47140551 -0.35405755 0
-0.52108955 0.45737696 -0.35602552 0
-0.4236927 0.44025278 -0.35336053 0
-0.31854439 0.4624958 -0.3554098 0
-0.20675468 0.43587399 -0.35715482 0
-0.078056335 0.45681858 -0.358188 0
0.059204102 0.43786049 -0.35520369 0
0.20384407 0.45289516 -0.35551059 0
0.35129547 0.41519213 -0.35156509 0
0.53094101 0.49514294 -0.35276175 0
0.55515862 0.4547596 -0.36147654 0
0.77777863 0.4708209 -0.3632735 0
-0.99625206 -0.45915103 -0.35806468 0
-0.87674904 -0.46120071 -0.35714942 0
-0.77589417 -0.43630314 -0.35626763 0
-0.65568352 -0.46434093 -0.35646099 0
-0.54730797 -0.43566871 -0.35838783 0
-0.43799019 -0.43414021 -0.36034977 0
-0.33831215 -0.46844339 -0.36284763 0
-0.32835007 -0.414536 -0.36129263 0
-0.19657326 -0.43112803 -0.35838991 0
-0.056798935 -0.45770693 -0.35803127 0
0.10336876 -0.40860367 -0.35781875 0
0.25375175 -0.43628597 -0.35991824 0
0.44607735 -0.45062351 -0.3577556 0
0.6613903 -0.44685316 -0.35877734 0
0.92733383 -0.44069624 -0.36535323 0
-0.97288132 -0.35520101 -0.35828301 0
-0.89370918 -0.35193801 -0.36326337 0
-0.8132782 -0.35041189 -0.35940516 0
-0.69314194 -0.35148621 -0.35867235 0
-0.59871483 -0.33578205 -0.35611209 0
-0.52993393 -0.32888794 -0.35595232 0
-0.42270279 -0.33118105 -0.35460669 0
-0.31697083 -0.33609915 -0.35805276 0
-0.17794991 -0.31774998 -0.36277485 0
-0.041082382 -0.34550524 -0.35529169 0
0.26068497 -0.38477898 -0.35917753 0
0.26909065 -0.31958628 -0.36041778 0
0.46272659 -0.32076597 -0.35952729 0
0.67709923 -0.32968521 -0.35760245 0
0.94333649 -0.32298803 -0.36243844 0
-0.98087692 -0.24755001 -0.35842115 0
-0.88038254 -0.27221751 -0.36123711 0
-0.79744339 -0.24280357 -0.35895643 0
-0.71403313 -0.23080397 -0.36099482 0
-0.62055588 -0.23746729 -0.35458326 0
-0.51937103 -0.23170614 -0.35419875 0
-0.40588951 -0.21295977 -0.36099362 0
-0.30912018 -0.25907946 -0.35519043 0
-0.17341614 -0.24733257 -0.35630068 0
-0.029127121 -0.23688269 -0.35660306 0
0.12000847 -0.27241325 -0.3589491 0
0.27256584 -0.2609868 -0.35637149 0
0.47096634 -0.2373848 -0.36045372 0
0.68744087 -0.25219774 -0.36052608 0
0.95360947 -0.22453308 -0.36204481 0
-0.98893356 -0.14518213 -0.35669497 0
-0.86640358 -0.13782644 -0.35953933 0
-0.78697968 -0.12117767 -0.35731009 0
-0.710886 -0.16220617 -0.35524994 0
-0.60976601 -0.13642073 -0.35831136 0
-0.51036453 -0.13952303 -0.35669369 0
-0.40114212 -0.15022755 -0.3603552 0
-0.30024529 -0.16393471 -0.35679001 0
-0.16165352 -0.13360643 -0.36073905 0
-0.0200634 -0.14592028 -0.36025348 0
0.12725639 -0.15313387 -0.35613522 0
0.27976227 -0.16894484 -0.35731494 0
0.47335243 -0.13441849 -0.35577041 0
0.6904335 -0.18645525 -0.35565314 0
0.9611187 -0.14672184 -0.36442274 0
-0.97960281 -0.041306019 -0.35516447 0
-0.86445236 -0.032237053 -0.35542765 0
-0.78806686 -0.066924572 -0.35293394 0
-0.70353317 -0.057495594 -0.35757852 0
-0.60829544 -0.066413879 -0.3560333 0
-0.50504494 -0.03978157 -0.35849351 0
-0.39960861 -0.057430744 -0.35702598 0
-0.29483604 -0.029115677 -0.35763884 0
-0.15915108 -0.039747238 -0.35967684 0
-0.016374588 -0.047351837 -0.36013073 0
0.13123512 -0.046096802 -0.3566328 0
0.28726387 -0.064294338 -0.36133566 0
0.70104408 -0.074155331 -0.36074048 0
0.96943855 -0.034433842 -0.36768097 0
-0.97435379 0.071110725 -0.36038512 0
-0.8643589 0.066000938 -0.35645521 0
-0.78209114 0.057326317 -0.35898429 0
-0.70551682 0.049082756 -0.35585535 0
-0.60377884 0.04852438 -0.35986358 0
-0.50506973 0.061956406 -0.35841537 0
-0.40073776 0.073231697 -0.35635012 0
-0.29570961 0.043832779 -0.35671175 0
-0.16141891 0.070565224 -0.35754794 0
-0.016515732 0.050076485 -0.35924685 0
0.13103867 0.034477234 -0.35620618 0
0.28565788 0.029436111 -0.35857707 0
0.47956657 0.027225494 -0.35924262 0
0.70491409 0.030477524 -0.36185554 0
0.9716301 0.06768322 -0.36751077 0
-0.98093033 0.15168428 -0.35864499 0
-0.86731529 0.16081047 -0.35807851 0
-0.78741074 0.16564655 -0.35862395 0
-0.70178223 0.14025497 -0.36160308 0
-0.607481 0.15307331 -0.35994554 0
-0.51496506 0.14295435 -0.35356274 0
-0.40649796 0.15148497 -0.35455036 0
-0.29733467 0.17357826 -0.35937732 0
-0.15694809 0.17849064 -0.3646251 0
-0.020786285 0.14920712 -0.35856313 0
0.12894058 0.1480341 -0.35772404 0
0.28474617 0.15387106 -0.36062863 0
0.47631645 0.1424408 -0.35868621 0
0.70333099 0.14842176 -0.36106437 0
0.96612549 0.15742826 -0.36338562 0
-0.97998238 0.23964214 -0.3598212 0
-0.87800598 0.2707305 -0.3587113 0
-0.79886627 0.25069618 -0.35667157 0
-0.71291351 0.21706581 -0.35767654 0
-0.61936569 0.26952553 -0.35908461 0
-0.51834106 0.2763319 -0.35932672 0
-0.40697861 0.24144888 -0.35942149 0
-0.31036377 0.23527002 -0.35375613 0
-0.16923141 0.2501502 -0.3595922 0
-0.035320282 0.28383017 -0.35547072 0
-0.031265259 0.2249279 -0.35441035 0
0.12008667 0.28313684 -0.35821825 0
0.27393341 0.24112606 -0.35646689 0
0.46388054 0.28720617 -0.35641289 0
0.4698658 0.22697353 -0.35718536 0
0.70677376 0.2790308 -0.3684175 0
0.96076393 0.24552298 -0.36187178 0
-0.98410797 0.3338747 -0.3586809 0
-0.90414619 0.33859301 -0.35007137 0
-0.79049492 0.34205389 -0.35362232 0
-0.68808365 0.35196638 -0.35963067 0
-0.5409832 0.38123798 -0.35478717 0
-0.52999115 0.3316884 -0.35656181 0
-0.41724586 0.35907793 -0.36164936 0
-0.31551361 0.35153675 -0.35908186 0
-0.18292427 0.3623867 -0.35875002 0
-0.042179108 0.37047482 -0.35764736 0
0.10427475 0.36960268 -0.35436398 0
0.26211739 0.35005474 -0.35574284 0
0.45853996 0.34958935 -0.35694957 0
0.69291306 0.34214163 -0.36169815 0
0.96282005 0.34057999 -0.36828506 0
-0.99113464 0.44732857 -0.35703248 0
-0.88523293 0.45644236 -0.35808831 0
-0.78516769 0.43784952 -0.35864443 0
-0.65158844 0.46464062 -0.35846782 0
-0.55319214 0.47549391 -0.35761547 0
-0.43699455 0.46440935 -0.36014327 0
-0.32732391 0.45088196 -0.36102319 0
-0.20141411 0.43799162 -0.35482022 0
-0.056728363 0.47174644 -0.35810679 0
0.095777512 0.46099472 -0.35710135 0
0.25756645 0.466084 -0.3621555 0
0.45330429 0.45018578 -0.36140001 0
0.67652512 0.45693588 -0.35918593 0
0.95380402 0.44396687 -0.36878508 0
-0.93692398 -0.46912289 -0.35828027 0
-0.81427956 -0.4558599 -0.35426784 0
-0.71475792 -0.47261119 -0.35603574 0
-0.60144043 -0.45354486 -0.35592571 0
-0.49230957 -0.44009066 -0.35987774 0
-0.48966789 -0.41820216 -0.35509431 0
-0.35761452 -0.44637752 -0.35937059 0
-0.21417999 -0.44831491 -0.35494205 0
-0.061450958 -0.44910574 -0.35503745 0
0.091024399 -0.47107887 -0.35810834 0
0.28897095 -0.45284653 -0.35607249 0
0.5059948 -0.4216032 -0.35116452 0
0.5136261 -0.41025019 -0.36510751 0
0.75644112 -0.44563389 -0.36027128 0
-0.93263435 -0.37037063 -0.35353687 0
-0.83085251 -0.35397768 -0.34971443 0
-0.69486618 -0.36166167 -0.35722145 0
-0.58763504 -0.36657715 -0.35544264 0
-0.47818565 -0.33139277 -0.35431278 0
-0.3477211 -0.37182999 -0.35514492 0
-0.19527054 -0.32080364 -0.3600015 0
-0.045864105 -0.3323369 -0.35683769 0
0.10616684 -0.35810089 -0.35928065 0
0.3010788 -0.34086561 -0.3553139 0
0.51549721 -0.34006834 -0.3543835 0
0.77432632 -0.32764387 -0.36586568 0
-0.96174622 -0.2467351 -0.35375422 0
-0.87751007 -0.21975422 -0.35508031 0
-0.78646851 -0.26683712 -0.35208622 0
-0.68058777 -0.25266933 -0.35808334 0
-0.57655716 -0.27060747 -0.35382438 0
-0.4700222 -0.2352376 -0.35159576 0
-0.33704185 -0.27879429 -0.35542136 0
-0.19275284 -0.25450039 -0.35325396 0
-0.036880493 -0.24603748 -0.35875541 0
0.11334229 -0.26105261 -0.35600084 0
0.30552483 -0.2680068 -0.35270435 0
0.52700615 -0.22300386 -0.35938436 0
0.77249527 -0.30558538 -0.35683954 0
-0.95051193 -0.15173769 -0.35784718 0
-0.87101173 -0.12570715 -0.35492927 0
-0.7750473 -0.15195751 -0.3550474 0
-0.67654419 -0.169981 -0.35342482 0
-0.56492996 -0.16170502 -0.35816458 0
-0.46527863 -0.16082048 -0.35165024 0
-0.33080482 -0.18748569 -0.35418773 0
-0.18623734 -0.1718812 -0.35479057 0
-0.033262253 -0.15357637 -0.35602936 0
0.11918068 -0.12769794 -0.35494545 0
0.30975151 -0.19866467 -0.35316104 0
0.52283478 -0.16706848 -0.35095558 0
0.79055023 -0.15959167 -0.36712855 0
-0.94918442 -0.089839458 -0.35563537 0
-0.86631393 -0.016797066 -0.35679701 0
-0.77127266 -0.065942764 -0.35547167 0
-0.66980743 -0.053301811 -0.35627508 0
-0.56318855 -0.047874451 -0.35587323 0
-0.45836067 -0.049901962 -0.35618728 0
-0.32640266 -0.084901333 -0.35460359 0
-0.17836761 -0.072373867 -0.35994202 0
-0.030389786 -0.072657585 -0.3565096 0
0.12196922 -0.054975033 -0.35646594 0
0.30459213 -0.066189289 -0.34488401 0
0.31796455 -0.087607384 -0.35879058 0
0.52818489 -0.052150249 -0.35491395 0
0.7856884 -0.10654259 -0.35695302 0
-0.94767761 0.043528557 -0.35660711 0
-0.86994171 0.047744751 -0.35440573 0
-0.77068329 0.034630299 -0.35625589 0
-0.67653847 0.052940369 -0.35147721 0
-0.55984879 0.043278694 -0.35921818 0
-0.46287727 0.052230835 -0.35301906 0
-0.32717896 0.059283257 -0.35518181 0
-0.17952919 0.019376755 -0.35831049 0
-0.031797409 0.033740997 -0.35582739 0
0.11437798 0.050513268 -0.35057095 0
0.31490517 0.041128635 -0.35597301 0
0.52756691 0.076464653 -0.35634094 0
0.78865051 0.041372776 -0.35863456 0
-0.95061111 0.1705265 -0.35933799 0
-0.87664223 0.13996792 -0.35333669 0
-0.77173805 0.15062523 -0.35944682 0
-0.66933823 0.13470268 -0.360293 0
-0.56455994 0.14689589 -0.35862857 0
-0.46223259 0.16179991 -0.35793281 0
-0.18089485 0.1325264 -0.36016703 0
-0.03355217 0.14894867 -0.35789573 0
0.11828613 0.17252827 -0.35839415 0
0.31468582 0.15141153 -0.35947007 0
0.52614403 0.18074751 -0.35908931 0
-0.95980453 0.23979855 -0.35789949 0
-0.87835693 0.27104282 -0.36077702 0
-0.75114632 0.23786926 -0.35607108 0
-0.68152618 0.22344017 -0.35649931 0
-0.57305717 0.2344532 -0.35779357 0
-0.47128868 0.25285196 -0.35726267 0
-0.33650398 0.23495293 -0.35658816 0
-0.20441246 0.26560497 -0.35150376 0
-0.18429565 0.21149445 -0.36133802 0
-0.038274765 0.23866081 -0.35931692 0
0.10853386 0.23805237 -0.35513908 0
0.29824638 0.22364902 -0.35115898 0
0.51657677 0.22351551 -0.35430002 0
0.79239082 0.24184942 -0.36733454 0
-0.94315338 0.34763527 -0.35794774 0
-0.82100487 0.35129166 -0.35840631 0
-0.72310257 0.34518003 -0.35650381 0
-0.59269333 0.31744719 -0.35210609 0
-0.57948303 0.304317 -0.35876387 0
-0.47516251 0.34285307 -0.36154312 0
-0.35239601 0.34515333 -0.35487121 0
-0.055274963 0.31568527 -0.35355026 0
0.10092735 0.33020353 -0.35645765 0
0.2961998 0.35564041 -0.35876924 0
0.50783539 0.35574389 -0.35650939 0
0.52074432 0.33159637 -0.36346442 0
0.77899933 0.31429815 -0.36132434 0
-0.91426086 0.44894791 -0.3577742 0
-0.82280159 0.44322491 -0.35376436 0
-0.72244453 0.46391106 -0.35493731 0
-0.60543442 0.45068312 -0.35758629 0
-0.52588654 0.43176651 -0.36055613 0
-0.47950745 0.39749813 -0.3635748 0
-0.36218262 0.46036386 -0.35974228 0
-0.21129608 0.44109583 -0.36160231 0
-0.066968918 0.43608332 -0.35674798 0
0.097635269 0.44956923 -0.3640843 0
0.28473854 0.44866085 -0.35938233 0
0.49748802 0.46713114 -0.35892093 0
0.77326775 0.44373655 -0.36668628 0
0.50535202 -0.44669676 -0.35132059 0
0.7821312 -0.45965099 -0.35942119 0
-0.25023651 -0.33261156 -0.36115652 0
0.28335571 -0.36189795 -0.35471496 0
0.51856232 -0.34121799 -0.35428852 0
0.79268265 -0.37690687 -0.35226387 0
0.079832077 -0.29031754 -0.3546848 0
0.29436493 -0.26363373 -0.35764343 0
0.80487442 -0.27677345 -0.3544952 0
0.29624939 -0.17225122 -0.3516008 0
0.5296669 -0.17616892 -0.3531988 0
0.81595612 -0.16391468 -0.35705674 0
0.30419731 -0.058032036 -0.35644209 0
0.53341293 -0.016329288 -0.35313341 0
0.82149124 -0.08735466 -0.35895249 0
0.09900856 0.028011322 -0.36031163 0
0.30320168 0.068664074 -0.35565048 0
0.5394249 0.080303669 -0.35969576 0
0.82803535 0.038578033 -0.36253965 0
0.09186554 0.12607956 -0.35581145 0
0.29536247 0.17002726 -0.35260281 0
0.82783127 0.14494705 -0.36280495 0
0.084951401 0.24056005 -0.35582384 0
0.29110336 0.23982573 -0.35298032 0
0.53539085 0.25788116 -0.36166772 0
0.81800842 0.23054552 -0.35757476 0
0.28813171 0.35739183 -0.35862347 0
0.51851273 0.35227108 -0.35483399 0
0.81038666 0.32484818 -0.35675791 0
-0.098897934 0.45484161 -0.35949171 0
0.068731308 0.42795563 -0.3584829 0
0.27429581 0.43340206 -0.35573214 0
0.50902176 0.44478941 -0.35539949 0
0.80349922 0.44873047 -0.36079577 0
-0.90194893 -0.43216038 -0.35356563 0
-0.79699326 -0.44616437 -0.35080332 0
-0.68357277 -0.45961452 -0.35387483 0
-0.57019997 -0.45383859 -0.35145316 0
-0.42877007 -0.47283626 -0.35259968 0
-0.27544212 -0.48134065 -0.35207707 0
-0.10734558 -0.45535231 -0.35252774 0
0.062711716 -0.43186474 -0.35382295 0
0.26712418 -0.46770191 -0.34685832 0
-0.98922157 -0.34170508 -0.35478586 0
-0.89235687 -0.37323618 -0.34846395 0
-0.77651405 -0.3347683 -0.35647327 0
-0.66651726 -0.35758567 -0.35205111 0
-0.55171204 -0.34374428 -0.35522032 0
-0.41222763 -0.36158466 -0.35079801 0
-0.25881577 -0.3714385 -0.35330662 0
-0.090187073 -0.33618069 -0.35462046 0
0.0669384 -0.37697601 -0.34699312 0
-0.97483826 -0.23246384 -0.35329181 0
-0.87634659 -0.2594471 -0.35072225 0
-0.76686859 -0.25605822 -0.35518414 0
-0.65440941 -0.26367664 -0.35271695 0
-0.54348564 -0.26402426 -0.35221231 0
-0.39535904 -0.23712778 -0.35617256 0
-0.24896622 -0.2652216 -0.34908977 0
-0.084056854 -0.26329422 -0.35245514 0
0.076688766 -0.25172567 -0.3448953 0
0.51764679 -0.30356407 -0.34709108 0
-0.96570206 -0.13239574 -0.35392329 0
-0.865345 -0.15084171 -0.35279658 0
-0.76508904 -0.18686724 -0.34743625 0
-0.64507294 -0.14954758 -0.352799 0
-0.53585052 -0.15121555 -0.35073906 0
-0.39053154 -0.16800928 -0.35532176 0
-0.23897552 -0.14702845 -0.35199225 0
-0.0785923 -0.16438341 -0.35074574 0
0.084293365 -0.14759779 -0.34774053 0
0.52482796 -0.11748934 -0.34503353 0
-0.96247482 -0.054839134 -0.35368621 0
-0.86110497 -0.061460972 -0.35300323 0
-0.75211906 -0.036452293 -0.35548496 0
-0.64438629 -0.075376034 -0.34972945 0
-0.64032745 -0.016181469 -0.35311118 0
-0.52969551 -0.041150093 -0.35327816 0
-0.38815117 -0.055058956 -0.35283774 0
-0.23618317 -0.041112423 -0.35177198 0
-0.074035645 -0.074676991 -0.35226831 0
0.085611343 -0.090347767 -0.34756085 0
0.29273033 -0.056964397 -0.34451973 0
-0.96927834 0.036585808 -0.34780091 0
-0.8594532 0.045249462 -0.35445213 0
-0.75257111 0.041745663 -0.35475394 0
-0.63579941 0.060222626 -0.35785183 0
-0.52808762 0.057605267 -0.35540262 0
-0.39396667 0.0093588829 -0.34693265 0
-0.23787498 0.054433823 -0.35099488 0
-0.072237015 0.045079708 -0.35421944 0
0.08833313 0.039969444 -0.35050976 0
0.29517746 0.093142509 -0.34944049 0
0.52459908 0.078584671 -0.34652391 0
-0.96516418 0.17252541 -0.35619685 0
-0.86340904 0.14981318 -0.35472423 0
-0.75723839 0.1542697 -0.35510394 0
-0.65014839 0.15421963 -0.35004777 0
-0.63324928 0.11693192 -0.36132789 0
-0.5400753 0.14379072 -0.34880295 0
-0.39428711 0.13399839 -0.35088116 0
-0.23882294 0.14983797 -0.35339457 0
-0.073505402 0.16985416 -0.35677236 0
0.083967209 0.1483593 -0.35040936 0
-0.97698021 0.23296976 -0.35227662 0
-0.87879181 0.2577095 -0.35148489 0
-0.7711525 0.27697039 -0.35319474 0
-0.66746902 0.23399544 -0.34349999 0
-0.54515266 0.28470564 -0.35404134 0
-0.54096413 0.23242474 -0.35321873 0
-0.40022469 0.23799801 -0.3521032 0
-0.24702072 0.25707102 -0.35345376 0
-0.23670197 0.23121738 -0.35906488 0
-0.08190155 0.23852539 -0.35425979 0
0.077583313 0.28665352 -0.3536084 0
-0.99455452 0.34649372 -0.35141489 0
-0.89631653 0.38490534 -0.35221365 0
-0.78764725 0.33534002 -0.34837779 0
-0.67506027 0.34683037 -0.34821036 0
-0.55208206 0.32455635 -0.35285291 0
-0.40631104 0.32046986 -0.35409698 0
-0.25334358 0.34248829 -0.35551965 0
-0.09913063 0.3241415 -0.34875479 0
0.06653595 0.32759762 -0.3493132 0
-0.91394615 0.46167421 -0.35104799 0
-0.8092804 0.43090343 -0.34631765 0
-0.68278503 0.47928381 -0.3565329 0
-0.56486511 0.42653036 -0.35460681 0
-0.42519951 0.44248056 -0.35377192 0
-0.27480888 0.45981598 -0.35328045 0
-0.11274529 0.4809742 -0.35415989 0
0.054267883 0.45134354 -0.35214898 0
0.25994492 0.47116184 -0.35060591 0
-0.11771965 -0.49598908 -0.36423042 0
0.1093998 -0.41587114 -0.36340508 0
0.34461594 -0.4247818 -0.36811018 0
0.60156059 -0.4519248 -0.36279386 0
0.90014076 -0.43877602 -0.36017478 0
-0.26028633 -0.35895586 -0.36618805 0
-0.088762283 -0.3187232 -0.36396769 0
0.12509155 -0.29892874 -0.36215281 0
0.35203552 -0.35909939 -0.36144605 0
0.61970329 -0.32056332 -0.36224413 0
0.92090607 -0.31417751 -0.36263791 0
-0.2444706 -0.24728632 -0.36766618 0
0.12968063 -0.25001764 -0.3604264 0
0.36520576 -0.23659325 -0.36029524 0
0.63393974 -0.2161274 -0.36322668 0
0.93543053 -0.21896219 -0.36823249 0
0.13807678 -0.1539607 -0.36111927 0
0.36893845 -0.15980005 -0.35638887 0
0.63840866 -0.16230536 -0.36019358 0
0.94180107 -0.15236902 -0.36597711 0
0.15138817 -0.022034168 -0.36888549 0
0.37661934 -0.043512821 -0.35926646 0
0.65030861 -0.063058376 -0.36596349 0
0.94437599 -0.095143795 -0.3621369 0
-0.22916794 0.034436226 -0.36329669 0
-0.063465118 0.048784733 -0.36323392 0
0.14909172 0.049665451 -0.3642804 0
0.38635635 0.084975719 -0.36698759 0
0.65472984 0.036887169 -0.3643018 0
0.95898628 0.058129787 -0.37057853 0
-0.22838402 0.11734629 -0.36405796 0
-0.060710907 0.15171766 -0.36633077 0
0.1461525 0.16494417 -0.36235672 0
0.38377571 0.14913702 -0.36470082 0
0.65954208 0.15768385 -0.3664816 0
0.96504211 0.18500185 -0.37390655 0
-0.074090958 0.30203295 -0.36150616 0
0.14200592 0.24985504 -0.36170736 0
0.37421417 0.2578125 -0.36015844 0
0.65509033 0.24059677 -0.36328346 0
0.96039772 0.24069023 -0.36955664 0
-0.55769157 0.39823103 -0.36915275 0
-0.2463932 0.39601851 -0.36376983 0
-0.076969147 0.36740923 -0.36347497 0
0.13720703 0.35663748 -0.36382365 0
0.64814186 0.33784246 -0.36081856 0
0.95952225 0.36081553 -0.37239021 0
-0.084850311 0.46122408 -0.365181 0
0.36166763 0.42206478 -0.36020696 0
0.6446476 0.45657635 -0.36497661 0
0.94849014 0.46610451 -0.36921108 0
-0.96989822 -0.44573164 -0.36069834 0
