# .PCD v0.7 - Point Cloud Data file format
VERSION 0.7
FIELDS x y z intensity
SIZE 4 4 4 4
TYPE F F F F
COUNT 1 1 1 1
WIDTH 1264
HEIGHT 1
VIEWPOINT 0 0 0 1 0 0 0
POINTS 1264
DATA ascii
0.40539932 0.47466469 -0.30490208 0
0.95579147 -0.41879082 -0.68693829 0
0.98321915 -0.32038307 -0.69929886 0
0.99065781 -0.24946785 -0.6989789 0
0.98576164 -0.063436508 -0.6879611 0
0.97509384 0.05207634 -0.68236637 0
0.96953773 0.15872765 -0.67475891 0
0.98089027 0.26477814 -0.67834377 0
0.91124535 0.33620453 -0.65189409 0
0.96668816 0.35339165 -0.6698308 0
0.97350311 0.46946144 -0.66712952 0
0.42416191 0.30166817 -0.34712029 0
0.36134911 0.37027359 -0.30412388 0
0.40705299 0.3207798 -0.3380394 0
0.30045509 0.44564247 -0.28731728 0
0.33796883 0.46404266 -0.28935385 0
0.79530525 -0.42785454 -0.6478157 0
0.90145111 -0.44918823 -0.67397547 0
0.8169384 -0.33964729 -0.65609789 0
0.88561249 -0.35651016 -0.67526436 0
0.98746872 -0.35160828 -0.69819641 0
0.81430817 -0.28484726 -0.64822149 0
0.89518547 -0.26651573 -0.67494583 0
0.96420288 -0.25583458 -0.69186735 0
0.90690613 -0.14731407 -0.67787123 0
0.99196434 -0.13490486 -0.69885445 0
0.92302513 -0.029310226 -0.67743063 0
0.9398098 0.094165802 -0.67284966 0
0.99684906 0.058071136 -0.68935633 0
0.70246696 0.49007416 -0.59503698 0
0.60487556 -0.14782715 -0.51307344 0
0.54657936 -0.029848099 -0.46991539 0
0.48561859 0.077835083 -0.41686869 0
0.51987076 0.05456543 -0.44610119 0
0.46334267 0.15340614 -0.41049671 0
0.50405121 0.15660667 -0.42296648 0
0.38681602 0.28014374 -0.37691498 0
0.43113899 0.24029732 -0.39458942 0
0.39159203 0.35434341 -0.38273001 0
0.41664505 0.37086296 -0.40813589 0
0.30719185 0.49756622 -0.35451317 0
0.38628578 0.44567108 -0.37830734 0
0.42830086 0.15726089 -0.36595345 0
0.39797592 0.29055214 -0.35617018 0
0.4422226 0.24971581 -0.36647797 0
0.38825607 0.36424637 -0.33678865 0
0.42321587 0.33235168 -0.35474062 0
0.31542015 0.48123169 -0.29902029 0
0.36148453 0.44888306 -0.31720448 0
0.64206505 -0.42902565 -0.60132885 0
0.73910141 -0.45316124 -0.6281848 0
0.84435844 -0.43671608 -0.65828466 0
0.9305191 -0.45837402 -0.67961693 0
0.64771461 -0.31512642 -0.58528471 0
0.7370224 -0.34731293 -0.61888123 0
0.85484505 -0.35671234 -0.66243076 0
0.95559502 -0.33813477 -0.68863869 0
0.64847755 -0.23865128 -0.57167482 0
0.9170723 -0.24538612 -0.67729187 0
0.5816288 -0.13978004 -0.53903389 0
0.62967682 -0.17166901 -0.54696989 0
0.95690536 -0.15407181 -0.69155025 0
0.51713371 -0.022583008 -0.50519943 0
0.55109024 -0.049747467 -0.52813244 0
0.97161293 -0.066148758 -0.6887641 0
0.51699638 0.031312943 -0.50639009 0
0.97763252 0.020126343 -0.69455814 0
0.66809082 0.16139984 -0.60178185 0
0.68105125 0.27991867 -0.60679865 0
0.7263031 0.28578377 -0.61914062 0
0.65597916 0.35282707 -0.59512472 0
0.73598289 0.39849854 -0.60768986 0
0.57398033 0.46796799 -0.56117725 0
0.65486717 0.44658852 -0.5898757 0
0.73771667 0.47790718 -0.61450529 0
0.58223343 -0.1229744 -0.50377846 0
0.5173111 -0.0016880035 -0.46335459 0
0.55975151 -0.025512695 -0.48837996 0
0.49329567 0.068557739 -0.46051359 0
0.54270554 0.06023407 -0.46256113 0
0.42864418 0.18808365 -0.40448284 0
0.48409271 0.15144157 -0.43001556 0
0.54407501 0.11737823 -0.48510075 0
0.43007278 0.25249672 -0.39788151 0
0.4776535 0.23175049 -0.42816925 0
0.41942024 0.3763237 -0.39793015 0
0.4698658 0.32805061 -0.44577599 0
0.40139198 0.44578171 -0.38372707 0
0.43100929 0.28113174 -0.36208296 0
0.46847534 0.25951195 -0.37389469 0
0.41001892 0.3589344 -0.3423543 0
0.34085846 0.48643303 -0.31915426 0
0.39135361 0.46052933 -0.32134581 0
0.47311592 -0.44064522 -0.56016445 0
0.57209396 -0.42596245 -0.58329248 0
0.64022446 -0.44769859 -0.59642315 0
0.76100731 -0.43125725 -0.63320398 0
0.85208321 -0.44668007 -0.66079187 0
0.94064331 -0.45852089 -0.68362188 0
0.4877243 -0.34681129 -0.55968285 0
0.55527306 -0.34301376 -0.57554579 0
0.66952515 -0.34203339 -0.60315466 0
0.74258614 -0.38233566 -0.61842108 0
0.87968636 -0.3331337 -0.67298794 0
0.95961189 -0.35379219 -0.68915987 0
0.50192261 -0.25211334 -0.56268549 0
0.5967083 -0.23808861 -0.57032013 0
0.6546936 -0.24666595 -0.57365465 0
0.88326836 -0.25143814 -0.66946077 0
0.97429085 -0.24977303 -0.69388723 0
0.50915909 -0.16059113 -0.56296158 0
0.57380867 -0.1397686 -0.54593229 0
0.98960686 -0.1372776 -0.70084238 0
0.52099991 -0.056762695 -0.54209328 0
0.59918213 -0.049505234 -0.59421587 0
0.99299431 -0.075727463 -0.7017231 0
0.52425003 0.023801804 -0.5394702 0
0.57421112 0.032716751 -0.58322287 0
0.65898323 0.088171005 -0.60585594 0
0.5132618 0.15606308 -0.56511784 0
0.57510185 0.1505661 -0.58462191 0
0.67288208 0.17019653 -0.60355568 0
0.48327827 0.25841522 -0.54964495 0
0.57152557 0.26826477 -0.57283592 0
0.65866661 0.26122475 -0.60091066 0
0.74912071 0.30475616 -0.61913538 0
0.48640633 0.37510109 -0.55201817 0
0.57466698 0.35043716 -0.57521486 0
0.68350983 0.34547234 -0.59935093 0
0.74321365 0.39528847 -0.62081528 0
0.42234993 0.48721123 -0.52680588 0
0.47991753 0.45547485 -0.54386139 0
0.6010952 0.46848488 -0.57766533 0
0.69897842 0.45063972 -0.60348606 0
0.80681038 0.49861145 -0.63763332 0
0.6027317 -0.20127678 -0.50561428 0
0.58919525 -0.11531258 -0.51134109 0
0.52262497 -0.013669968 -0.48135519 0
0.57196426 -0.036615372 -0.49475765 0
0.50749969 0.067735672 -0.4547267 0
0.45127678 0.17403603 -0.42815399 0
0.48183441 0.14895058 -0.43817329 0
0.44005585 0.26527786 -0.40063715 0
0.4814167 0.24415207 -0.4379735 0
0.41892624 0.34426689 -0.39529037 0
0.33667183 0.48427963 -0.35563374 0
0.40712738 0.45596695 -0.39193392 0
0.46439552 0.16223335 -0.37053251 0
0.44709969 0.24746132 -0.36604595 0
0.37954903 0.37722397 -0.34074306 0
0.41656685 0.34467697 -0.34067392 0
0.35732651 0.45915985 -0.31678009 0
0.40969658 0.45171547 -0.32024908 0
0.78845024 -0.49756622 -0.63952303 0
0.87594986 -0.49919128 -0.65830898 0
0.63951302 -0.45941353 -0.59313154 0
0.74708748 -0.42885971 -0.62660027 0
0.83956146 -0.39214706 -0.64657593 0
0.90402412 -0.38278389 -0.67282104 0
0.25646591 -0.48755264 -0.48811388 0
0.36416245 -0.45395279 -0.52451658 0
0.4332695 -0.4374485 -0.53798008 0
0.53477859 -0.42045593 -0.56211472 0
0.61762619 -0.33193016 -0.57058907 0
0.71485329 -0.34422684 -0.60860157 0
0.9125824 -0.27792358 -0.67420864 0
0.23552513 -0.41076088 -0.48235416 0
0.29011154 -0.36776352 -0.49397755 0
0.40351105 -0.34676743 -0.52939987 0
0.51494598 -0.28763771 -0.56688356 0
0.59366417 -0.25427246 -0.56345892 0
0.64744759 -0.2138443 -0.55881786 0
0.22570992 -0.33278275 -0.4772253 0
0.29123116 -0.261343 -0.50074577 0
0.37984085 -0.23670006 -0.52087879 0
0.46249199 -0.21483231 -0.5474472 0
0.56309319 -0.18183708 -0.55061722 0
0.25104523 -0.18094826 -0.48991394 0
0.34030342 -0.15346146 -0.51157618 0
0.45362854 -0.10414505 -0.54555464 0
0.53749084 -0.079076767 -0.54548597 0
0.6294384 -0.0048999786 -0.593472 0
0.24730682 -0.079404831 -0.48542976 0
0.31873703 -0.047994614 -0.50571489 0
0.40325928 -0.025676727 -0.52717543 0
0.50131798 0.027154922 -0.55761719 0
0.58732033 0.05827713 -0.58050156 0
0.71207428 0.13326836 -0.61703587 0
0.26919556 0.036251068 -0.49202728 0
0.369627 0.09274292 -0.52132273 0
0.47285652 0.097372055 -0.53680086 0
0.55747795 0.14030838 -0.57256508 0
0.68839645 0.18109131 -0.60411215 0
0.24808884 0.15656281 -0.49081993 0
0.33525467 0.16609764 -0.51089907 0
0.44895744 0.2138195 -0.54394579 0
0.51034355 0.23094368 -0.55761814 0
0.60204697 0.25255775 -0.58555651 0
0.68601608 0.29973984 -0.60104179 0
0.76462364 0.30573463 -0.62545824 0
0.23609924 0.23022079 -0.48159409 0
0.33932877 0.27028847 -0.51006269 0
0.41568375 0.31687164 -0.52912283 0
0.46912003 0.32591057 -0.53776121 0
0.59246445 0.34273338 -0.57472849 0
0.68463516 0.42728424 -0.59569025 0
0.77418518 0.41814232 -0.61611557 0
0.19782829 0.33315277 -0.46907473 0
0.28631592 0.34321404 -0.49416733 0
0.35877037 0.3944664 -0.51199627 0
0.45495987 0.43997574 -0.53738832 0
0.53254509 0.45180511 -0.55641699 0
0.64429665 0.48705673 -0.58147764 0
0.17623711 0.41880989 -0.46241045 0
0.25365448 0.46554565 -0.48192263 0
0.36029625 0.48990822 -0.50866175 0
0.58546829 -0.17613029 -0.49668121 0
0.54070854 -0.078811646 -0.4801116 0
0.50529671 0.014156342 -0.4668417 0
0.42299271 0.10894394 -0.42891788 0
0.48023605 0.10293388 -0.43156719 0
0.40613747 0.19965935 -0.40704966 0
0.44861031 0.18884659 -0.41490221 0
0.39134789 0.26413536 -0.3790307 0
0.44848824 0.27622604 -0.4338789 0
0.39732742 0.39245796 -0.38123512 0
0.44716454 0.18544388 -0.36017799 0
0.38891792 0.26680756 -0.35497952 0
0.43405533 0.29986191 -0.35394144 0
0.36909866 0.37565041 -0.34207773 0
0.38824463 0.38383102 -0.31939173 0
0.32917786 0.4463253 -0.31489992 0
0.91325188 -0.46300125 -0.6735611 0
0.51513672 -0.4921608 -0.56816435 0
0.60250092 -0.46016502 -0.59540749 0
0.69908142 -0.4416008 -0.61826897 0
0.79596138 -0.40416718 -0.64350796 0
0.89546776 -0.38515472 -0.67044115 0
0.33236313 -0.47583771 -0.51567602 0
0.41464615 -0.43330383 -0.53833342 0
0.49728394 -0.41012192 -0.56460428 0
0.57087326 -0.3986454 -0.58268404 0
0.65439224 -0.35324478 -0.60014009 0
0.83610916 -0.33518982 -0.65378952 0
0.94828415 -0.2570076 -0.6874218 0
0.37116051 -0.35902214 -0.52591944 0
0.44876289 -0.32831192 -0.54563332 0
0.55650139 -0.29207802 -0.57431793 0
0.62549973 -0.24352264 -0.57061052 0
0.94939232 -0.18425369 -0.68508673 0
0.37699318 -0.27168846 -0.53084135 0
0.42479324 -0.20546341 -0.54629993 0
0.53486061 -0.18064308 -0.55817842 0
0.59198761 -0.17211151 -0.56507492 0
0.40191841 -0.13028145 -0.53573704 0
0.49774933 -0.087652206 -0.54485655 0
0.54597282 -0.078769684 -0.55755234 0
0.61837387 -0.017841339 -0.60095072 0
0.38875389 -0.020515442 -0.53066874 0
0.46654701 0.011140823 -0.53740788 0
0.53998756 0.05692482 -0.56622028 0
0.61048126 0.044813156 -0.59542036 0
0.68045998 0.099475861 -0.61423206 0
0.38282967 0.036582947 -0.5265398 0
0.41759872 0.095779419 -0.53709364 0
0.5087738 0.14299583 -0.56487608 0
0.60966873 0.1581459 -0.58635473 0
0.70167542 0.20638084 -0.61570644 0
0.40523148 0.18248749 -0.5343008 0
0.49656105 0.22060966 -0.5533247 0
0.57654381 0.26706886 -0.58061361 0
0.65541458 0.28872681 -0.59536839 0
0.74698639 0.35573959 -0.62070942 0
0.36011314 0.27440453 -0.5198288 0
0.45944595 0.3074646 -0.54701471 0
0.55030823 0.35102654 -0.56877995 0
0.63652611 0.38544083 -0.58460617 0
0.72948265 0.39227676 -0.60727358 0
0.35286522 0.37706757 -0.51530218 0
0.43111038 0.39654732 -0.53493404 0
0.53853035 0.44690895 -0.55833149 0
0.61806488 0.4653511 -0.57913876 0
0.3086338 0.49388695 -0.49846745 0
0.39483833 0.495121 -0.52262163 0
0.59735489 -0.16349602 -0.51839828 0
0.53153801 -0.065235138 -0.48720884 0
0.58094597 -0.06372261 -0.4935379 0
0.50614357 0.019052505 -0.46438456 0
0.53783798 0.031661987 -0.45414782 0
0.47281647 0.1179142 -0.44433689 0
0.50967789 0.12773514 -0.42023849 0
0.44753075 0.20584869 -0.40822601 0
0.46509552 0.25894547 -0.4507165 0
0.42162132 0.28894615 -0.39185476 0
0.4548378 0.32123375 -0.4367795 0
0.40057564 0.39780045 -0.38707161 0
0.41343498 0.39928436 -0.39858532 0
0.32417107 0.49069786 -0.35357475 0
0.45133018 0.23399734 -0.35833502 0
0.42575645 0.31440353 -0.352561 0
0.38977242 0.40104866 -0.3253808 0
0.35289192 0.47985268 -0.31255531 0
0.9045372 -0.44188309 -0.67875147 0
0.55465126 -0.48643112 -0.58390999 0
0.64041901 -0.46034813 -0.603724 0
0.7230835 -0.45637512 -0.62017155 0
0.82609558 -0.39410591 -0.65809155 0
0.92096901 -0.35203171 -0.68154764 0
0.51798248 -0.43069077 -0.57019711 0
0.59356689 -0.3666954 -0.592309 0
0.67308235 -0.34461975 -0.59780741 0
0.84051323 -0.32089233 -0.66149187 0
0.93535042 -0.25543213 -0.68429852 0
0.57210541 -0.28207397 -0.57935667 0
0.64576912 -0.25173569 -0.57310867 0
0.94897079 -0.1766758 -0.69000769 0
0.56718636 -0.16548347 -0.56356478 0
0.62022018 -0.17563248 -0.55788517 0
0.54113579 -0.068887711 -0.53086901 0
0.58835602 -0.07468605 -0.57044172 0
0.51473427 -0.0280056 -0.52075815 0
0.58644104 0.028423309 -0.58358097 0
0.64439011 0.092889786 -0.60708761 0
0.53092766 0.16554451 -0.51197767 0
0.61590195 0.17424774 -0.59588242 0
0.70321083 0.19762802 -0.61396933 0
0.58766174 0.25271416 -0.58207464 0
0.69592857 0.30053711 -0.6130867 0
0.74331284 0.3431797 -0.61936808 0
0.57265282 0.35183334 -0.57433367 0
0.64688492 0.38897133 -0.5924058 0
0.73192787 0.42422867 -0.60845566 0
0.80099869 0.48530006 -0.63864565 0
0.52957153 0.44983673 -0.55564165 0
0.62814713 0.49021149 -0.58711481 0
0.63062859 -0.12747955 -0.53443813 0
0.57025909 -0.067171097 -0.48669529 0
0.58721542 -0.069131851 -0.51988268 0
0.5219574 0.028612137 -0.47810841 0
0.56024933 -0.0023136139 -0.48866701 0
0.49567986 0.11118317 -0.45786619 0
0.53217506 0.1262722 -0.43245935 0
0.46038246 0.20204735 -0.42521715 0
0.50001526 0.22063637 -0.43524075 0
0.43247986 0.28312111 -0.39793062 0
0.46529579 0.34100723 -0.43900728 0
0.40427971 0.36585999 -0.38442469 0
0.45700836 0.36337471 -0.43472433 0
0.33847618 0.47570992 -0.35425329 0
0.42763138 0.48010826 -0.40536165 0
0.48284912 0.21144485 -0.38592291 0
0.44396973 0.30080223 -0.36161852 0
0.40277672 0.38939476 -0.33871126 0
0.31196213 0.49488831 -0.30423927 0
0.3711319 0.47965813 -0.3196702 0
0.81001663 -0.46891212 -0.65183973 0
0.91773987 -0.46224785 -0.68001461 0
0.65572166 -0.45876312 -0.60123491 0
0.69915581 -0.43024635 -0.6216712 0
0.78681946 -0.40347672 -0.64059162 0
0.8961277 -0.35476875 -0.67338324 0
0.98064995 -0.2991848 -0.6986618 0
0.66952705 -0.33102226 -0.59232903 0
0.86491776 -0.26183891 -0.66772652 0
0.9405632 -0.2228756 -0.6846838 0
0.63646889 -0.25866508 -0.55973053 0
0.87689018 -0.19034958 -0.66999722 0
0.94588661 -0.14630127 -0.68235779 0
0.591259 -0.1826458 -0.53926373 0
0.60551643 -0.15769386 -0.54964733 0
0.99827957 -0.014030457 -0.7034688 0
0.57085991 -0.094240189 -0.52366114 0
0.69057083 0.34000397 -0.59448814 0
0.73610497 0.34674644 -0.62457037 0
0.68787766 0.40379143 -0.59587097 0
0.72023964 0.47107315 -0.60794115 0
0.60084534 -0.13695145 -0.51706934 0
0.5434227 -0.057884216 -0.49475765 0
0.58665657 -0.058267593 -0.4909749 0
0.51481819 0.02586174 -0.45511341 0
0.56984329 0.011432648 -0.49032354 0
0.4804039 0.1251049 -0.42928028 0
0.52991676 0.11999893 -0.45501757 0
0.44809341 0.21276474 -0.41457844 0
0.48916435 0.2410202 -0.41941214 0
0.41385841 0.30728912 -0.39240026 0
0.39801407 0.40842438 -0.38386869 0
0.44694519 0.24218559 -0.37730455 0
0.42830467 0.31771469 -0.35604429 0
0.44558716 0.35956764 -0.37468195 0
0.39089012 0.39070511 -0.32974482 0
0.30973244 0.46604919 -0.29904413 0
0.35712051 0.4874382 -0.31761837 0
0.49362946 -0.43654442 -0.56792927 0
0.58392715 -0.45444298 -0.59021425 0
0.69096947 -0.40914345 -0.6251421 0
0.80132103 -0.40716934 -0.65214491 0
0.88570976 -0.41314888 -0.67114639 0
0.98075104 -0.4195137 -0.69869804 0
0.5182724 -0.33040428 -0.57023144 0
0.60448647 -0.33503532 -0.58396816 0
0.68744087 -0.33283806 -0.61338043 0
0.81419563 -0.34280396 -0.65375566 0
0.91167259 -0.295681 -0.67891169 0
0.59110069 -0.23480415 -0.57251787 0
0.65227699 -0.25891876 -0.55734491 0
0.94109917 -0.17708778 -0.69296408 0
0.51877022 -0.12648392 -0.53204823 0
0.56709099 -0.13810158 -0.55868149 0
0.93549919 -0.14235115 -0.68557501 0
0.50214767 -0.039358139 -0.52095079 0
0.56776619 -0.033687592 -0.57595205 0
0.51709557 0.024801254 -0.51954699 0
0.57318687 0.077108383 -0.58463287 0
0.64771843 0.077766418 -0.60744381 0
0.57045364 0.18305969 -0.58322096 0
0.64502335 0.17255783 -0.60596466 0
0.70083618 0.21372604 -0.61657238 0
0.55026627 0.27261162 -0.57166481 0
0.63983345 0.26320267 -0.5975771 0
0.69607544 0.27408981 -0.61506033 0
0.53577042 0.37667656 -0.56627512 0
0.63298607 0.36006355 -0.59266663 0
0.72216606 0.34876823 -0.60811329 0
0.53297234 0.47123528 -0.56336594 0
0.62961197 0.4713726 -0.58969402 0
0.70500946 0.47229004 -0.60401678 0
0.60305023 -0.13769913 -0.5238843 0
0.52117348 -0.04681778 -0.49013805 0
0.55324364 -0.038293839 -0.49041414 0
0.49534988 0.071580887 -0.46229935 0
0.54410172 0.034326553 -0.46401978 0
0.43155479 0.17797089 -0.41571283 0
0.46896553 0.14731598 -0.4401989 0
0.41121292 0.23868942 -0.40312243 0
0.45450974 0.24061584 -0.42824459 0
0.40521812 0.33131027 -0.39283037 0
0.42653084 0.36802292 -0.41953039 0
0.37684631 0.40650368 -0.37270594 0
0.41726112 0.42007065 -0.41587114 0
0.4689045 0.1967659 -0.38091516 0
0.42271233 0.27602005 -0.36363745 0
0.456213 0.25794411 -0.37644291 0
0.40073967 0.35793304 -0.3528285 0
0.44595718 0.32164574 -0.37391901 0
0.30628777 0.47914696 -0.32744312 0
0.36802483 0.4441185 -0.32351589 0
0.9079895 -0.49371338 -0.67479038 0
0.32652092 -0.45951653 -0.51402426 0
0.43801689 -0.44954872 -0.54719973 0
0.53616524 -0.42224121 -0.57232046 0
0.61387253 -0.41733742 -0.5976491 0
0.7289257 -0.4206543 -0.62464046 0
0.83489799 -0.39540482 -0.65785837 0
0.93155098 -0.40362549 -0.68313456 0
0.35272598 -0.35849953 -0.51884651 0
0.42082977 -0.33170128 -0.54283094 0
0.50211906 -0.33773994 -0.55939817 0
0.60548401 -0.33835793 -0.57809114 0
0.85041237 -0.31615639 -0.6614337 0
0.94070435 -0.34839058 -0.68424129 0
0.36709023 -0.29803085 -0.52258062 0
0.41314316 -0.24920464 -0.53552103 0
0.50139236 -0.24305534 -0.56189108 0
0.61257744 -0.23501587 -0.56609201 0
0.96513557 -0.2124691 -0.69251633 0
0.40437317 -0.14508057 -0.53872633 0
0.51760864 -0.14134789 -0.55394316 0
0.58334923 -0.15249252 -0.56284714 0
0.99327469 -0.098342896 -0.70820951 0
0.40719795 -0.047544479 -0.53475046 0
0.50987816 -0.034524918 -0.53733158 0
0.57826805 -0.029001236 -0.58718157 0
0.41710281 0.072353363 -0.53881025 0
0.49664688 0.076049805 -0.54292345 0
0.56899452 0.069721222 -0.57919788 0
0.66593361 0.095758438 -0.60739851 0
0.41209602 0.16135597 -0.53508902 0
0.50182152 0.17380333 -0.56291866 0
0.5692749 0.16494942 -0.57594538 0
0.65855217 0.18266869 -0.60335064 0
0.40146065 0.24612236 -0.5296607 0
0.46759033 0.24840355 -0.54678345 0
0.57257843 0.27324486 -0.57186556 0
0.66455269 0.28861046 -0.60344505 0
0.76832581 0.3184967 -0.6330452 0
0.3943634 0.33932304 -0.52842188 0
0.45702934 0.36556625 -0.53947067 0
0.56002808 0.37125969 -0.5749774 0
0.63714027 0.38542557 -0.58326674 0
0.74266243 0.3776207 -0.61911297 0
0.37360191 0.4485817 -0.51573944 0
0.48056602 0.45230675 -0.54721832 0
0.56791306 0.45737457 -0.56903267 0
0.64264297 0.49158096 -0.58279037 0
0.71832848 0.47475433 -0.60896349 0
0.80437088 0.48749542 -0.63263702 0
0.61094475 -0.21929741 -0.52183342 0
0.5627861 -0.11820984 -0.51661634 0
0.59462738 -0.14175034 -0.51276779 0
0.53940773 -0.041246414 -0.48292875 0
0.57774162 -0.07167244 -0.50342178 0
0.46068954 0.10501671 -0.45561743 0
0.50065422 0.05396843 -0.45576334 0
0.44200134 0.17288017 -0.42790461 0
0.48455811 0.16096306 -0.42540646 0
0.42868996 0.25146866 -0.39670467 0
0.470047 0.22443771 -0.46027851 0
0.40836906 0.34577751 -0.39326334 0
0.45674133 0.36391449 -0.43868589 0
0.34790421 0.47450447 -0.36155319 0
0.38998413 0.43453789 -0.38234186 0
0.47472572 0.20289612 -0.38260889 0
0.43577766 0.28211021 -0.36372757 0
0.47365189 0.26399803 -0.38581944 0
0.41118431 0.3472538 -0.33866119 0
0.35422516 0.44319153 -0.3128624 0
0.3864975 0.44556427 -0.33480024 0
0.17723846 -0.45853615 -0.4754653 0
0.27594948 -0.4647522 -0.50442839 0
0.37599373 -0.44956589 -0.52856588 0
0.47207069 -0.46011162 -0.55275917 0
0.57126045 -0.44164658 -0.58215618 0
0.67216682 -0.41046524 -0.60943317 0
0.78175735 -0.41399002 -0.64655495 0
0.86551476 -0.42654037 -0.66262436 0
0.94098473 -0.41303635 -0.69041204 0
0.19748116 -0.37522125 -0.47835016 0
0.26749992 -0.38217354 -0.49718666 0
0.3484478 -0.35270882 -0.52012205 0
0.46215057 -0.355196 -0.55237913 0
0.59134293 -0.34906197 -0.58758068 0
0.63084602 -0.32103348 -0.57277441 0
0.73602867 -0.35991669 -0.61594009 0
0.89755821 -0.29472923 -0.67659473 0
0.20773125 -0.31833076 -0.47871542 0
0.24568939 -0.2719059 -0.49214697 0
0.34938622 -0.23262405 -0.52430964 0
0.44067764 -0.25065613 -0.54434776 0
0.54402733 -0.23709869 -0.57077694 0
0.61860657 -0.24229622 -0.57388067 0
0.24010849 -0.1757431 -0.49165249 0
0.33612823 -0.15431976 -0.52051926 0
0.43071747 -0.13341904 -0.54737186 0
0.55441093 -0.15254593 -0.55641222 0
0.24471855 -0.090978622 -0.48966026 0
0.33258438 -0.055398941 -0.51405287 0
0.42605209 -0.061462402 -0.54387045 0
0.52092361 -0.051616669 -0.54032612 0
0.62539482 -0.0063686371 -0.59340572 0
0.24962425 0.020059586 -0.48975658 0
0.32124138 0.046503067 -0.50971079 0
0.42326164 0.068330765 -0.5408659 0
0.51010513 0.046472549 -0.55793381 0
0.63484383 0.092493057 -0.59967184 0
0.25286865 0.1048069 -0.49129772 0
0.31297874 0.14823914 -0.51144648 0
0.39934349 0.14375877 -0.53449345 0
0.51252747 0.15302658 -0.55572128 0
0.60373878 0.17457199 -0.5919199 0
0.71555328 0.18109512 -0.62029934 0
0.25595856 0.23247337 -0.49528551 0
0.31769943 0.24091339 -0.51874256 0
0.40809059 0.23340607 -0.53275442 0
0.51371193 0.2474823 -0.56609678 0
0.60975838 0.25168991 -0.58704376 0
0.69550514 0.2791748 -0.61053562 0
0.77858353 0.27022934 -0.62874651 0
0.23929787 0.33378029 -0.48818064 0
0.30406189 0.33509064 -0.50432682 0
0.40206146 0.34366035 -0.53149796 0
0.48745728 0.34208488 -0.55724096 0
0.59220505 0.3508606 -0.57998037 0
0.68100548 0.39469528 -0.60659218 0
0.76950836 0.37250519 -0.62784815 0
0.83714676 0.42491722 -0.64112091 0
0.20993233 0.44167328 -0.47516727 0
0.28616142 0.44477272 -0.49251652 0
0.39093208 0.44379997 -0.52702999 0
0.48603058 0.4393158 -0.54849815 0
0.5760994 0.47615433 -0.56904459 0
0.67882729 0.46815109 -0.59301901 0
0.78702927 0.46818924 -0.62308741 0
0.62629128 -0.20187569 -0.528615 0
0.58523178 -0.14482307 -0.51533842 0
0.5469532 -0.040401459 -0.48895311 0
0.60862732 -0.074142456 -0.5218358 0
0.47774315 0.058670044 -0.46567822 0
0.53426933 0.056171417 -0.4597497 0
0.46684647 0.15680122 -0.42783833 0
0.51714134 0.14236259 -0.43475199 0
0.4375267 0.23707962 -0.41408539 0
0.38630676 0.32157326 -0.37777185 0
0.44299889 0.34475899 -0.42457962 0
0.34848213 0.44062805 -0.36062336 0
0.40533066 0.44074059 -0.39249754 0
0.44000244 0.25305176 -0.36465311 0
0.35845184 0.37841797 -0.33522081 0
0.41815948 0.34333992 -0.35404253 0
0.36617279 0.44068527 -0.31586361 0
0.40181923 0.44672966 -0.30970335 0
0.9514637 -0.47070885 -0.69331741 0
0.03209877 -0.48925018 -0.43485308 0
0.11521912 -0.46801949 -0.45428848 0
0.20552063 -0.46768379 -0.48154354 0
0.31051445 -0.45823288 -0.5116148 0
0.39866066 -0.46756172 -0.53545332 0
0.4995327 -0.44890594 -0.56482506 0
0.60183334 -0.42432976 -0.59088898 0
0.70152855 -0.42454338 -0.62055063 0
0.82089424 -0.43632889 -0.65280771 0
0.96484756 -0.40409279 -0.69734907 0
0.036315918 -0.37534523 -0.43659019 0
0.10264969 -0.37851524 -0.45114374 0
0.19835854 -0.37312126 -0.47985697 0
0.28401184 -0.35737419 -0.50090551 0
0.40021133 -0.34476852 -0.5336175 0
0.51688576 -0.34257889 -0.56617737 0
0.62190819 -0.32357979 -0.58378315 0
0.6961441 -0.32991028 -0.59987164 0
0.83708 -0.36524582 -0.65908194 0
0.96834564 -0.32392311 -0.69238615 0
0.041501999 -0.32793427 -0.43341637 0
0.092054367 -0.27804756 -0.45037842 0
0.20133018 -0.25901794 -0.47965717 0
0.28109741 -0.23576355 -0.503016 0
0.34856033 -0.24769783 -0.51871729 0
0.47238541 -0.25183487 -0.5552659 0
0.58837318 -0.22117996 -0.5604682 0
0.62380219 -0.21743965 -0.59850407 0
0.98563194 -0.22271919 -0.69945526 0
0.083208084 -0.20174408 -0.44530535 0
0.17143059 -0.17951202 -0.47182417 0
0.29326248 -0.145998 -0.50623989 0
0.36542702 -0.14586258 -0.52529049 0
0.4527874 -0.15959358 -0.54937887 0
0.56223297 -0.12710953 -0.55274916 0
0.083730698 -0.093799591 -0.44796705 0
0.19085312 -0.083677292 -0.47785854 0
0.25932312 -0.093509674 -0.49535322 0
0.35747147 -0.051416397 -0.52719927 0
0.47131729 -0.055475235 -0.54180574 0
0.55071831 -0.037837982 -0.56478071 0
0.65896034 0.0097866058 -0.60857916 0
0.094434738 0.010568619 -0.45235586 0
0.17705536 0.016765594 -0.47442722 0
0.27180481 0.017288208 -0.50148392 0
0.3701458 0.048213959 -0.5314064 0
0.45196342 0.035758972 -0.54255819 0
0.5568676 0.049873352 -0.56832075 0
0.65028381 0.082279205 -0.60224438 0
0.095996857 0.12551308 -0.45252657 0
0.16536903 0.12236214 -0.4713788 0
0.24491692 0.11870384 -0.48940182 0
0.35375977 0.14023209 -0.52413797 0
0.47394753 0.12638664 -0.55831575 0
0.55017471 0.1752758 -0.57467842 0
0.63209724 0.15799713 -0.59161186 0
0.73445892 0.17616081 -0.624897 0
0.083824158 0.20962334 -0.44517088 0
0.16448975 0.20802116 -0.47184992 0
0.24740791 0.22883415 -0.49293756 0
0.34101295 0.2582531 -0.5209198 0
0.45936012 0.24569893 -0.55135727 0
0.51471901 0.24474716 -0.57089424 0
0.62763405 0.26672173 -0.59280396 0
0.72007561 0.26590729 -0.6187892 0
0.078514099 0.31717682 -0.44543457 0
0.14460754 0.31804276 -0.46235991 0
0.25200272 0.33787155 -0.49063778 0
0.34065628 0.33950424 -0.51072979 0
0.44108772 0.3441925 -0.54365158 0
0.52518654 0.35300827 -0.56544447 0
0.60149002 0.36645889 -0.58062983 0
0.69472313 0.37495232 -0.60775852 0
0.80108643 0.38029861 -0.6342268 0
0.048915863 0.42102623 -0.43191004 0
0.122509 0.42173576 -0.45349121 0
0.21925735 0.42943192 -0.47739315 0
0.32522583 0.44915009 -0.50686407 0
0.40655708 0.42650795 -0.52608299 0
0.49774551 0.47725868 -0.55506277 0
0.6193676 0.46180153 -0.58142042 0
0.76882553 0.49498177 -0.62098598 0
0.87333679 0.4902401 -0.64374161 0
0.5918026 -0.10078812 -0.5123167 0
0.56181335 -0.029607773 -0.49666119 0
0.4953804 0.063085556 -0.46941757 0
0.56117249 0.053871155 -0.48694801 0
0.47374916 0.14555931 -0.42828083 0
0.41912842 0.22855377 -0.38468552 0
0.45242882 0.23917198 -0.42432928 0
0.39037514 0.35592461 -0.37527657 0
0.4350071 0.33177185 -0.41540194 0
0.35535812 0.43780136 -0.35932207 0
0.47385025 0.16735268 -0.39081049 0
0.41963387 0.27315903 -0.35330391 0
0.46419334 0.2443428 -0.37780428 0
0.40053558 0.3596344 -0.34490919 0
0.30382729 0.44408607 -0.31085157 0
0.3681488 0.42089272 -0.31193256 0
-0.078493118 -0.49784088 -0.39967489 0
0.10068512 -0.45707703 -0.45231771 0
0.19878006 -0.49132729 -0.4717164 0
0.29792404 -0.48726273 -0.50170374 0
0.4097805 -0.44695854 -0.53429127 0
0.50465584 -0.45524979 -0.56031704 0
0.62572098 -0.46585083 -0.59333658 0
0.64188957 -0.48548317 -0.61138582 0
0.76868057 -0.43559074 -0.6367383 0
0.90286255 -0.42765427 -0.67076063 0
-0.1653347 -0.40871429 -0.37444639 0
-0.084918976 -0.40023232 -0.40082359 0
-0.015159607 -0.38717651 -0.41570902 0
0.075435638 -0.40812111 -0.441576 0
0.17649651 -0.34022331 -0.46981001 0
0.24414825 -0.35385132 -0.49470615 0
0.36625862 -0.34949493 -0.52491617 0
0.47959328 -0.3383255 -0.55449915 0
0.57128334 -0.3084259 -0.57397795 0
0.63983154 -0.33379173 -0.58773947 0
0.73784447 -0.3401947 -0.61929846 0
0.93006325 -0.32414436 -0.68510675 0
-0.15726471 -0.35606766 -0.37335396 0
-0.10450745 -0.31471443 -0.39347553 0
-0.015005112 -0.26919746 -0.41936684 0
0.077754974 -0.29791641 -0.44176579 0
0.16605759 -0.25095367 -0.46976614 0
0.26377296 -0.23758507 -0.50009441 0
0.34591484 -0.25485802 -0.51812172 0
0.43789673 -0.24580956 -0.53911543 0
0.56855202 -0.24140739 -0.56755781 0
0.94425774 -0.25808907 -0.69226646 0
-0.11214447 -0.19153595 -0.39526844 0
-0.047138214 -0.20072365 -0.41050863 0
0.073076248 -0.1764946 -0.44447517 0
0.17765427 -0.15878868 -0.47274113 0
0.25598526 -0.17113876 -0.48928833 0
0.3517189 -0.1448822 -0.51625061 0
0.4567585 -0.12631607 -0.5479517 0
0.56427574 -0.15898705 -0.54751968 0
-0.10830307 -0.10798454 -0.39276075 0
-0.017837524 -0.11215019 -0.41606379 0
0.088085175 -0.07522583 -0.44559336 0
0.17395592 -0.082504272 -0.46648788 0
0.28979111 -0.030750275 -0.51008844 0
0.38111687 -0.020782471 -0.53469563 0
0.47851181 -0.044895172 -0.54085732 0
0.55442429 -0.056207657 -0.57424355 0
-0.10507584 9.1552734e-05 -0.3916707 0
-0.03537941 0.0092487335 -0.41050386 0
0.057739258 0.0055217743 -0.43816328 0
0.16054153 0.030864716 -0.46296501 0
0.27215195 0.013961792 -0.49595404 0
0.36163521 0.025527954 -0.51955986 0
0.45883751 0.058696747 -0.54605627 0
0.56004715 0.052042007 -0.56938171 0
0.67694283 0.045043945 -0.60751343 0
-0.1084156 0.10832214 -0.38873863 0
-0.034572601 0.10867119 -0.41078424 0
0.037096024 0.10845184 -0.43098545 0
0.13866615 0.11469269 -0.45873356 0
0.26668358 0.1074543 -0.49194384 0
0.37133217 0.14496422 -0.52665377 0
0.46014214 0.17707443 -0.54849625 0
0.55452156 0.1539402 -0.57456446 0
0.66335487 0.17374611 -0.60215759 0
0.78182793 0.20592308 -0.63413763 0
-0.10205841 0.2066288 -0.39480019 0
-0.024261475 0.21709824 -0.41962576 0
0.026603699 0.20652008 -0.42544699 0
0.12758446 0.21775055 -0.45500946 0
0.23339653 0.22881508 -0.48599482 0
0.35588646 0.24409294 -0.51902723 0
0.45409775 0.25572014 -0.54756689 0
0.53216743 0.26117897 -0.5642705 0
0.63747787 0.28963852 -0.5904212 0
0.73288155 0.29224205 -0.60680819 0
0.76860046 0.27994919 -0.62898397 0
-0.11325645 0.28218079 -0.38987207 0
-0.035827637 0.31706047 -0.41538811 0
0.044055939 0.30390358 -0.43102741 0
0.13666534 0.31731224 -0.46003819 0
0.23795509 0.32299995 -0.47982454 0
0.32737541 0.3635006 -0.50648785 0
0.43346214 0.33850479 -0.53826189 0
0.50847435 0.38232231 -0.55532837 0
0.61395454 0.34999657 -0.57863998 0
0.72736359 0.38911057 -0.60890293 0
0.83629036 0.38520622 -0.63194942 0
-0.13157463 0.39312935 -0.38368559 0
-0.060598373 0.43144608 -0.40557671 0
0.042247772 0.41479301 -0.43149948 0
0.1315937 0.41897774 -0.45568466 0
0.21065712 0.44307327 -0.46973419 0
0.32728004 0.42008781 -0.50964689 0
0.39380836 0.42378426 -0.51813078 0
0.47840691 0.45506287 -0.54101419 0
0.59645844 0.4514389 -0.57395315 0
0.68931389 0.46251297 -0.59008312 0
0.81597519 0.49090576 -0.62642241 0
0.63083267 -0.20219612 -0.53244352 0
0.56779099 -0.1377697 -0.5058465 0
0.48914528 -0.039907455 -0.48117208 0
0.54676247 -0.043272018 -0.48892736 0
0.48494148 0.052282333 -0.45165157 0
0.55150604 0.047796249 -0.47071981 0
0.47092056 0.13898277 -0.4333415 0
0.40783691 0.28333282 -0.39788198 0
0.44541931 0.23582268 -0.41631317 0
0.39361191 0.33042908 -0.36765623 0
0.43820572 0.32969093 -0.41455698 0
0.39520454 0.40384483 -0.37476873 0
0.42977333 0.43449211 -0.41477203 0
0.46616936 0.18270111 -0.37133932 0
0.46262169 0.25997734 -0.37548828 0
0.39467621 0.34130669 -0.33375835 0
0.4336586 0.31313705 -0.34971237 0
0.31136131 0.46485138 -0.32989264 0
0.36403084 0.43571663 -0.32004356 0
-0.70467949 0.45826721 -0.018753052 0
-0.052341461 -0.48413467 -0.41110897 0
0.037054062 -0.49207878 -0.43567276 0
0.13815498 -0.47439003 -0.46537876 0
0.24026108 -0.46013069 -0.49278641 0
0.32866287 -0.48072433 -0.51428127 0
0.4769783 -0.44799423 -0.56722689 0
0.59420395 -0.44353104 -0.5903101 0
0.73116112 -0.44296265 -0.62778044 0
0.88058281 -0.39446259 -0.67146873 0
-0.33831978 -0.42862701 -0.33032751 0
-0.25831032 -0.41142082 -0.35488892 0
-0.18807793 -0.4073925 -0.37176943 0
-0.079860687 -0.40829468 -0.40397501 0
0.018917084 -0.37859726 -0.43248892 0
0.14422226 -0.39668655 -0.46064806 0
0.29036713 -0.34097672 -0.5046258 0
0.36608124 -0.35865784 -0.5342288 0
0.4893055 -0.34240341 -0.56704807 0
0.6159687 -0.33755112 -0.58875418 0
0.68201256 -0.32825851 -0.58670235 0
-0.32089615 -0.36144638 -0.33609247 0
-0.27162743 -0.30377197 -0.35099936 0
-0.15302658 -0.29355049 -0.38929844 0
-0.094211578 -0.32475471 -0.3996644 0
-0.013317108 -0.28190231 -0.42134619 0
0.10974503 -0.30143356 -0.45845985 0
0.28047752 -0.25530815 -0.50751972 0
0.38003922 -0.23563385 -0.53596258 0
0.50037003 -0.23205185 -0.56825542 0
0.59674263 -0.24315453 -0.56218863 0
-0.29567146 -0.20349121 -0.34173775 0
-0.18683434 -0.20551109 -0.37732601 0
-0.081186295 -0.18692589 -0.40935612 0
-0.011022568 -0.20197296 -0.41747856 0
0.092359543 -0.17549896 -0.45218468 0
0.18623352 -0.1866169 -0.4795332 0
0.2815361 -0.1659565 -0.50335455 0
0.38601303 -0.14816284 -0.53637028 0
0.50641441 -0.13554001 -0.55681896 0
0.56688881 -0.14611435 -0.54987431 0
-0.28458405 -0.11880493 -0.34571171 0
-0.20126724 -0.093746185 -0.37432194 0
-0.11255455 -0.10232735 -0.39585352 0
0.01521492 -0.096176147 -0.43341923 0
0.088941574 -0.097145081 -0.44630289 0
0.19274521 -0.08464241 -0.48040628 0
0.29448509 -0.052581787 -0.50962448 0
0.38774872 -0.045347214 -0.53461409 0
0.51686478 -0.049995422 -0.54475641 0
0.55639076 -0.038568497 -0.56306839 0
-0.27380562 -0.014461517 -0.35086775 0
-0.19140434 0.014104843 -0.37886095 0
-0.09444809 0.003320694 -0.39765549 0
0.0013332367 -0.013183594 -0.42967367 0
0.093074799 0.0040893555 -0.44769812 0
0.19360542 0.012615204 -0.47939682 0
0.29348373 0.052886963 -0.50789785 0
0.39532089 0.053232193 -0.53920078 0
0.50828552 0.059347153 -0.56696987 0
0.63865089 0.059703827 -0.60418844 0
-0.28140831 0.086338043 -0.34487152 0
-0.19908524 0.10336304 -0.37302828 0
-0.10444832 0.096883774 -0.39687681 0
0.013532639 0.10432434 -0.42985487 0
0.11107635 0.1317997 -0.46082544 0
0.20442009 0.13552284 -0.48733044 0
0.30056763 0.13703537 -0.51348209 0
0.38939285 0.13423347 -0.53538513 0
0.50457764 0.15427589 -0.53777266 0
0.5097084 0.15922737 -0.5693841 0
0.63375282 0.16903687 -0.6038866 0
0.74351311 0.18620491 -0.62737751 0
-0.29024506 0.17978287 -0.34049797 0
-0.21947289 0.19356155 -0.37002897 0
-0.12292862 0.2038765 -0.39793396 0
-0.02762413 0.20819855 -0.4215188 0
0.093082428 0.21212006 -0.45006609 0
0.19355774 0.22928238 -0.48181391 0
0.28014183 0.24293709 -0.50217247 0
0.37564468 0.21798897 -0.52858973 0
0.49698448 0.26986504 -0.56587219 0
0.59654236 0.24156189 -0.58304214 0
0.6257515 0.22617531 -0.60114956 0
0.7083149 0.27249146 -0.60913992 0
0.84633064 0.28422737 -0.65099812 0
-0.28565979 0.27967262 -0.34721279 0
-0.2108593 0.28980827 -0.36997461 0
-0.14655685 0.26402664 -0.38408947 0
-0.052402496 0.31630135 -0.40909815 0
0.046443939 0.30125427 -0.43952847 0
0.17218208 0.32898331 -0.47216034 0
0.26180267 0.32828712 -0.4946394 0
0.36243629 0.35135841 -0.52674389 0
0.46137428 0.34228325 -0.54707575 0
0.56587982 0.3333149 -0.56855679 0
0.60192871 0.32510948 -0.59083271 0
0.70770454 0.37513161 -0.61461878 0
0.83069992 0.37221336 -0.64638662 0
-0.29456329 0.40492821 -0.34794807 0
-0.22455978 0.39249229 -0.366189 0
-0.14046288 0.3865509 -0.38714552 0
-0.051389694 0.40237617 -0.40741777 0
0.074045181 0.40925407 -0.44691563 0
0.14219093 0.42635727 -0.45908022 0
0.24543953 0.42689705 -0.49010849 0
0.3238163 0.445261 -0.50818682 0
0.43704605 0.4714222 -0.53984642 0
0.54049492 0.43441582 -0.55921888 0
0.66505623 0.49093437 -0.59591818 0
0.68963432 0.42155075 -0.60629082 0
0.80542564 0.48418045 -0.63810778 0
-0.32278061 0.49289513 -0.33656931 0
-0.24308205 0.47725868 -0.36017275 0
-0.16676331 0.49680519 -0.3703661 0
0.57092857 -0.11096764 -0.50111771 0
0.53807259 -0.0040931702 -0.50392342 0
0.5556488 -0.046695709 -0.49587631 0
0.49398041 0.052242279 -0.4673481 0
0.46514511 0.1437149 -0.43781805 0
0.40093422 0.25989151 -0.39411688 0
0.45945549 0.22150421 -0.42132568 0
0.38594818 0.35423088 -0.37700462 0
0.43966293 0.35551071 -0.43052959 0
0.37607574 0.44252014 -0.37474775 0
-0.67217255 0.48558807 -0.084506989 0
0.414711 0.26209641 -0.35907269 0
0.46253967 0.27020073 -0.38773632 0
0.39242363 0.34179497 -0.34066391 0
0.44996643 0.31402016 -0.35889912 0
0.33953667 0.44970131 -0.31948709 0
0.39016914 0.43722725 -0.32316732 0
-0.70067978 0.45258522 -0.041451931 0
-0.28339005 -0.49476814 -0.34862137 0
-0.12545586 -0.49882698 -0.38611746 0
-0.031421661 -0.49051285 -0.41072178 0
0.065734863 -0.48525429 -0.43509865 0
0.17380333 -0.47035599 -0.47078848 0
0.28819084 -0.48871994 -0.499156 0
0.30339432 -0.42215157 -0.50510597 0
0.43043137 -0.45729256 -0.54234505 0
0.57942009 -0.42467117 -0.58756495 0
0.70575523 -0.4303875 -0.61664152 0
0.87439919 -0.44098854 -0.66145992 0
-0.50044632 -0.44618988 -0.28185987 0
-0.4201622 -0.42853737 -0.30666208 0
-0.34426308 -0.41679955 -0.32792568 0
-0.23828125 -0.41444588 -0.3575139 0
-0.14645386 -0.3890667 -0.38037682 0
-0.035070419 -0.37986755 -0.40800762 0
0.089536667 -0.37311363 -0.44326973 0
0.18592834 -0.38911629 -0.4720521 0
0.31760025 -0.34489822 -0.51014328 0
0.44714737 -0.34337616 -0.5460844 0
0.5723877 -0.37663651 -0.57704353 0
0.61502266 -0.30866241 -0.58533478 0
0.89869118 -0.33763695 -0.67405081 0
-0.48595047 -0.33309174 -0.27801228 0
-0.44105339 -0.33054161 -0.29621696 0
-0.33002472 -0.31325531 -0.32720709 0
-0.24998474 -0.31574059 -0.35335827 0
-0.1823597 -0.3161087 -0.36792135 0
-0.067707062 -0.30590057 -0.39994097 0
0.10392761 -0.28557396 -0.44803476 0
0.20266914 -0.28071594 -0.47733212 0
0.32796288 -0.25113106 -0.51206779 0
0.46172905 -0.22382736 -0.55030823 0
0.56928444 -0.26451874 -0.57046318 0
0.62433052 -0.22955132 -0.55749083 0
-0.46118164 -0.23255348 -0.28983498 0
-0.35205841 -0.21444321 -0.32434225 0
-0.23931122 -0.22934723 -0.35474491 0
-0.15301323 -0.19433784 -0.38312912 0
-0.078046799 -0.2152462 -0.39746714 0
0.021989822 -0.19467545 -0.42836618 0
0.11549568 -0.19695282 -0.45200205 0
0.20881462 -0.17617416 -0.47615623 0
0.328722 -0.17301178 -0.50881481 0
0.456604 -0.14325333 -0.5429759 0
0.56295204 -0.15328026 -0.55591202 0
0.57989883 -0.12492752 -0.54846478 0
-0.4437542 -0.13853836 -0.2980423 0
-0.36948776 -0.13003349 -0.32023907 0
-0.26280212 -0.12994766 -0.3494854 0
-0.15015602 -0.11094666 -0.3810935 0
-0.057155609 -0.095508575 -0.40853357 0
0.024333954 -0.10477066 -0.42629147 0
0.12081337 -0.096925735 -0.45236731 0
0.22059631 -0.097795486 -0.48259211 0
0.33577538 -0.078508377 -0.51141548 0
0.50563431 -0.058954239 -0.53205442 0
0.61206245 -0.02520752 -0.59332323 0
-0.43685532 -0.026716232 -0.29956484 0
-0.36506653 -0.02973175 -0.32039165 0
-0.26012802 -0.012853622 -0.34823179 0
-0.1497345 -0.0060462952 -0.37900686 0
-0.064399719 -0.017465591 -0.40120077 0
0.031158447 0.002664566 -0.42935038 0
0.1364193 0.032785416 -0.46185684 0
0.22837448 -0.0041999817 -0.48660278 0
0.34656334 0.029884338 -0.5180316 0
0.49785805 0.02816391 -0.53722763 0
0.61189079 0.071895599 -0.59259033 0
-0.43319321 0.074895859 -0.30144644 0
-0.37457848 0.071260452 -0.31284618 0
-0.28822517 0.093034744 -0.34363699 0
-0.17770576 0.09179306 -0.36947966 0
-0.067863464 0.099111557 -0.3987999 0
0.030097961 0.10472488 -0.42858219 0
0.13041496 0.12855148 -0.45795822 0
0.23075676 0.1120472 -0.4881835 0
0.33586121 0.1537075 -0.51123428 0
0.35569572 0.10851288 -0.52460623 0
0.46912384 0.1443367 -0.55073166 0
0.59944916 0.17783737 -0.58761358 0
0.72359657 0.19844246 -0.62074089 0
0.74158669 0.12720299 -0.62925911 0
-0.43585777 0.15616989 -0.30069065 0
-0.37018394 0.18629837 -0.3178668 0
-0.27668571 0.1788311 -0.34548569 0
-0.18750572 0.1777935 -0.37218571 0
-0.074905396 0.21531677 -0.39621973 0
0.020893097 0.17700958 -0.42337847 0
0.11790276 0.22465515 -0.45124578 0
0.20730591 0.2178669 -0.47411394 0
0.32098961 0.27885628 -0.50642776 0
0.34458733 0.25167084 -0.52025414 0
0.44804573 0.26973724 -0.54220533 0
0.56586647 0.26996422 -0.57049513 0
0.68709564 0.2902813 -0.60220337 0
0.84107399 0.30534744 -0.64276505 0
-0.45040512 0.26206589 -0.29433584 0
-0.39673996 0.25638199 -0.31156445 0
-0.28622246 0.28087616 -0.34239149 0
-0.18518829 0.2959671 -0.36980152 0
-0.063512802 0.32311249 -0.40757799 0
0.03997612 0.32420921 -0.44061184 0
0.092752457 0.31914711 -0.45084667 0
0.18945503 0.33479691 -0.46805906 0
0.30749512 0.36445618 -0.50258255 0
0.41274643 0.38949013 -0.52663279 0
0.48273277 0.37265015 -0.5468545 0
0.54003143 0.34284401 -0.55825472 0
0.66211891 0.36429977 -0.59087181 0
0.79179573 0.33983231 -0.61412477 0
0.94191742 0.42895508 -0.65329647 0
-0.45485115 0.33297729 -0.29481745 0
-0.40105057 0.3728714 -0.3121767 0
-0.30435181 0.38133049 -0.33565331 0
-0.20748711 0.40945816 -0.36552858 0
-0.10145378 0.41064453 -0.38800764 0
-0.0046920776 0.39282608 -0.42374277 0
0.098882675 0.42007065 -0.44864416 0
0.17438889 0.43872452 -0.46487284 0
0.25824165 0.40784073 -0.474617 0
0.39308167 0.45752144 -0.5188961 0
0.50227928 0.49032593 -0.54456568 0
0.52673531 0.4552784 -0.55711412 0
0.6518383 0.45995903 -0.59074068 0
0.79158592 0.4679451 -0.62266064 0
0.92403221 0.48837662 -0.64749241 0
-0.47452545 0.47050858 -0.29121876 0
-0.40933037 0.45275879 -0.30591106 0
-0.32218552 0.45823288 -0.32726622 0
-0.21221161 0.49737549 -0.34526873 0
-0.12425995 0.48316574 -0.3786912 0
0.55553436 -0.11344147 -0.50465012 0
0.60552788 -0.092582703 -0.50250244 0
0.53616905 -0.034065247 -0.48693419 0
0.4591732 0.058971405 -0.4470315 0
0.52413177 0.027767181 -0.45118761 0
0.44969749 0.14479256 -0.4251194 0
0.51181793 0.10341644 -0.42818308 0
0.43083572 0.24088669 -0.40209818 0
0.49385834 0.20454979 -0.47912264 0
0.38653564 0.34540939 -0.37247038 0
0.46260071 0.3673439 -0.4406538 0
0.39310837 0.46611595 -0.38159847 0
-0.6801796 0.46613884 -0.078258514 0
0.460495 0.18354416 -0.37659407 0
0.4895668 0.14319611 -0.39023685 0
0.43572044 0.22572899 -0.36576033 0
0.4113102 0.34093285 -0.34627247 0
0.36144066 0.45663261 -0.31848907 0
0.40310669 0.45003319 -0.30609226 0
-0.079994202 -0.49988937 -0.39702368 0
0.020851135 -0.48486519 -0.42557955 0
0.13764954 -0.48713684 -0.45369577 0
0.2775383 -0.45844078 -0.49503374 0
0.4237709 -0.44497108 -0.53928471 0
0.55380249 -0.45075417 -0.57111835 0
0.71372795 -0.38126755 -0.60799456 0
0.72972679 -0.44702911 -0.62032795 0
0.93589783 -0.40392494 -0.68311119 0
-0.65289688 -0.44434357 -0.23674917 0
-0.58608055 -0.44935417 -0.25172186 0
-0.48581886 -0.45268059 -0.28165102 0
-0.3775177 -0.4094677 -0.31062412 0
-0.28026009 -0.40908432 -0.34036684 0
-0.16233253 -0.41338921 -0.37450504 0
-0.093299866 -0.3999424 -0.39370918 0
-0.054002762 -0.3856926 -0.40668821 0
0.047386169 -0.36492729 -0.43597174 0
0.1642704 -0.37877846 -0.46629763 0
0.29913902 -0.34931755 -0.50379705 0
0.41849709 -0.37667465 -0.52906132 0
0.57513046 -0.30754852 -0.57861042 0
0.93127823 -0.33135223 -0.67476082 0
-0.60149002 -0.33022308 -0.2520051 0
-0.51593971 -0.32975197 -0.27686357 0
-0.4104023 -0.33648109 -0.30387592 0
-0.33153534 -0.30260086 -0.32496023 0
-0.24098969 -0.29994583 -0.35011768 0
-0.13982582 -0.30326843 -0.3831377 0
-0.034948349 -0.27621841 -0.41352844 0
0.048208237 -0.29652405 -0.43114376 0
0.16304016 -0.28808212 -0.45852613 0
0.30309868 -0.28456116 -0.50275993 0
0.44967079 -0.24230194 -0.54656601 0
0.56639099 -0.25779152 -0.56907129 0
0.63375473 -0.25351715 -0.56102085 0
-0.61347961 -0.23889542 -0.24687243 0
-0.53557396 -0.22624207 -0.27134228 0
-0.41865349 -0.21525955 -0.30775118 0
-0.31200218 -0.19908142 -0.33378315 0
-0.22870636 -0.20285034 -0.3539362 0
-0.14002419 -0.22081947 -0.37747765 0
-0.041622162 -0.1938076 -0.40355587 0
0.055900574 -0.18966103 -0.43164778 0
0.19164467 -0.17572403 -0.47581768 0
0.32372284 -0.16976738 -0.51372671 0
0.45637512 -0.14179039 -0.54794836 0
0.56809044 -0.15097237 -0.55539942 0
-0.59918404 -0.12391281 -0.25160313 0
-0.52056885 -0.14861298 -0.26955605 0
-0.43686295 -0.12516785 -0.2980051 0
-0.3250618 -0.10798836 -0.32898378 0
-0.22816086 -0.11435318 -0.35082674 0
-0.12961578 -0.11516762 -0.38128757 0
-0.030387878 -0.10435867 -0.40908098 0
0.074279785 -0.058895111 -0.44187784 0
0.19116402 -0.055101395 -0.47227383 0
0.21226883 -0.10669708 -0.48937035 0
0.32269287 -0.057727814 -0.51008177 0
0.46525764 -0.043294907 -0.528934 0
0.55653572 -0.046070099 -0.5491643 0
0.60388947 -0.067451477 -0.56066465 0
-0.59422684 -0.043859482 -0.25299072 0
-0.52281761 -0.028133392 -0.27314472 0
-0.42180443 -0.02939415 -0.303864 0
-0.33839989 -0.015335083 -0.32571793 0
-0.20980835 -0.0099639893 -0.36262655 0
-0.1175251 0.0030174255 -0.38833046 0
-0.026973724 0.0063247681 -0.41023779 0
0.074518204 0.027685165 -0.44119263 0
0.18690491 0.029397964 -0.46847677 0
0.31643105 0.050682068 -0.50483942 0
0.45238304 0.049772263 -0.54271555 0
0.55636787 0.037443161 -0.54908991 0
0.75067329 0.096681595 -0.62416792 0
-0.58544922 0.054307938 -0.25867653 0
-0.51722145 0.081975937 -0.27690697 0
-0.44943047 0.07588768 -0.29438353 0
-0.33989906 0.076589584 -0.32459593 0
-0.20911407 0.087028503 -0.36312771 0
-0.13450623 0.10089111 -0.37663174 0
-0.019922256 0.14607048 -0.41601658 0
0.071445465 0.1129837 -0.43948555 0
0.19995117 0.12594604 -0.47840405 0
0.31388474 0.15292358 -0.50420046 0
0.44728851 0.15599251 -0.54084826 0
0.59178162 0.13339996 -0.58442354 0
0.73039818 0.1770153 -0.61510658 0
-0.59867477 0.15398026 -0.25098753 0
-0.52103806 0.18315125 -0.27614498 0
-0.4548111 0.15782928 -0.29192543 0
-0.34803391 0.17387581 -0.3206706 0
-0.23595619 0.21005249 -0.3560276 0
-0.12335777 0.23103714 -0.38712883 0
-0.032968521 0.19651604 -0.40814304 0
0.06726265 0.22618675 -0.43899393 0
0.19673729 0.21905518 -0.47791529 0
0.30327034 0.2192173 -0.49893808 0
0.43138504 0.26535034 -0.53571939 0
0.55073929 0.25340271 -0.56394815 0
0.5772934 0.21453667 -0.57875299 0
0.70586395 0.29307175 -0.60607958 0
0.85544395 0.2754097 -0.63668251 0
-0.60004044 0.28524971 -0.2546711 0
-0.55142212 0.27272034 -0.26604939 0
-0.45648003 0.25370789 -0.29385757 0
-0.37026978 0.27815247 -0.3179965 0
-0.2646637 0.29257202 -0.34284258 0
-0.12780762 0.31876755 -0.38734388 0
-0.029966354 0.3273983 -0.41464758 0
0.016227722 0.28621292 -0.42536116 0
0.15228462 0.3270874 -0.45389032 0
0.18379974 0.28985023 -0.47165012 0
0.29685211 0.3469677 -0.50187874 0
0.40569687 0.36888695 -0.52561331 0
0.5323143 0.33421898 -0.55714178 0
0.66890144 0.35680962 -0.5870862 0
0.84833527 0.39618492 -0.64017773 0
-0.61777115 0.33575058 -0.24600744 0
-0.53668404 0.35324097 -0.26458693 0
-0.44328117 0.35199928 -0.29778957 0
-0.35240555 0.38541603 -0.31980371 0
-0.23663712 0.40205956 -0.35542059 0
-0.16799545 0.41381264 -0.37476158 0
0.00042533875 0.41708374 -0.42728901 0
0.11167526 0.44575882 -0.45633459 0
0.24599838 0.44386864 -0.47648859 0
0.35171318 0.46118736 -0.49861574 0
0.37569046 0.4321785 -0.51121712 0
0.51277161 0.45425797 -0.55291986 0
0.66409492 0.47611427 -0.59235907 0
0.82152939 0.48232651 -0.63004637 0
0.97366714 0.48679161 -0.66200924 0
-0.62485695 0.44866943 -0.24870348 0
-0.55755615 0.46414185 -0.26227999 0
-0.46592522 0.47740746 -0.28986168 0
-0.36380386 0.48767281 -0.31922531 0
-0.27570343 0.49871063 -0.33758116 0
0.59562111 -0.20807076 -0.51572895 0
0.56896019 -0.094923019 -0.47230291 0
0.50583649 -0.051288605 -0.47265244 0
0.55267143 -0.078065872 -0.49892187 0
0.50821495 0.095001221 -0.43600941 0
0.5441227 0.04858017 -0.46965313 0
0.47690964 0.15523338 -0.43848705 0
0.40406418 0.29010201 -0.3770957 0
0.44905281 0.23783493 -0.40788889 0
0.50310707 0.22175217 -0.48195696 0
0.38077164 0.3250103 -0.36555767 0
0.44714928 0.34806442 -0.42488623 0
0.37965393 0.42715263 -0.36630297 0
0.413908 0.42045784 -0.38853073 0
-0.66357994 0.47857094 -0.090978622 0
0.44223595 0.26502419 -0.36307669 0
0.3801136 0.34129906 -0.3345685 0
0.42531204 0.32502174 -0.32650661 0
0.38648796 0.45295143 -0.3072958 0
0.4175415 0.42725372 -0.3320775 0
-0.67241859 0.46129799 -0.059188843 0
