# .PCD v0.7 - Point Cloud Data file format
VERSION 0.7
FIELDS x y z intensity
SIZE 4 4 4 4
TYPE F F F F
COUNT 1 1 1 1
WIDTH 1170
HEIGHT 1
VIEWPOINT 0 0 0 1 0 0 0
POINTS 1170
DATA ascii
-0.927248 -0.49045467 -0.34852719 0
0.96556664 0.46214676 -0.28735805 0
0.90248299 -0.43513393 -0.48833418 0
0.99233627 -0.45543194 -0.48582363 0
0.82499886 -0.026843071 -0.37597442 0
0.8500042 0.058368683 -0.36542845 0
0.93191147 0.058303833 -0.36343837 0
0.94984245 0.16230679 -0.36841369 0
0.88158226 0.28087234 -0.33810568 0
0.95013428 0.26126766 -0.34651589 0
0.81230164 0.40133953 -0.30153608 0
0.87445831 0.35488319 -0.31754899 0
0.9589386 0.37152386 -0.31462836 0
0.78811264 0.45973969 -0.28683925 0
0.89769363 0.45932293 -0.29143333 0
0.99049187 0.43630409 -0.29820776 0
0.021656036 -0.41856289 -0.23095798 0
0.082860947 -0.36481762 -0.23547053 0
-0.042640686 -0.47809505 -0.21114397 0
0.0089054108 -0.42446136 -0.20241666 0
0.040473938 -0.41633129 -0.2239573 0
0.84828949 -0.49744797 -0.51973248 0
0.80967331 -0.44073677 -0.51758838 0
0.89768791 -0.43229389 -0.50003886 0
0.82320023 -0.31803322 -0.4962883 0
0.93250465 -0.33917522 -0.50091863 0
0.83220673 -0.22659588 -0.47455049 0
0.94126511 -0.21288395 -0.47507048 0
0.83816528 -0.12436867 -0.45094156 0
0.92572784 -0.1352396 -0.45713568 0
0.67745209 -0.035210609 -0.38126755 0
0.73880959 -0.03457737 -0.39288521 0
0.87377739 -0.018091202 -0.40536332 0
0.97333717 -0.055710793 -0.43940783 0
0.79826736 0.073509216 -0.38282347 0
0.86359024 0.057373047 -0.37139463 0
0.96042633 0.033338547 -0.36743569 0
0.78970528 0.19674015 -0.36829162 0
0.89984512 0.1638031 -0.37667727 0
0.98659706 0.15546608 -0.3660686 0
0.75385475 0.31494331 -0.33622646 0
0.8068161 0.27148724 -0.34862065 0
0.89952087 0.26876831 -0.35096812 0
0.98814011 0.26072311 -0.34984422 0
0.72243881 0.38259888 -0.31672668 0
0.81561661 0.3667202 -0.32386684 0
0.91687965 0.36099625 -0.32121015 0
0.73739052 0.47472382 -0.29091167 0
0.82868767 0.46613884 -0.292799 0
0.92002869 0.45116329 -0.29422307 0
-0.14109993 -0.49760818 -0.26060295 0
-0.10437012 -0.4614296 -0.25104427 0
-0.054065704 -0.40366745 -0.24973822 0
0.023386002 -0.38946342 -0.25516462 0
0.10775948 -0.36019897 -0.27315354 0
-0.064256668 -0.48048401 -0.22516847 0
-0.0044517517 -0.47105598 -0.20708632 0
0.020662308 -0.40885258 -0.20976877 0
0.53016281 -0.34569931 -0.47806096 0
0.61692429 -0.37377071 -0.48923182 0
0.71655464 -0.38735294 -0.50100994 0
0.86133575 -0.43598652 -0.50036454 0
0.91627693 -0.42896366 -0.49559975 0
0.55143929 -0.28115082 -0.4661305 0
0.64093018 -0.28854752 -0.47330046 0
0.73850632 -0.29177284 -0.48061895 0
0.84258461 -0.31210995 -0.49426126 0
0.93357468 -0.32812214 -0.50068951 0
0.5532074 -0.17819118 -0.43933606 0
0.66422844 -0.18799305 -0.45282555 0
0.76637459 -0.16295815 -0.45496368 0
0.85573006 -0.20229626 -0.46727157 0
0.94968224 -0.21751404 -0.47531247 0
0.46684456 -0.068602562 -0.38433599 0
0.53818893 -0.099495888 -0.40363073 0
0.65674591 -0.088248253 -0.41416097 0
0.76511192 -0.11680794 -0.44190621 0
0.86064911 -0.11541939 -0.44635439 0
0.94060516 -0.15735722 -0.45582938 0
0.57941818 -0.0069150925 -0.39668465 0
0.65995598 0.0064659119 -0.39295673 0
0.76395416 -0.020817757 -0.3975811 0
0.89834404 -0.025979996 -0.41372848 0
0.96229553 -0.044968605 -0.43541169 0
0.68431282 0.087948799 -0.39494777 0
0.78544426 0.078882217 -0.38574481 0
0.85196304 0.06315136 -0.37484837 0
0.97013092 0.064612389 -0.3577466 0
0.61666107 0.2049427 -0.36862993 0
0.67802238 0.18072891 -0.37026405 0
0.78810883 0.18051529 -0.37157559 0
0.89626694 0.16134357 -0.37666035 0
0.98916817 0.15078163 -0.36813736 0
0.59337044 0.30763054 -0.33691978 0
0.69804955 0.28648853 -0.34394622 0
0.79695702 0.27514839 -0.34252262 0
0.90865517 0.26053905 -0.34642029 0
0.9788208 0.24896336 -0.35073256 0
0.54714584 0.40770721 -0.31099153 0
0.60327721 0.37722492 -0.31823802 0
0.74031258 0.39970779 -0.31355762 0
0.82072639 0.38493919 -0.31417012 0
0.89811897 0.33543205 -0.32516408 0
0.62108231 0.47801304 -0.29089856 0
0.72072601 0.4720068 -0.29537535 0
0.82184982 0.48129559 -0.29028583 0
0.91358566 0.45582771 -0.28962111 0
0.05981636 -0.31735611 -0.32971478 0
0.082740784 -0.33306694 -0.32367015 0
0.1205883 -0.28728104 -0.3197906 0
-0.17240524 -0.46031666 -0.28519416 0
-0.10583687 -0.44150066 -0.25959921 0
-0.13593292 -0.39556026 -0.29148817 0
-0.067481995 -0.39116383 -0.27995682 0
0.023275375 -0.3765707 -0.27910686 0
0.1087513 -0.36436653 -0.27856255 0
0.13250351 -0.32447433 -0.3059814 0
-0.078308105 -0.48454189 -0.22795081 0
-0.0066051483 -0.48095322 -0.20578432 0
-0.043655396 -0.41682148 -0.22529984 0
0.0057430267 -0.42068863 -0.21601987 0
0.73296547 -0.38837814 -0.50038099 0
0.87127876 -0.47806263 -0.48986816 0
0.95025063 -0.45414448 -0.50152612 0
0.38015366 -0.27397823 -0.46277928 0
0.46578789 -0.30332088 -0.46777964 0
0.54923439 -0.28875542 -0.46823883 0
0.63189888 -0.32612228 -0.48154855 0
0.74930763 -0.32312393 -0.4871347 0
0.87805748 -0.33256817 -0.49948955 0
0.97750664 -0.36585999 -0.50748277 0
0.36030197 -0.19945621 -0.45110464 0
0.45975876 -0.18417454 -0.4452858 0
0.55535507 -0.20214748 -0.43685341 0
0.65258408 -0.23243332 -0.46156216 0
0.76969147 -0.21955681 -0.46523762 0
0.89495277 -0.21776772 -0.47258663 0
0.98626709 -0.29029083 -0.48862314 0
0.31989861 -0.095837593 -0.40604734 0
0.3857193 -0.061807632 -0.40211129 0
0.5067749 -0.1139307 -0.40533352 0
0.56459236 -0.10429382 -0.40504122 0
0.78423691 -0.119977 -0.4434371 0
0.90768623 -0.12928295 -0.45367408 0
0.42446518 0.0062236786 -0.41816616 0
0.49279404 -0.01108551 -0.40767264 0
0.58875656 -0.013336182 -0.40135455 0
0.67001915 -0.021141052 -0.39691496 0
0.77558327 -0.021359444 -0.38287568 0
0.91494179 -0.063565254 -0.43950391 0
0.43201256 0.09176445 -0.40066195 0
0.50855064 0.11147881 -0.39244056 0
0.61758041 0.088387489 -0.39928126 0
0.71322441 0.046665192 -0.39811969 0
0.81017494 0.055774689 -0.38463998 0
0.90483475 0.066287994 -0.36975193 0
0.97490501 0.030396461 -0.35914421 0
0.42229843 0.21223164 -0.36733198 0
0.52334976 0.19853115 -0.37050629 0
0.61612701 0.18030357 -0.37186027 0
0.71255493 0.16785717 -0.37464023 0
0.78547287 0.13498688 -0.38333821 0
0.91222954 0.15735054 -0.37922788 0
0.37475967 0.33864117 -0.33239508 0
0.42388344 0.30452633 -0.34101343 0
0.52521133 0.28359699 -0.34562564 0
0.63856697 0.26947498 -0.34610534 0
0.73007774 0.2539711 -0.35132837 0
0.85504913 0.25506687 -0.35225487 0
0.9420948 0.24172401 -0.35256624 0
0.34070206 0.40110016 -0.31191921 0
0.44238663 0.41318607 -0.31010556 0
0.5388298 0.37849045 -0.31904149 0
0.6222477 0.34677887 -0.32942009 0
0.74584198 0.36087418 -0.32066369 0
0.83639145 0.32493591 -0.32545185 0
0.9113121 0.31084728 -0.33085132 0
0.55695343 0.49280739 -0.28761196 0
0.65499687 0.46803188 -0.29433608 0
0.75429344 0.43571091 -0.29909778 0
0.86858177 0.43294621 -0.29685235 0
0.96265984 0.42115307 -0.29952145 0
-0.12630463 -0.37554932 -0.34886146 0
-0.042257309 -0.3470211 -0.3562355 0
0.022171021 -0.34231567 -0.34258389 0
0.007894516 -0.28089619 -0.36477423 0
0.063472748 -0.28007412 -0.35247707 0
0.12801552 -0.26651669 -0.33231306 0
0.38307571 -0.098237991 -0.38096905 0
-0.33312225 -0.46996975 -0.31590796 0
-0.24628067 -0.45839596 -0.31536341 0
-0.16643143 -0.45885181 -0.29047632 0
-0.08823204 -0.43179512 -0.27640724 0
-0.19852638 -0.3808012 -0.3229239 0
-0.13353348 -0.39824677 -0.31152725 0
-0.042425156 -0.39449883 -0.30028152 0
0.052539825 -0.38322544 -0.29192019 0
0.1298275 -0.36108589 -0.29430389 0
0.098852158 -0.32617855 -0.32256436 0
0.12944603 -0.32059383 -0.32019162 0
-0.12117386 -0.49862576 -0.25168562 0
-0.066558838 -0.48576927 -0.22686124 0
0.021352768 -0.48908806 -0.20067215 0
-0.02649498 -0.4285326 -0.2272234 0
0.028720856 -0.41638184 -0.22696066 0
0.1486702 -0.2428751 -0.44999528 0
0.3061676 -0.2337923 -0.45495343 0
0.42637444 -0.2572794 -0.46171308 0
0.51356888 -0.31921577 -0.47154093 0
0.62748146 -0.3117466 -0.47604799 0
0.74892044 -0.35849571 -0.49497938 0
0.75682831 -0.32266426 -0.4858346 0
0.89135933 -0.34367466 -0.50361133 0
0.22799492 -0.16252995 -0.4408505 0
0.31843758 -0.18028164 -0.44255352 0
0.4327774 -0.18528938 -0.44843173 0
0.54133034 -0.20480824 -0.44250178 0
0.65434265 -0.22411346 -0.45862699 0
0.77787971 -0.23758316 -0.46770597 0
0.91402626 -0.2339077 -0.47674775 0
0.22230721 -0.069103241 -0.42522717 0
0.31676102 -0.088167191 -0.4117105 0
0.43328285 -0.09828186 -0.40550184 0
0.52586365 -0.094277382 -0.40036249 0
0.79836082 -0.13495636 -0.44520259 0
0.9464283 -0.10021591 -0.450598 0
0.26429558 0.044238091 -0.40954208 0
0.34007072 0.00060939789 -0.41486073 0
0.45066071 0.0026483536 -0.41135907 0
0.55127144 0.0085954666 -0.41053796 0
0.66031647 -0.022421837 -0.39191675 0
0.72225761 0.0045614243 -0.38161922 0
0.93392944 -0.077860832 -0.43914914 0
0.26580238 0.1381731 -0.38740134 0
0.33584213 0.13574409 -0.38754368 0
0.4455986 0.11642361 -0.39457703 0
0.55345535 0.10500717 -0.39382291 0
0.66339493 0.066734314 -0.40291715 0
0.75772285 0.036955833 -0.39239311 0
0.83588028 0.042546272 -0.37938428 0
0.94245338 0.052606583 -0.36551428 0
0.27536392 0.23876286 -0.36041594 0
0.3595047 0.22335911 -0.36401105 0
0.44827271 0.1779089 -0.37522721 0
0.54554749 0.16532993 -0.3776443 0
0.63026237 0.18616295 -0.37176204 0
0.75063705 0.15583706 -0.37966585 0
0.87490654 0.15050411 -0.37744522 0
0.9134903 0.12486267 -0.38601279 0
0.20468712 0.3062849 -0.33307433 0
0.27418137 0.30578804 -0.3422327 0
0.37556839 0.30429554 -0.34098363 0
0.48202324 0.28891277 -0.34508252 0
0.5796299 0.27696323 -0.34763145 0
0.6993084 0.25800037 -0.34969187 0
0.78872108 0.25736904 -0.34777617 0
0.88521576 0.26269531 -0.34735489 0
0.14123344 0.46728897 -0.28452873 0
0.18897247 0.40053463 -0.30949616 0
0.2791481 0.41323185 -0.308321 0
0.37929916 0.41948128 -0.3103745 0
0.4756031 0.3984127 -0.31537342 0
0.58576012 0.39113331 -0.31008244 0
0.67412758 0.35014915 -0.32342529 0
0.776577 0.38137054 -0.31255221 0
0.85294724 0.3315258 -0.32449818 0
0.97002411 0.34660816 -0.32092857 0
0.29791641 0.49618149 -0.2824204 0
0.49645996 0.4859972 -0.28592777 0
0.60707474 0.49388027 -0.28537345 0
0.70470238 0.46478558 -0.28978348 0
0.82883072 0.47620106 -0.28899479 0
0.93157387 0.45099163 -0.2903049 0
0.990345 0.41697121 -0.29623985 0
-0.20480919 -0.40327835 -0.37293172 0
-0.1988163 -0.3833971 -0.38215899 0
-0.11741829 -0.34791183 -0.37502098 0
-0.017272949 -0.32997227 -0.35392714 0
0.91664696 -0.46539688 -0.46493316 0
-0.067409515 -0.28172588 -0.38235927 0
0.011125565 -0.26396275 -0.37411523 0
0.08588028 -0.28260136 -0.34938955 0
0.363657 -0.12674522 -0.3793447 0
-0.37857628 -0.43066311 -0.34298921 0
-0.31607819 -0.44778347 -0.31926847 0
-0.20083237 -0.46829987 -0.30625534 0
-0.14347458 -0.45138741 -0.28593159 0
-0.045595169 -0.43808365 -0.2955265 0
-0.30226898 -0.37841606 -0.329319 0
-0.18618202 -0.39078903 -0.32996631 0
-0.10128784 -0.38598251 -0.31546545 0
-0.0051002502 -0.3816309 -0.29606438 0
0.10426903 -0.36091042 -0.29051781 0
0.091403961 -0.32453728 -0.32596779 0
0.16674042 -0.34518719 -0.29987049 0
-0.10175323 -0.48779774 -0.24950337 0
-0.029085159 -0.49030972 -0.21636605 0
0.05081749 -0.45561504 -0.2517066 0
-0.064207077 -0.41332912 -0.24694467 0
0.00099945068 -0.43525982 -0.2189579 0
0.072929382 -0.41951561 -0.23332453 0
-0.064777374 -0.19869995 -0.42498159 0
0.26373672 -0.22908783 -0.45789075 0
0.35350227 -0.24212456 -0.4626658 0
0.44984627 -0.24418831 -0.46618724 0
0.53315353 -0.27931595 -0.47022891 0
0.63985062 -0.29709911 -0.48026633 0
0.80620003 -0.31320286 -0.49457598 0
0.95768738 -0.35978508 -0.51263261 0
-0.041679382 -0.17478848 -0.43548656 0
0.056594849 -0.12334061 -0.43825507 0
0.15535164 -0.12908554 -0.44162202 0
0.23860931 -0.15890789 -0.44642329 0
0.34255409 -0.14193249 -0.4393301 0
0.44379044 -0.18001747 -0.45424008 0
0.55316162 -0.19180775 -0.43966866 0
0.66629982 -0.21721554 -0.46346879 0
0.83142281 -0.23422813 -0.47816539 0
0.98828888 -0.24153996 -0.48548603 0
0.054664612 -0.033604622 -0.42576551 0
0.16478539 -0.032526016 -0.42679453 0
0.26670074 -0.056285858 -0.43000102 0
0.33474541 -0.070999146 -0.41348004 0
0.47035027 -0.1317606 -0.43901706 0
0.53149986 -0.10430431 -0.41234875 0
0.86244392 -0.11152363 -0.45066404 0
0.086986542 0.05342865 -0.41135216 0
0.18175316 0.055716515 -0.41273761 0
0.27934074 0.046392441 -0.41427565 0
0.37791061 0.021075249 -0.41908598 0
0.46319389 -0.016724586 -0.41065693 0
0.56862259 0.010458946 -0.40229583 0
0.67952538 0.012402534 -0.39145875 0
0.77848053 -0.028204918 -0.39688301 0
0.10142136 0.17243958 -0.38596749 0
0.18790627 0.1795578 -0.38897657 0
0.28250885 0.14617729 -0.39216232 0
0.39878082 0.14788818 -0.39296651 0
0.48307991 0.11273289 -0.39959645 0
0.58385277 0.074917793 -0.41114259 0
0.67782211 0.09207058 -0.39934897 0
0.79333878 0.065119743 -0.38944602 0
0.90555 0.066090584 -0.3693738 0
0.11001015 0.28711987 -0.35318947 0
0.19320488 0.24891472 -0.36519074 0
0.27048492 0.23295212 -0.36792397 0
0.38332558 0.23554611 -0.36741972 0
0.47353554 0.23547268 -0.36743331 0
0.56736183 0.17359543 -0.38239956 0
0.72498703 0.18644905 -0.38332629 0
0.75981522 0.16767406 -0.38335967 0
0.89498711 0.14224339 -0.38241625 0
0.048875809 0.3805151 -0.32337642 0
0.089668274 0.35519123 -0.33355999 0
0.2127018 0.35418129 -0.33480692 0
0.3080101 0.31242943 -0.34567952 0
0.40013123 0.33828354 -0.34902239 0
0.51021194 0.32087231 -0.34272671 0
0.61935806 0.28112125 -0.35131645 0
0.71104431 0.27857399 -0.35332632 0
0.84472275 0.31147194 -0.34076428 0
0.89408112 0.27480602 -0.35073638 0
0.98576927 0.25700569 -0.3563416 0
0.024679184 0.43316841 -0.30585885 0
0.11869621 0.44208241 -0.306247 0
0.19372559 0.45275784 -0.30849671 0
0.31904411 0.41400528 -0.31536674 0
0.42698288 0.40664101 -0.3226862 0
0.52324677 0.43230152 -0.31203818 0
0.61492729 0.41108704 -0.31488299 0
0.70421028 0.3572464 -0.32508659 0
0.82607651 0.38684177 -0.31942582 0
0.94036484 0.38257504 -0.31694603 0
0.59267807 0.4839735 -0.29375005 0
0.69947243 0.46654224 -0.30058479 0
0.79928398 0.45929146 -0.29693127 0
0.92285347 0.4556036 -0.29706311 0
-0.47854614 -0.46434402 -0.3823204 0
-0.45117569 -0.41350555 -0.38428259 0
-0.4073658 -0.38729286 -0.37566447 0
-0.21232224 -0.39314079 -0.39002848 0
-0.37672234 -0.34877014 -0.37922168 0
-0.1670208 -0.32723427 -0.40590167 0
-0.074825287 -0.32382298 -0.3706069 0
-0.13451385 -0.25439548 -0.40977311 0
-0.059827805 -0.24327374 -0.39257908 0
0.025894165 -0.25738049 -0.37252283 0
0.093696594 -0.24337482 -0.35195947 0
0.038709641 -0.1843996 -0.40461922 0
0.4200573 -0.068216324 -0.386518 0
-0.74839211 -0.48947334 -0.33718991 0
-0.69025612 -0.48992157 -0.33040404 0
-0.60762215 -0.49411106 -0.32878447 0
-0.65448761 -0.42591953 -0.33573627 0
-0.57391548 -0.40564537 -0.35309076 0
-0.37362099 -0.42510414 -0.34333897 0
-0.2813797 -0.44784737 -0.31622839 0
-0.1780014 -0.44646072 -0.30329037 0
-0.3512764 -0.34322166 -0.34114408 0
-0.15301514 -0.3806715 -0.33035564 0
-0.073816299 -0.38230801 -0.30575347 0
0.033712387 -0.35880566 -0.30369616 0
0.11296844 -0.33529377 -0.32368994 0
0.124403 -0.31179619 -0.30663276 0
-0.086969376 -0.48620319 -0.24173474 0
0.0075054169 -0.48405075 -0.20940924 0
-0.054334641 -0.41870594 -0.24488425 0
0.022481918 -0.40471077 -0.23278642 0
-0.23880768 -0.31630802 -0.45845175 0
-0.18080902 -0.28733253 -0.43819571 0
-0.2046833 -0.2390089 -0.446666 0
-0.14474297 -0.23519421 -0.43257976 0
0.42726135 -0.30651093 -0.46458793 0
0.54768372 -0.30721283 -0.4673562 0
0.71348763 -0.32500172 -0.47979093 0
0.90835381 -0.34110641 -0.49765205 0
-0.17430687 -0.15832901 -0.43696046 0
-0.12574577 -0.13979912 -0.42761421 0
-0.0024299622 -0.16374493 -0.43216538 0
0.099538803 -0.1487093 -0.4337132 0
0.20418549 -0.1584301 -0.43731356 0
0.28629112 -0.18829632 -0.43415976 0
0.39489746 -0.18924904 -0.44713068 0
0.4790287 -0.19568253 -0.43919063 0
0.59072876 -0.23937798 -0.45720744 0
0.74909973 -0.24597263 -0.464885 0
0.94587898 -0.23927689 -0.47538018 0
-0.084611893 -0.043992043 -0.41504645 0
-0.0011882782 -0.054379463 -0.41905451 0
0.096401215 -0.050329208 -0.41949177 0
0.19663811 -0.064700127 -0.42309356 0
0.30915642 -0.090292931 -0.41997051 0
0.41126251 -0.058643341 -0.39238596 0
0.49445915 -0.11292076 -0.39863372 0
0.58309746 -0.12574577 -0.39782548 0
0.77890968 -0.17657375 -0.45296049 0
0.96132469 -0.18343925 -0.46080518 0
-0.071456909 0.060922623 -0.40390635 0
0.013185501 0.053548813 -0.40308857 0
0.10288811 0.039094925 -0.40608311 0
0.21858406 0.035756111 -0.40836811 0
0.30053711 0.011134148 -0.4130857 0
0.40382767 -0.0071058273 -0.41248012 0
0.50847435 0.0079021454 -0.40912795 0
0.60993958 -0.015398979 -0.39743066 0
0.72256851 -0.0038661957 -0.37893653 0
0.81637573 -0.090046883 -0.43568516 0
0.99411583 -0.082046509 -0.44064045 0
-0.05532074 0.14846134 -0.3841157 0
0.02167511 0.14147854 -0.37870097 0
0.10693169 0.14348412 -0.38454652 0
0.200037 0.11721897 -0.39090776 0
0.32836533 0.1020813 -0.39474392 0
0.4223938 0.095954895 -0.39615655 0
0.50748444 0.088386536 -0.3926785 0
0.61780167 0.083198547 -0.39900875 0
0.74274063 0.069690704 -0.39401579 0
0.82564735 0.065402985 -0.38077855 0
0.87579346 0.054066658 -0.36701584 0
-0.069690704 0.25668907 -0.35216308 0
0.025320053 0.23126411 -0.35607719 0
0.15382957 0.23405457 -0.35831976 0
0.22750092 0.2277565 -0.35915494 0
0.32713509 0.20235634 -0.36819482 0
0.41278076 0.18511581 -0.36949134 0
0.51391983 0.1961298 -0.36732268 0
0.60834122 0.16810894 -0.3742342 0
0.73835945 0.18057823 -0.37358189 0
0.85595322 0.12942696 -0.38172483 0
0.96629333 0.14273739 -0.36562634 0
-0.10077858 0.39415073 -0.31058097 0
-0.05264473 0.35328674 -0.32337022 0
0.044042587 0.34755993 -0.32542205 0
0.14045715 0.35097599 -0.32644773 0
0.23406219 0.35562992 -0.33054471 0
0.3175087 0.29672146 -0.34193802 0
0.42768669 0.29936409 -0.33831716 0
0.53716469 0.29205418 -0.34093022 0
0.59557343 0.24224186 -0.35141277 0
0.70966911 0.27023888 -0.3424468 0
0.85092354 0.24204826 -0.35288835 0
0.97285461 0.25260735 -0.34560704 0
-0.12085915 0.44216347 -0.29441023 0
-0.044389725 0.44309616 -0.29532337 0
0.0280056 0.44992924 -0.29354787 0
0.13389587 0.41718388 -0.30212831 0
0.24520302 0.39442158 -0.31134057 0
0.36196709 0.378335 -0.31706119 0
0.48928642 0.3969326 -0.31135511 0
0.57946396 0.36700535 -0.31658673 0
0.69376183 0.40433311 -0.30582523 0
0.70713043 0.37102413 -0.31765795 0
0.8213768 0.33672619 -0.32145929 0
0.95132256 0.34466362 -0.31780982 0
0.37120247 0.49005604 -0.28591371 0
0.57862663 0.48082352 -0.29051018 0
0.68542862 0.47600651 -0.28719902 0
0.80066872 0.4517107 -0.28874326 0
0.8084259 0.39878941 -0.30308628 0
0.93292046 0.44618988 -0.28954792 0
-0.65064621 -0.36931419 -0.36235857 0
-0.55770874 -0.35992718 -0.37119436 0
-0.4166317 -0.39605522 -0.38584828 0
-0.38845825 -0.37984657 -0.36038589 0
-0.52441978 -0.35262108 -0.38054514 0
-0.4018364 -0.34511566 -0.42344427 0
-0.37761879 -0.35098267 -0.39514422 0
-0.20829391 -0.36179161 -0.42393994 0
-0.15202713 -0.33531666 -0.39351249 0
-0.05298996 -0.33207798 -0.35913897 0
-0.1064949 -0.24763775 -0.40232515 0
-0.03055191 -0.26613426 -0.38179231 0
0.059049606 -0.26810455 -0.3568821 0
0.036483765 -0.21460247 -0.39177465 0
0.33558846 -0.11352634 -0.38933086 0
-0.84893036 -0.4924469 -0.34490657 0
-0.75309372 -0.49047852 -0.33413458 0
-0.8149147 -0.43059826 -0.34350705 0
-0.74828339 -0.40355682 -0.33978486 0
-0.65085602 -0.41182137 -0.3378408 0
-0.54217911 -0.42430019 -0.35932565 0
-0.41186714 -0.43619537 -0.35935068 0
-0.35652161 -0.44097042 -0.33075237 0
-0.24575233 -0.4745636 -0.30720592 0
-0.15568924 -0.45698071 -0.29525423 0
-0.34062958 -0.36978149 -0.3347342 0
-0.2789917 -0.39855957 -0.32295513 0
-0.12918091 -0.39680099 -0.32193947 0
-0.02573204 -0.38085938 -0.31061625 0
0.054334641 -0.37587452 -0.28907943 0
0.087312698 -0.33797741 -0.30444312 0
0.14565849 -0.32588387 -0.31161571 0
-0.13350677 -0.49262905 -0.26474619 0
0.0081825256 -0.48238564 -0.19536519 0
-0.041524887 -0.43078518 -0.23813915 0
0.045862198 -0.41863537 -0.21879315 0
-0.44416428 -0.35919762 -0.47037458 0
-0.49782372 -0.34194946 -0.46969819 0
-0.41524506 -0.29246998 -0.46205425 0
-0.31649208 -0.33394146 -0.46539783 0
-0.24393272 -0.31328583 -0.45863438 0
-0.39894485 -0.20791149 -0.45035362 0
-0.29586029 -0.21867847 -0.44919419 0
-0.18655396 -0.22603416 -0.4434309 0
0.35530472 -0.25386715 -0.45778632 0
0.48017693 -0.26522255 -0.46218967 0
0.59594917 -0.30973148 -0.47058487 0
0.78582573 -0.33335304 -0.48988295 0
0.99633598 -0.37810421 -0.50016379 0
-0.35383034 -0.13522816 -0.43818235 0
-0.29658508 -0.11963463 -0.43495774 0
-0.18841934 -0.13421059 -0.43501163 0
-0.13652992 -0.14461994 -0.42829561 0
-0.0083847046 -0.15765953 -0.4313643 0
0.091487885 -0.15003586 -0.4359684 0
0.20291519 -0.18844032 -0.4427433 0
0.27600861 -0.17599678 -0.4441328 0
0.40465355 -0.17845631 -0.4488287 0
0.47299957 -0.20109177 -0.44013047 0
0.63644218 -0.24610806 -0.46011615 0
0.8572464 -0.21588898 -0.46976757 0
-0.28512955 -0.042822838 -0.42077088 0
-0.18434906 -0.020255089 -0.41668415 0
-0.081525803 -0.059184074 -0.42067385 0
0.019033432 -0.047803879 -0.41950274 0
0.1368885 -0.089377403 -0.42650771 0
0.23468971 -0.085695267 -0.42903924 0
0.3139267 -0.08309269 -0.41799021 0
0.43346977 -0.14282703 -0.44295692 0
0.68006706 -0.18371582 -0.45158553 0
0.88926315 -0.1669035 -0.45707488 0
-0.26283073 0.066256523 -0.40127993 0
-0.18502998 0.072559357 -0.40196967 0
-0.0789814 0.06427002 -0.4020524 0
0.030744553 0.049612999 -0.40499592 0
0.11239243 0.032779694 -0.41031408 0
0.18838882 -0.010230064 -0.41546154 0
0.3092041 0.019008636 -0.41350818 0
0.41749191 -0.031113625 -0.41628981 0
0.53785133 -0.032110214 -0.40205789 0
0.63366127 -0.0046787262 -0.39995074 0
0.82784081 -0.022688866 -0.38966227 0
0.92904854 -0.091105461 -0.4455018 0
-0.24807549 0.15895462 -0.37894964 0
-0.16541481 0.16168976 -0.38216209 0
-0.074333191 0.14947605 -0.38252854 0
0.052686691 0.11347198 -0.39284396 0
0.15010643 0.14173031 -0.38736367 0
0.24308968 0.11677456 -0.39388084 0
0.34017754 0.083299637 -0.40193057 0
0.43366814 0.078490257 -0.40264702 0
0.55739212 0.088463783 -0.39892077 0
0.68873215 0.10714531 -0.39340234 0
0.71618271 0.029746056 -0.39360833 0
0.83377266 0.023053169 -0.37364244 0
-0.26070213 0.26149559 -0.34684992 0
-0.16103745 0.25181007 -0.35249662 0
-0.049358368 0.2353096 -0.35919356 0
0.053943634 0.23076344 -0.36086702 0
0.14139748 0.23477364 -0.35739708 0
0.23784447 0.21840382 -0.36236191 0
0.3446312 0.19254303 -0.37189341 0
0.4271183 0.15139103 -0.37717319 0
0.55322075 0.16557217 -0.37512922 0
0.67226791 0.1520462 -0.37438107 0
0.81778145 0.14008617 -0.38051748 0
0.92965889 0.097475052 -0.37541628 0
-0.23654556 0.37988663 -0.31578422 0
-0.13791466 0.35640049 -0.32345533 0
-0.044961929 0.3451767 -0.32373238 0
0.025205612 0.33110905 -0.32483459 0
0.13783264 0.31778336 -0.3346777 0
0.25268364 0.33411503 -0.3369 0
0.34095764 0.28996468 -0.34365869 0
0.43635368 0.28196049 -0.34484696 0
0.55920601 0.26974583 -0.34829307 0
0.66902924 0.21955967 -0.35487938 0
0.79810524 0.24101257 -0.34596014 0
0.94507599 0.21911049 -0.35466313 0
-0.28363037 0.48146629 -0.2865262 0
-0.22179222 0.46648979 -0.29381037 0
-0.13054657 0.46472168 -0.2862246 0
-0.031553268 0.43743706 -0.29748011 0
0.076908112 0.41932869 -0.30503297 0
0.13410378 0.38858509 -0.31586432 0
0.25964737 0.40830994 -0.31196427 0
0.34499168 0.39132118 -0.31884074 0
0.43656921 0.37480259 -0.32057428 0
0.55206299 0.34842396 -0.32452393 0
0.67850113 0.33877373 -0.32628465 0
0.78642082 0.35564041 -0.31179237 0
0.9381218 0.32510376 -0.32476783 0
0.1096077 0.49347305 -0.28329897 0
0.20628738 0.49999332 -0.2816174 0
0.3151741 0.49123955 -0.28514123 0
0.41262817 0.48408508 -0.28582406 0
0.44095421 0.43730831 -0.30629873 0
0.55196953 0.47984791 -0.291219 0
0.65722466 0.42481327 -0.29633164 0
0.79865837 0.43665695 -0.29537702 0
0.87576866 0.39424229 -0.30986428 0
-0.90754318 -0.46225929 -0.4038012 0
-0.87173462 -0.44359016 -0.39847469 0
-0.81888008 -0.39833641 -0.3874867 0
-0.71242142 -0.38119221 -0.39945531 0
-0.57628822 -0.36863995 -0.41738153 0
-0.52696037 -0.39009666 -0.46590233 0
-0.42871666 -0.39365673 -0.41467738 0
-0.21768379 -0.40810299 -0.40549016 0
-0.63319397 -0.35184193 -0.38652134 0
-0.41694832 -0.36149025 -0.42233562 0
-0.21481323 -0.35245991 -0.4322176 0
-0.13119125 -0.34612656 -0.38221169 0
-0.17555809 -0.28638744 -0.42734408 0
-0.11393356 -0.25886536 -0.40281606 0
-0.0070915222 -0.27313519 -0.37901735 0
0.083129883 -0.26882839 -0.36100197 0
0.32312012 -0.13075066 -0.38744259 0
0.39357376 -0.10827637 -0.39272761 0
0.52805138 -0.16366196 -0.41155028 0
0.48848915 -0.078918457 -0.38282299 0
-0.90772629 -0.49043083 -0.37591505 0
-0.82811546 -0.41014957 -0.35838223 0
-0.73781395 -0.41148186 -0.34262919 0
-0.64693642 -0.42571259 -0.34594679 0
-0.50971222 -0.44518948 -0.3684094 0
-0.41713333 -0.44762707 -0.35838842 0
-0.35037994 -0.47373199 -0.32201958 0
-0.20821953 -0.44801617 -0.31831098 0
-0.38437271 -0.37347984 -0.35691905 0
-0.33476257 -0.3959589 -0.32442641 0
-0.23031998 -0.39525223 -0.34552836 0
-0.12071037 -0.40182781 -0.32264233 0
-0.014680862 -0.38077068 -0.31761909 0
0.090076447 -0.34331036 -0.31145072 0
0.16912651 -0.32617378 -0.30632615 0
-0.12717819 -0.43916702 -0.27668333 0
-0.018821716 -0.42996025 -0.23404074 0
0.036960602 -0.41834068 -0.23886728 0
-0.60256958 -0.27319241 -0.46492004 0
-0.47496796 -0.28662777 -0.46527624 0
-0.39804649 -0.28449535 -0.46328211 0
-0.29573059 -0.29714775 -0.46361303 0
-0.22152328 -0.30096149 -0.46097136 0
-0.5527668 -0.20020485 -0.45135498 0
-0.4822998 -0.19665337 -0.45102453 0
-0.37565613 -0.19818687 -0.45009184 0
-0.28568649 -0.2299366 -0.45240235 0
-0.19496727 -0.22945499 -0.44887567 0
0.44304276 -0.26172829 -0.46407533 0
0.81802559 -0.30630779 -0.49002409 0
-0.5290966 -0.11659527 -0.43734598 0
-0.46897888 -0.092342377 -0.43199301 0
-0.37043381 -0.10182667 -0.43430948 0
-0.25622368 -0.10687637 -0.43545198 0
-0.14400291 -0.13616753 -0.43277574 0
-0.067489624 -0.15212917 -0.43132114 0
-0.0042057037 -0.18405914 -0.43340802 0
0.12669945 -0.13249016 -0.43689823 0
0.22673988 -0.16539192 -0.44442463 0
0.34337234 -0.19154549 -0.45272398 0
0.45725441 -0.22995567 -0.45481372 0
0.5225029 -0.17310524 -0.42436624 0
0.61312866 -0.22017384 -0.46124935 0
0.86458588 -0.25589466 -0.4813776 0
-0.44438744 -0.0029220581 -0.41559744 0
-0.34835052 -0.014266968 -0.41785669 0
-0.24309349 -0.041810989 -0.42363214 0
-0.15580177 -0.028719902 -0.41911912 0
-0.057571411 -0.028529167 -0.41884351 0
0.046585083 -0.061097145 -0.425951 0
0.1409893 -0.05706501 -0.42566729 0
0.28624153 -0.096372604 -0.43131447 0
0.34226799 -0.092859268 -0.40501928 0
0.43749619 -0.14587688 -0.44106054 0
0.55105019 -0.11285496 -0.41058683 0
0.93430519 -0.16466618 -0.46542239 0
-0.4128685 0.096686363 -0.39806199 0
-0.33822632 0.095707893 -0.39899826 0
-0.24088287 0.08191967 -0.40271759 0
-0.13009644 0.089123726 -0.40180874 0
-0.0081119537 0.084280014 -0.40197039 0
0.065385818 0.0483675 -0.40891027 0
0.15153694 0.016703606 -0.41422725 0
0.2284832 -0.016674995 -0.4202497 0
0.37284279 0.0086774826 -0.41508365 0
0.45745659 -0.018294334 -0.41433263 0
0.55973053 -0.036047935 -0.39800763 0
0.65229988 -0.0026416779 -0.40290952 0
0.97965622 -0.092096329 -0.44427538 0
-0.3951931 0.18008232 -0.37644649 0
-0.31844139 0.19858456 -0.37163687 0
-0.21564484 0.15935612 -0.38460064 0
-0.12246323 0.16862679 -0.38278461 0
0.001745224 0.13343143 -0.39156103 0
0.10400009 0.1443243 -0.38700867 0
0.20060349 0.096974373 -0.40001225 0
0.292202 0.090489388 -0.39826155 0
0.43694115 0.094266891 -0.40381718 0
0.5628376 0.080878258 -0.4044733 0
0.69892502 0.0725317 -0.40109301 0
0.77566719 0.050837517 -0.3843019 0
0.87717628 0.044639587 -0.36813951 0
-0.39374924 0.29432011 -0.34333873 0
-0.33032608 0.25771141 -0.34891939 0
-0.21039963 0.25454807 -0.35450506 0
-0.088565826 0.24460793 -0.35678124 0
0.0041332245 0.2345829 -0.3581953 0
0.1104908 0.21873856 -0.36530733 0
0.21482277 0.18606377 -0.37576962 0
0.31200981 0.17083359 -0.37875795 0
0.44780922 0.18170834 -0.37792301 0
0.57472038 0.19121647 -0.37114596 0
0.71088219 0.1599617 -0.37778306 0
0.86285591 0.15716267 -0.38187075 0
0.94081879 0.11195564 -0.37504959 0
-0.39548683 0.40197754 -0.31345201 0
-0.30192757 0.37933064 -0.3190279 0
-0.19423485 0.37576485 -0.32125235 0
-0.088222504 0.35841179 -0.32420039 0
0.01199913 0.34786606 -0.32864666 0
0.11507225 0.33368015 -0.33323884 0
0.23200989 0.30918884 -0.34426832 0
0.32923317 0.29259491 -0.34683657 0
0.44481087 0.3168602 -0.3315711 0
0.46069527 0.29580975 -0.34592485 0
0.58752251 0.27551746 -0.34893513 0
0.72081757 0.24580383 -0.35514402 0
0.87355423 0.25403404 -0.35556459 0
-0.3959465 0.49491119 -0.28318524 0
-0.28730583 0.48515987 -0.28802371 0
-0.18103409 0.45506859 -0.293432 0
-0.09790802 0.44498634 -0.29717684 0
0.0052070618 0.44682884 -0.29914784 0
0.11389923 0.41326427 -0.31055164 0
0.22313118 0.41681767 -0.30966353 0
0.33001709 0.37112045 -0.32292318 0
0.45643044 0.38626862 -0.31574345 0
0.5904007 0.35952759 -0.32328677 0
0.72694969 0.34367847 -0.32625484 0
0.87099648 0.32050037 -0.33371115 0
0.32339668 0.47761917 -0.29089451 0
0.45026016 0.4683733 -0.28928804 0
0.47110558 0.46074581 -0.30017304 0
0.58983231 0.46491814 -0.29112291 0
0.74160576 0.45817184 -0.29726648 0
0.87477493 0.42837143 -0.30254674 0
0.86876869 0.48595715 -0.28159976 0
-0.96921349 -0.45347118 -0.44252849 0
-0.91559601 -0.46236515 -0.42670465 0
-0.84678841 -0.41311932 -0.45812368 0
-0.8638649 -0.40006351 -0.45290923 0
-0.81318474 -0.37866116 -0.41911697 0
-0.67712593 -0.35818386 -0.45970917 0
-0.59809494 -0.36957741 -0.45943761 0
-0.50572968 -0.3824501 -0.471771 0
-0.42959023 -0.37957859 -0.4205184 0
-0.64726639 -0.34012508 -0.37711048 0
-0.55887794 -0.34707642 -0.42727637 0
-0.48403358 -0.34127426 -0.47331715 0
-0.40460968 -0.34334087 -0.42400908 0
-0.24127007 -0.3313942 -0.46735358 0
-0.18945122 -0.34332752 -0.41710615 0
-0.08921814 -0.32905865 -0.36903358 0
-0.15834808 -0.2627573 -0.42139602 0
-0.086633682 -0.26417732 -0.39434266 0
0.0069446564 -0.27045155 -0.3710084 0
0.084589005 -0.28661633 -0.35643554 0
0.032562256 -0.18148232 -0.41024685 0
0.14365959 -0.2433691 -0.33741069 0
0.33155823 -0.099808693 -0.39163327 0
0.47384071 -0.07653141 -0.38434243 0
-0.90066147 -0.48300838 -0.37753201 0
-0.86319351 -0.42678261 -0.38597465 0
-0.80122948 -0.39673233 -0.35654306 0
-0.69358253 -0.41320419 -0.34579134 0
-0.63085175 -0.41902256 -0.35259414 0
-0.46907043 -0.4698 -0.37799311 0
-0.40869331 -0.45738029 -0.35439301 0
-0.31136513 -0.47603416 -0.31488776 0
-0.19646645 -0.43235493 -0.32769728 0
-0.56829643 -0.35866642 -0.36770725 0
-0.38150406 -0.38626862 -0.34981441 0
-0.31689072 -0.39686584 -0.32297492 0
-0.18035889 -0.390522 -0.33255148 0
-0.08486557 -0.38606739 -0.32478857 0
0.0201931 -0.37289429 -0.3147645 0
0.0079059601 -0.33333778 -0.33142185 0
0.1285038 -0.32839775 -0.310606 0
-0.19132042 -0.49588108 -0.29188466 0
-0.07878685 -0.43820858 -0.25305462 0
-0.017744064 -0.45711899 -0.22141743 0
0.06558609 -0.39055347 -0.25141931 0
0.05834198 -0.36716461 -0.26900744 0
-0.026674271 -0.4993906 -0.20565987 0
-0.81035423 -0.29321384 -0.47706413 0
-0.74421501 -0.25978851 -0.46922922 0
-0.63767052 -0.2946701 -0.4731245 0
-0.54226494 -0.27520657 -0.46917248 0
-0.44519615 -0.2875185 -0.46908951 0
-0.36724663 -0.29625988 -0.46842504 0
-0.71284676 -0.19633198 -0.4571116 0
-0.6229248 -0.18460464 -0.4535625 0
-0.52105331 -0.21385574 -0.45746064 0
-0.41833878 -0.19878101 -0.45672917 0
-0.32863426 -0.2173357 -0.45586109 0
-0.22751808 -0.23535728 -0.4568429 0
-0.16698265 -0.20869446 -0.4404285 0
0.55692101 -0.29844952 -0.47480917 0
0.84247208 -0.31097698 -0.49976778 0
-0.67957687 -0.10363579 -0.44107676 0
-0.61465454 -0.076723099 -0.43470764 0
-0.51420784 -0.1020155 -0.43818951 0
-0.41648674 -0.1206646 -0.44139886 0
-0.29585457 -0.12373257 -0.44292068 0
-0.21157265 -0.12552357 -0.44184947 0
-0.1450634 -0.13228703 -0.43298984 0
-0.046524048 -0.13885498 -0.43955278 0
0.068946838 -0.15084362 -0.44293785 0
0.19543839 -0.16124153 -0.44670749 0
0.31133842 -0.16650486 -0.44680023 0
0.42223167 -0.23725224 -0.46293926 0
0.44491005 -0.16501713 -0.44318485 0
0.63021088 -0.20466328 -0.46354866 0
0.90558434 -0.25562382 -0.48693657 0
-0.60206032 0.013522148 -0.41776156 0
-0.51112366 0.0060529709 -0.41880298 0
-0.38996124 -0.01720047 -0.42341852 0
-0.29653168 -0.010861397 -0.42388654 0
-0.18202782 -0.026165962 -0.42466855 0
-0.11012077 -0.038750648 -0.42115951 0
0.017210007 -0.059028625 -0.42946076 0
0.13629532 -0.069103241 -0.43270779 0
0.1699791 -0.039408684 -0.42769647 0
0.29242134 -0.08429718 -0.42608237 0
0.40824509 -0.067519188 -0.40349317 0
0.52933884 -0.13422108 -0.42098808 0
0.95394707 -0.18344975 -0.46973968 0
-0.5765686 0.094180107 -0.40050387 0
-0.48838425 0.082633018 -0.405159 0
-0.3765564 0.09630394 -0.40203571 0
-0.26918411 0.088261604 -0.40622878 0
-0.19320679 0.0510149 -0.4125073 0
-0.076835632 0.080413818 -0.40735769 0
-0.0091552734 0.029734612 -0.41548991 0
0.093362808 0.033680916 -0.41696167 0
0.23682404 0.042510986 -0.41704035 0
0.34418488 0.032704353 -0.41871309 0
0.4140873 0.0079135895 -0.42022872 0
0.53558922 0.014649391 -0.41511035 0
0.62454796 -0.0083904266 -0.40709996 0
0.74615669 -0.020680428 -0.38086653 0
-0.54537773 0.18772602 -0.3814311 0
-0.47749519 0.15841961 -0.38776016 0
-0.39669037 0.18534279 -0.38188386 0
-0.28253174 0.18159676 -0.38188958 0
-0.15412331 0.16097164 -0.3864572 0
-0.057971954 0.15580463 -0.3871007 0
0.045938492 0.13226223 -0.39452624 0
0.15395737 0.1407547 -0.39553523 0
0.27831078 0.12461567 -0.39883304 0
0.41375542 0.1180954 -0.40007281 0
0.54027367 0.08777523 -0.40269327 0
0.70832253 0.072106361 -0.39962006 0
0.81309891 0.093551636 -0.39515662 0
0.95639229 0.061330795 -0.36172509 0
-0.5394268 0.30853462 -0.34730387 0
-0.46642303 0.29092121 -0.35185194 0
-0.35802269 0.28185368 -0.35170317 0
-0.2625351 0.25146008 -0.36290312 0
-0.15564919 0.26311111 -0.35289598 0
-0.054689407 0.23213577 -0.36386228 0
0.056753159 0.2342453 -0.3647759 0
0.15364456 0.19680023 -0.37439585 0
0.29217148 0.21592045 -0.37242246 0
0.42177391 0.19592381 -0.3746624 0
0.56138802 0.18890858 -0.37757039 0
0.69532013 0.16075706 -0.38219094 0
0.87530708 0.15199757 -0.38310838 0
0.9056778 0.092897415 -0.37516904 0
-0.53378487 0.42219639 -0.31765676 0
-0.46751976 0.41106319 -0.31715417 0
-0.36057854 0.39172459 -0.32439351 0
-0.23841095 0.3583498 -0.33018637 0
-0.15182686 0.34519863 -0.33021951 0
-0.042076111 0.357728 -0.33142567 0
0.058086395 0.31670475 -0.33999252 0
0.1751709 0.30748367 -0.34820008 0
0.30385017 0.30691147 -0.34689379 0
0.43997955 0.30278015 -0.3466084 0
0.56414795 0.24202538 -0.35925126 0
0.70773125 0.26864624 -0.35178041 0
0.89292717 0.25287724 -0.35772014 0
-0.55341721 0.49675941 -0.29117417 0
-0.43886948 0.49289989 -0.29200816 0
-0.33117676 0.4703989 -0.29429054 0
-0.24505615 0.46730804 -0.29731345 0
-0.14528084 0.44475269 -0.30485797 0
-0.04949379 0.42371368 -0.30930614 0
0.057983398 0.42497826 -0.30870867 0
0.16338348 0.40000534 -0.31555295 0
0.28688622 0.41386986 -0.30604053 0
0.31267548 0.40354443 -0.32015395 0
0.45807838 0.41716862 -0.31789947 0
0.58090401 0.35060596 -0.33033013 0
0.69756699 0.30916405 -0.33175302 0
0.89239693 0.29818916 -0.34240246 0
0.045726776 0.49507904 -0.28471017 0
0.1552639 0.48189163 -0.28941703 0
0.46194458 0.48984337 -0.29691744 0
0.59242058 0.45858479 -0.30071545 0
0.72763824 0.45411682 -0.29878044 0
0.90094757 0.41958237 -0.30769873 0
-0.95519066 -0.45386791 -0.44793749 0
-0.87688446 -0.42596817 -0.45140791 0
-0.95143127 -0.38271713 -0.47369027 0
-0.84492111 -0.37534142 -0.45183301 0
-0.74146461 -0.3470602 -0.45588493 0
-0.63375664 -0.36613464 -0.44900584 0
-0.57760811 -0.34903812 -0.45089626 0
-0.45405388 -0.36818218 -0.45502496 0
-0.50674248 -0.32926655 -0.47498608 0
-0.43304062 -0.34465885 -0.44804502 0
-0.30630875 -0.32254696 -0.47168875 0
-0.22471237 -0.3394537 -0.43667722 0
-0.1407547 -0.33851528 -0.38686347 0
-0.20781517 -0.27066803 -0.45216036 0
-0.12707901 -0.26012611 -0.40904236 0
-0.026666641 -0.27105999 -0.37796474 0
0.046710968 -0.27266407 -0.35839128 0
-0.0046901703 -0.20987797 -0.41202402 0
0.29925156 -0.12745476 -0.40162635 0
0.49444962 -0.07339859 -0.39132428 0
-0.92452431 -0.48460674 -0.38600564 0
-0.85975838 -0.48663616 -0.36137128 0
-0.68348503 -0.48369598 -0.332582 0
-0.83543777 -0.39555454 -0.37160611 0
-0.74985313 -0.42202091 -0.34507275 0
-0.64914131 -0.41367149 -0.35355878 0
-0.56212044 -0.37984943 -0.37518167 0
-0.4294796 -0.44293594 -0.36748767 0
-0.36730957 -0.43787575 -0.33134818 0
-0.24583435 -0.44959831 -0.33403254 0
-0.72536469 -0.34253693 -0.36132073 0
-0.40814972 -0.38523102 -0.36634088 0
-0.3234272 -0.39797497 -0.32543826 0
-0.21226311 -0.41474438 -0.34227777 0
-0.13990784 -0.38572598 -0.33746958 0
-0.031272888 -0.35787773 -0.34456539 0
0.0090637207 -0.36018753 -0.28950357 0
0.091953278 -0.32784081 -0.32214642 0
-0.33143616 -0.47884369 -0.31027079 0
-0.083730698 -0.49236298 -0.23293972 0
-0.11638832 -0.43033028 -0.27576256 0
-0.028612137 -0.42049789 -0.24270678 0
0.065050125 -0.40373516 -0.25544286 0
-0.025419235 -0.47472668 -0.20439339 0
-0.99944687 -0.29893112 -0.47314787 0
-0.92962646 -0.29550648 -0.47303319 0
-0.80571747 -0.313344 -0.47338939 0
-0.7442627 -0.31968689 -0.47305417 0
-0.91965103 -0.25373173 -0.46511388 0
-0.83354187 -0.23937321 -0.46151996 0
-0.7399807 -0.27397919 -0.46359587 0
-0.61742592 -0.260849 -0.45878983 0
-0.550457 -0.28684616 -0.46439505 0
-0.41050911 -0.27605724 -0.46022582 0
-0.89767456 -0.15670204 -0.44867897 0
-0.81250763 -0.174963 -0.4464705 0
-0.70906258 -0.17769909 -0.44609022 0
-0.61306 -0.18237686 -0.44590139 0
-0.50562859 -0.2057972 -0.44890594 0
-0.38866997 -0.21163464 -0.44855714 0
-0.30003357 -0.2045393 -0.44649601 0
-0.23590469 -0.26610756 -0.45263362 0
0.52724266 -0.28891087 -0.46699476 0
0.81190491 -0.32151508 -0.49159265 0
-0.85583878 -0.087839127 -0.43523932 0
-0.80246735 -0.051246643 -0.42555022 0
-0.69700241 -0.064928055 -0.42787051 0
-0.6123085 -0.075013161 -0.42643523 0
-0.5063858 -0.10688019 -0.4317627 0
-0.40565872 -0.098342896 -0.43137383 0
-0.30534554 -0.10020447 -0.43213081 0
-0.19658279 -0.1414299 -0.43614554 0
-0.14050484 -0.14529324 -0.43489289 0
-0.0069274902 -0.13718319 -0.4335537 0
0.087053299 -0.1939106 -0.44209266 0
0.25465584 -0.15607166 -0.44205952 0
0.4262867 -0.18187237 -0.45068908 0
0.50358582 -0.18751621 -0.42767668 0
0.56921959 -0.26802921 -0.46168017 0
0.89354897 -0.25695992 -0.47972322 0
-0.80428123 0.02063942 -0.40969777 0
-0.68312454 0.033104897 -0.40952444 0
-0.58269501 0.0056123734 -0.4110539 0
-0.49523163 -0.021870613 -0.41562581 0
-0.38046646 0.01468277 -0.41263533 0
-0.29951096 0.0057945251 -0.41299224 0
-0.20345688 -0.044721603 -0.42116117 0
-0.1194706 -0.041045189 -0.414819 0
0.044626236 -0.097093582 -0.42659068 0
0.12210274 -0.07789135 -0.42613244 0
0.20583534 -0.074061394 -0.42586875 0
0.29504204 -0.10876179 -0.43108559 0
0.40714836 -0.073867798 -0.40359831 0
0.45829773 -0.12660122 -0.4393549 0
0.95549202 -0.18256474 -0.46158361 0
-0.76400185 0.12157059 -0.38907099 0
-0.68899536 0.12160206 -0.39009523 0
-0.59475517 0.10758305 -0.3930254 0
-0.47488213 0.091040611 -0.39525604 0
-0.37996292 0.090247154 -0.39685607 0
-0.29275703 0.066010475 -0.40030003 0
-0.1771946 0.088490486 -0.39966226 0
-0.093475342 0.056576729 -0.40413046 0
0.012485504 0.034446716 -0.4083097 0
0.14574814 0.027118683 -0.41119075 0
0.18234825 0.06086731 -0.40570092 0
0.30828667 -0.013310432 -0.41511655 0
0.44967461 0.031198502 -0.41543055 0
0.5345459 -0.030062675 -0.4105823 0
0.61460876 -0.031404495 -0.39465308 0
0.71453857 -0.0027399063 -0.39627981 0
-0.74038124 0.22566319 -0.36396527 0
-0.66215324 0.23144817 -0.36416626 0
-0.56926918 0.21650219 -0.36546731 0
-0.47849083 0.17946148 -0.37454748 0
-0.3461895 0.17856884 -0.37815809 0
-0.25919533 0.16897011 -0.37688017 0
-0.14335632 0.18373871 -0.37806034 0
-0.060590744 0.15576172 -0.37875628 0
0.068462372 0.13156128 -0.38660431 0
0.20633698 0.11686134 -0.39357758 0
0.34427452 0.11588478 -0.39008641 0
0.47313309 0.08115387 -0.39538121 0
0.48201752 0.063275337 -0.40848851 0
0.64468575 0.024089813 -0.41189241 0
0.8048687 0.044278145 -0.38399696 0
0.91189766 0.043872833 -0.36844182 0
-0.74113274 0.31641293 -0.33638263 0
-0.6652317 0.30572128 -0.34010625 0
-0.5347023 0.30227566 -0.34000254 0
-0.43556786 0.30480385 -0.34002018 0
-0.3420887 0.27145195 -0.35020876 0
-0.23948669 0.26745987 -0.3540802 0
-0.14766312 0.25905895 -0.35124063 0
-0.044704437 0.26103973 -0.35179758 0
0.09185791 0.22692966 -0.36455584 0
0.21954155 0.20325184 -0.36798787 0
0.35415268 0.18218708 -0.3698895 0
0.50388908 0.19221592 -0.37059975 0
0.66745186 0.14859295 -0.37933731 0
0.85229683 0.11954689 -0.3813684 0
-0.74990654 0.42010021 -0.30403972 0
-0.63949013 0.41129971 -0.30835104 0
-0.55316162 0.37487888 -0.31929421 0
-0.4339447 0.40428162 -0.31177282 0
-0.33483315 0.38022614 -0.32045698 0
-0.25108719 0.33463287 -0.32790327 0
-0.16011429 0.33537197 -0.32199669 0
-0.041572571 0.32809067 -0.33226991 0
0.083547592 0.30786324 -0.33471751 0
0.10060692 0.2801857 -0.35151577 0
0.22917175 0.31178379 -0.33487654 0
0.37804794 0.2834177 -0.34640026 0
0.5222683 0.30158806 -0.34032583 0
0.67407799 0.24586201 -0.34790444 0
0.8739872 0.23320961 -0.35340405 0
-0.5274086 0.46960068 -0.28826427 0
-0.44515038 0.4834938 -0.28565073 0
-0.34593201 0.44028568 -0.29896092 0
-0.24300766 0.45749855 -0.29602337 0
-0.14437485 0.45242691 -0.2950294 0
-0.043481827 0.43254089 -0.30053902 0
0.088479996 0.43593216 -0.29901028 0
0.23332977 0.41276264 -0.30593896 0
0.39311981 0.38987064 -0.31753302 0
0.51449013 0.36087894 -0.31515169 0
0.69634056 0.35140038 -0.32208157 0
0.86841774 0.29771042 -0.32879996 0
0.23089027 0.48197365 -0.28503942 0
0.5376358 0.47489643 -0.28925228 0
0.70691109 0.45594788 -0.29157281 0
0.8899765 0.41688633 -0.30051494 0
-0.95077896 -0.4429636 -0.45010161 0
-0.86855125 -0.43939304 -0.43680263 0
-0.93994904 -0.35667706 -0.47241449 0
-0.83404922 -0.38561821 -0.44245076 0
-0.71270752 -0.36655617 -0.45075417 0
-0.62309074 -0.36328411 -0.46451569 0
-0.52664757 -0.36625481 -0.47264099 0
-0.45429802 -0.39255142 -0.44165158 0
-0.62055206 -0.32228661 -0.46937108 0
-0.56833649 -0.35674763 -0.40060306 0
-0.42077065 -0.34533978 -0.4360981 0
-0.3382988 -0.31180286 -0.4625113 0
-0.2263546 -0.35227871 -0.43888998 0
-0.15884781 -0.33428669 -0.39742303 0
-0.19004059 -0.26478577 -0.44536924 0
-0.11952782 -0.26907444 -0.4057622 0
-0.0092849731 -0.28964996 -0.36619425 0
-0.13178825 -0.19382286 -0.41896367 0
0.0011253357 -0.20086098 -0.40823221 0
0.057676315 -0.20135689 -0.39285016 0
0.31745529 -0.13060856 -0.39139009 0
0.47255898 -0.081142426 -0.38733864 0
-0.9247036 -0.4962225 -0.38509512 0
-0.86045647 -0.48027515 -0.35560179 0
-0.66436577 -0.48312473 -0.32479119 0
-0.82084656 -0.40746784 -0.36128974 0
-0.7364502 -0.41694641 -0.3416934 0
-0.63963509 -0.42609119 -0.34752321 0
-0.41571045 -0.4408865 -0.35931301 0
-0.35906029 -0.45025826 -0.32750821 0
-0.60900307 -0.34544563 -0.36891365 0
-0.38693047 -0.37838936 -0.35332251 0
-0.36019325 -0.38511562 -0.34489346 0
-0.19973183 -0.41386318 -0.33856034 0
-0.14473724 -0.39264679 -0.34074831 0
-0.049057007 -0.37565804 -0.326895 0
0.047878265 -0.40231419 -0.3144865 0
0.0070209503 -0.3208046 -0.34630871 0
0.086393356 -0.33860207 -0.3123374 0
-0.33329201 -0.49383831 -0.3103559 0
-0.23426056 -0.49469471 -0.30643106 0
-0.058561325 -0.4939642 -0.21863604 0
-0.11903191 -0.42762661 -0.27528191 0
-0.015275955 -0.44785976 -0.23627043 0
0.022500992 -0.43881226 -0.2021699 0
