# .PCD v0.7 - Point Cloud Data file format
VERSION 0.7
FIELDS x y z intensity
SIZE 4 4 4 4
TYPE F F F F
COUNT 1 1 1 1
WIDTH 1303
HEIGHT 1
VIEWPOINT 0 0 0 1 0 0 0
POINTS 1303
DATA ascii
0.71628761 -0.11750031 -0.19708967 0
0.80833054 -0.10092545 -0.18721008 0
0.88431454 -0.080215454 -0.18996429 0
0.90620327 -0.064067841 -0.21349955 0
0.66661072 -0.43429565 -0.055054188 0
0.7231369 -0.4468689 -0.063777447 0
0.69274426 -0.339077 -0.048309326 0
0.7193985 -0.38017654 -0.040113926 0
0.71359634 -0.25418854 -0.05495739 0
0.74124813 -0.27043915 -0.046408176 0
0.73633194 -0.18629074 -0.068125725 0
0.78393364 -0.16661072 -0.064199448 0
0.85025406 -0.11898041 -0.098325729 0
0.90706539 -0.091197968 -0.10769463 0
0.94657135 -0.061210632 -0.14753342 0
0.76951504 -0.45590591 0.035526276 0
0.72583103 -0.33489227 0.025472164 0
0.76403713 -0.37149429 0.04258585 0
0.74850845 -0.2612381 0.024590969 0
0.78259373 -0.27152252 0.042086124 0
0.77763367 -0.19169235 0.013159752 0
0.82187557 -0.18003845 0.021749496 0
0.88434887 -0.13333893 -0.016216278 0
0.93109322 -0.11252975 -0.014429092 0
0.81827164 -0.45196915 0.12069988 0
0.87721539 -0.49818802 0.10780096 0
0.81440639 -0.37005615 0.11632633 0
0.88320923 -0.44334412 0.11059284 0
0.77403545 -0.27902222 0.095573902 0
0.81907082 -0.27277374 0.11345816 0
0.86681175 -0.18932724 0.099044323 0
0.92828083 -0.14279938 0.080131054 0
0.97815418 -0.12696838 0.071130276 0
0.82613468 -0.46671677 0.18085337 0
0.93007565 -0.16588593 0.14794302 0
-0.99390602 0.26081085 -0.066745281 0
-0.92428112 0.37545395 -0.097455502 0
-0.89009762 0.45204163 -0.11499929 0
-0.9963398 0.38868713 -0.06274271 0
-0.96231651 0.34313202 -0.073793888 0
-0.94181728 0.47057343 -0.082280159 0
-0.90455532 0.42498016 -0.096075535 0
-0.85799503 0.48563385 -0.11679125 0
0.70688152 -0.42433167 -0.049041271 0
0.72432804 -0.45530319 -0.056095123 0
0.67593384 -0.29711533 -0.066267967 0
0.70148373 -0.35935211 -0.059259892 0
0.75945854 -0.43431091 -0.061117649 0
0.70515347 -0.22162247 -0.082649231 0
0.71259499 -0.28774643 -0.065146446 0
0.74840832 -0.13588715 -0.10947084 0
0.82896233 -0.088417053 -0.14331436 0
0.88736439 -0.069896698 -0.1324296 0
0.86694431 -0.048992157 -0.18449688 0
0.91471195 -0.064334869 -0.17081165 0
0.69968224 -0.40595627 0.012055397 0
0.75007725 -0.45046616 0.0206604 0
0.68605137 -0.289711 -0.038946152 0
0.72472191 -0.33868408 -0.0021352768 0
0.77429199 -0.41273117 0.02317524 0
0.72590923 -0.21591949 -0.038847446 0
0.74949932 -0.25523376 -0.0058207512 0
0.76506805 -0.15205002 -0.045497894 0
0.8219595 -0.15518951 -0.028990746 0
0.84391499 -0.097057343 -0.090558052 0
0.87229252 -0.10329056 -0.052221775 0
0.94426155 -0.078125 -0.076071739 0
0.78357124 -0.44625092 0.1145792 0
0.83889866 -0.48979187 0.085231781 0
0.76630974 -0.31962967 0.085460186 0
0.80678558 -0.37900162 0.10431242 0
0.86488819 -0.45785522 0.11334515 0
0.75935078 -0.19631958 0.030470848 0
0.78902817 -0.24921799 0.078047276 0
0.8163271 -0.3099823 0.10003567 0
0.78388214 -0.16872406 0.025242329 0
0.83231735 -0.16781998 0.061553001 0
0.89945507 -0.11850739 0.032845974 0
0.96398926 -0.07591629 0.00053119659 0
0.84608173 -0.47026443 0.22380543 0
0.83623314 -0.35606384 0.18536901 0
0.88770962 -0.42733383 0.20708466 0
0.83377171 -0.24002457 0.15625429 0
0.85357475 -0.2858963 0.19294834 0
0.87790108 -0.17625809 0.147789 0
0.915308 -0.18573761 0.19142962 0
0.93452454 -0.12874222 0.1197505 0
0.87242985 -0.34267807 0.27249956 0
0.91171837 -0.39484787 0.29619122 0
0.9635191 -0.48026276 0.30644178 0
0.89689732 -0.27574921 0.27329159 0
0.93134308 -0.32717896 0.31421566 0
0.98714352 -0.40533066 0.31529474 0
0.8860445 -0.19519806 0.21422863 0
0.93645859 -0.19356537 0.25298595 0
0.86548424 -0.34669113 0.35015345 0
0.95320702 -0.38066483 0.3904748 0
0.99015617 -0.44893265 0.40503645 0
0.93305111 -0.2682724 0.34557533 0
0.95660973 -0.30749512 0.38341284 0
0.98393345 -0.20399475 0.34194088 0
0.96579933 -0.39923859 0.45908737 0
0.79888153 -0.0050544739 -0.46679878 0
0.8170929 0.017368317 -0.48575974 0
0.50454712 -0.4128418 -0.27946901 0
0.53816891 -0.48307037 -0.30112219 0
0.53442955 -0.27992249 -0.30458546 0
0.54075527 -0.32598877 -0.28700781 0
0.57241631 -0.19732666 -0.29766273 0
0.57865047 -0.25781631 -0.30575657 0
0.57392502 -0.081970215 -0.30449247 0
0.59736824 -0.11125565 -0.30319023 0
0.6098299 -0.028934479 -0.33037663 0
0.66548347 -0.039718628 -0.32925415 0
0.72533512 -0.015464783 -0.34756756 0
0.83006001 -0.034370422 -0.40869093 0
0.85089493 -0.0041275024 -0.44769669 0
0.55282307 -0.41387177 -0.22546387 0
0.59033203 -0.46334076 -0.23010969 0
0.58361816 -0.34046173 -0.2230196 0
0.626194 -0.41594315 -0.19376898 0
0.60825825 -0.20273972 -0.24145603 0
0.62543106 -0.25587845 -0.23223782 0
0.64229679 -0.14320755 -0.24541855 0
0.69751453 -0.16229248 -0.22044182 0
0.71338367 -0.073360443 -0.29333115 0
0.75398827 -0.090499878 -0.25664282 0
0.84155464 -0.055244446 -0.33704567 0
0.89539814 -0.061519623 -0.31770182 0
0.94068527 -0.049594879 -0.36733055 0
0.57309246 -0.38953018 -0.16469479 0
0.64073372 -0.4575119 -0.15131617 0
0.63938522 -0.3471489 -0.1402235 0
0.66178322 -0.4122963 -0.13556194 0
0.732934 -0.47773361 -0.12938738 0
0.64771366 -0.20855713 -0.16166496 0
0.67327404 -0.25793076 -0.14317465 0
0.68205833 -0.17442322 -0.16415453 0
0.72074032 -0.16643906 -0.1561718 0
0.79922676 -0.11528778 -0.19595957 0
0.86225891 -0.080375671 -0.21128845 0
0.90569019 -0.087142944 -0.23555422 0
0.6880579 -0.4708519 -0.068041801 0
0.68626499 -0.3504982 -0.055682182 0
0.7104454 -0.40890884 -0.056155205 0
0.75615788 -0.48622894 -0.075503826 0
0.68569756 -0.20483398 -0.091331959 0
0.7179451 -0.27112579 -0.055122852 0
0.7324419 -0.33201599 -0.06495285 0
0.70007515 -0.19609451 -0.092309952 0
0.75780487 -0.18502045 -0.071665764 0
0.84672737 -0.13192368 -0.10574484 0
0.91102505 -0.095310211 -0.13249493 0
0.93423176 -0.098995209 -0.15250778 0
0.75695324 -0.4744072 0.058751583 0
0.73466778 -0.35360336 0.027783871 0
0.75696754 -0.40659714 0.029603958 0
0.81117249 -0.48195267 0.0042614937 0
0.76552391 -0.28183365 0.027505398 0
0.77989006 -0.34208298 0.044877052 0
0.80676651 -0.19667435 0.013287544 0
0.88921928 -0.14571762 -0.014330387 0
0.93531513 -0.10695648 -0.04487133 0
0.77121925 -0.49156189 0.079594612 0
0.80585575 -0.41028595 0.11806011 0
0.84740448 -0.48510742 0.099963188 0
0.8069067 -0.28881073 0.11099815 0
0.8125391 -0.34802246 0.10885429 0
0.85415649 -0.20737076 0.096649647 0
0.92303276 -0.15841293 0.073478222 0
0.96815109 -0.13908386 0.028145313 0
0.83438301 -0.46041489 0.1664834 0
0.87032604 -0.49887848 0.15082455 0
0.92468929 -0.18559265 0.1344409 0
0.93186569 -0.16897202 0.13283825 0
0.91378212 0.10448456 -0.66341734 0
0.88542652 0.2842865 -0.65020704 0
0.92724514 0.21278763 -0.67451477 0
0.95588875 0.14694595 -0.67769098 0
0.91819859 0.36043167 -0.67582321 0
0.96718693 0.2937851 -0.68663645 0
0.99217606 0.22541809 -0.68804979 0
0.91235733 0.47049713 -0.67567253 0
0.96488476 0.42418289 -0.69922113 0
0.38212776 -0.46988297 -0.34939194 0
0.4238081 -0.40077209 -0.36096525 0
0.48858929 -0.2676506 -0.38141775 0
0.51254463 -0.26033401 -0.39950848 0
0.5267067 -0.20667267 -0.40084791 0
0.55040646 -0.20775604 -0.40852451 0
0.54662037 -0.1321373 -0.40640163 0
0.58657074 0.058208466 -0.41537142 0
0.72801113 0.046298981 -0.50499296 0
0.76087761 0.044219971 -0.49719048 0
0.73534679 0.087192535 -0.52822113 0
0.79902077 0.065685272 -0.52751207 0
0.93578815 0.039611816 -0.64183378 0
0.98975277 0.13577652 -0.67345381 0
0.3933506 -0.40089035 -0.32452059 0
0.41296387 -0.47739029 -0.32866812 0
0.42427731 -0.34086227 -0.32960892 0
0.47764301 -0.38758469 -0.31949711 0
0.52126312 -0.46580124 -0.31843376 0
0.47517967 -0.29191589 -0.35211658 0
0.53040028 -0.29229736 -0.33647585 0
0.54828262 -0.1740799 -0.35772896 0
0.570858 -0.23368073 -0.35400438 0
0.54816628 -0.038166046 -0.36950445 0
0.58126068 -0.092514038 -0.34776354 0
0.59078789 0.015750885 -0.38387156 0
0.64539814 -0.011108398 -0.36137819 0
0.67255974 0.023071289 -0.40623569 0
0.80584812 -0.0091285706 -0.46078253 0
0.85409546 0.0033607483 -0.47789907 0
0.89728832 0.00033187866 -0.4897747 0
0.54737186 -0.38777924 -0.25275755 0
0.57690907 -0.45189667 -0.26247931 0
0.58220673 -0.32588959 -0.26396132 0
0.60121346 -0.39208603 -0.24934435 0
0.59637833 -0.18948364 -0.27444839 0
0.62651539 -0.23949051 -0.26999426 0
0.63322353 -0.12169266 -0.28479099 0
0.67801094 -0.15204239 -0.26014662 0
0.68550205 -0.055027008 -0.32585001 0
0.73787022 -0.077297211 -0.29767323 0
0.8314085 -0.048179626 -0.37067986 0
0.88706684 -0.059207916 -0.35648108 0
0.91850185 -0.022781372 -0.41188145 0
0.59006786 -0.38626099 -0.18872881 0
0.63291264 -0.4367981 -0.17921925 0
0.63597775 -0.33293533 -0.17938328 0
0.66248894 -0.38096237 -0.1706996 0
0.67364597 -0.24750519 -0.18252993 0
0.66655922 -0.15244293 -0.22075129 0
0.71330261 -0.16035461 -0.19801426 0
0.79822922 -0.10363007 -0.23715639 0
0.86249065 -0.069522858 -0.24377918 0
0.92425156 -0.080718994 -0.28757048 0
0.98124886 -0.081020355 -0.35297155 0
0.69137478 -0.45342255 -0.081930637 0
0.73771095 -0.48537064 -0.095746994 0
0.69263744 -0.33052826 -0.092681408 0
0.70384502 -0.3842392 -0.096036434 0
0.7480402 -0.46539688 -0.12637806 0
0.72491932 -0.25505447 -0.096392632 0
0.74273682 -0.32076263 -0.07978344 0
0.76446915 -0.17314148 -0.11123419 0
0.8484726 -0.1267662 -0.14507055 0
0.95211792 -0.092185974 -0.183465 0
0.7487421 -0.46302795 -0.010200024 0
0.72734737 -0.34111404 -0.020586967 0
0.75528812 -0.38336945 -0.0075392723 0
0.8004818 -0.47290039 -0.030924797 0
0.7710104 -0.26358795 -0.012034416 0
0.78545856 -0.32015991 0.014953613 0
0.82382774 -0.18504715 -0.026078701 0
0.89296055 -0.13709259 -0.058347225 0
0.93321705 -0.12915421 -0.06794548 0
0.9782629 -0.10850906 -0.090707779 0
0.80694962 -0.46435547 0.12301874 0
0.82733822 -0.49524689 0.082041264 0
0.79247761 -0.326828 0.086509705 0
0.8065443 -0.38589859 0.07563591 0
0.85073853 -0.47201538 0.062800407 0
0.82097626 -0.26524734 0.075572491 0
0.8263483 -0.31435013 0.084043503 0
0.86366844 -0.19665909 0.054829121 0
0.91145802 -0.17939758 0.018259048 0
0.91785145 -0.15203857 0.025942326 0
0.96460438 -0.15286636 0.043291092 0
0.84944153 -0.39556503 0.14389324 0
0.88206005 -0.46530533 0.14246941 0
0.86414146 -0.25463867 0.13618612 0
0.86096478 -0.30030823 0.13834047 0
0.90475368 -0.20245361 0.12729168 0
0.9334259 -0.18990707 0.092249393 0
0.94975376 -0.16657639 0.10897446 0
0.77923679 0.22090149 -0.63579369 0
0.8336401 0.21257019 -0.64813662 0
0.79265881 0.34928894 -0.6420908 0
0.83074665 0.29401398 -0.65077543 0
0.86746407 0.23181152 -0.66017818 0
0.82804394 0.43111801 -0.65622044 0
0.8903904 0.37372208 -0.66689157 0
0.9291687 0.29399109 -0.68308878 0
0.92948341 0.42644119 -0.68042469 0
0.28401566 -0.4524498 -0.34915876 0
0.25370026 -0.36192322 -0.31523132 0
0.30565262 -0.38154221 -0.33245277 0
0.34698296 -0.44406891 -0.35853958 0
0.352211 -0.29714966 -0.35475445 0
0.39550304 -0.19986725 -0.38440228 0
0.43092728 -0.22813034 -0.39196968 0
0.50627422 -0.24171829 -0.40429306 0
0.45773792 -0.080783844 -0.40329218 0
0.48657417 -0.15988541 -0.4147892 0
0.47723293 0.049732208 -0.40815306 0
0.49070358 -0.017307281 -0.40532303 0
0.50151634 -0.097423553 -0.4235754 0
0.50221062 0.08291626 -0.41938162 0
0.5254364 0.069419861 -0.41577339 0
0.55291462 0.15155792 -0.45949554 0
0.59334755 0.14736176 -0.47308683 0
0.69266319 0.084918976 -0.50819206 0
0.73423481 0.046974182 -0.50186634 0
0.62698364 0.17948914 -0.49594593 0
0.72312641 0.11058044 -0.52403212 0
0.7741518 0.085342407 -0.52049255 0
0.86641693 0.15110016 -0.64409351 0
0.93359184 0.079647064 -0.63831139 0
0.9194231 0.22473907 -0.6604619 0
0.96980762 0.15041733 -0.6726222 0
0.89863396 0.31266785 -0.65722656 0
0.97209358 0.30330276 -0.67611742 0
0.95511723 0.39669418 -0.67721653 0
0.35314369 -0.37447357 -0.32660675 0
0.40076447 -0.46655655 -0.32182121 0
0.39921093 -0.32525635 -0.32968092 0
0.45681953 -0.38036346 -0.31840706 0
0.51484776 -0.45146942 -0.32448816 0
0.45970917 -0.28022766 -0.35205507 0
0.51414967 -0.28596497 -0.33341455 0
0.53592682 -0.1591835 -0.36000729 0
0.55960655 -0.21923447 -0.36373472 0
0.52619934 -0.032272339 -0.36999989 0
0.56430912 -0.084274292 -0.34879589 0
0.58164501 0.035289764 -0.38670111 0
0.63772392 0.0038642883 -0.35998297 0
0.69555759 0.038024902 -0.4440093 0
0.79993057 0.0038032532 -0.46183968 0
0.81251144 0.038711548 -0.49202585 0
0.92585754 0.016059875 -0.52488899 0
0.52383327 -0.37994385 -0.26565599 0
0.55570698 -0.44583511 -0.26583195 0
0.5674839 -0.31586838 -0.26366901 0
0.58635426 -0.16937256 -0.28252697 0
0.60809326 -0.23058701 -0.27848911 0
0.6250515 -0.10708237 -0.28822756 0
0.67189312 -0.13829422 -0.27097273 0
0.68262196 -0.035499573 -0.32717991 0
0.72576046 -0.069221497 -0.2932744 0
0.82814598 -0.042945862 -0.37945557 0
0.87445831 -0.036987305 -0.37344551 0
0.95788383 -0.047050476 -0.41441631 0
0.58142281 -0.38898087 -0.19761896 0
0.60944843 -0.43099213 -0.19354105 0
0.67184448 -0.4991684 -0.20455265 0
0.62504959 -0.32202148 -0.17988873 0
0.65340424 -0.38586426 -0.17545128 0
0.73823833 -0.48800659 -0.18487167 0
0.63079453 -0.17490005 -0.22375631 0
0.65923023 -0.22619629 -0.19786978 0
0.66870308 -0.13491821 -0.2180624 0
0.7087841 -0.14880753 -0.20007038 0
0.78143215 -0.08946228 -0.24190187 0
0.83572292 -0.059169769 -0.24894524 0
0.9083004 -0.063282013 -0.30041552 0
0.98622799 -0.085155487 -0.30894756 0
0.97546577 -0.047267914 -0.3447156 0
0.68470573 -0.43655777 -0.099300861 0
0.68616199 -0.31465912 -0.10143185 0
0.68942165 -0.38338852 -0.1000905 0
0.70727921 -0.23800659 -0.10653448 0
0.75638199 -0.1631279 -0.12317228 0
0.83511639 -0.11385345 -0.15823793 0
0.88301182 -0.068561554 -0.2045722 0
0.94699383 -0.076946259 -0.20060587 0
0.72604752 -0.44791794 -0.010938644 0
0.77138805 -0.48347473 -0.033677578 0
0.72551441 -0.32471085 -0.021684647 0
0.74078369 -0.37794495 -0.011638641 0
0.78816128 -0.47413635 -0.030250072 0
0.75982285 -0.2527504 -0.020360947 0
0.76264477 -0.31241226 -0.027696609 0
0.80462933 -0.17605972 -0.032718182 0
0.87818718 -0.12689209 -0.074942589 0
0.93168831 -0.11005783 -0.072161674 0
0.99015617 -0.10527039 -0.11045599 0
0.77701187 -0.44944 0.094542503 0
0.75502682 -0.32215881 0.049129486 0
0.79292774 -0.3850708 0.068974972 0
0.8568306 -0.48765945 0.047152519 0
0.80459404 -0.2600174 0.062829494 0
0.81434155 -0.31402969 0.076270103 0
0.85645199 -0.18449402 0.055010796 0
0.9175787 -0.13916397 0.013816833 0
0.97693729 -0.12696075 0.0096392632 0
0.81919193 -0.32091522 0.1734705 0
0.8473444 -0.38528442 0.15397167 0
0.870924 -0.48002625 0.14334631 0
0.85494041 -0.26345444 0.14669085 0
0.85876083 -0.32051468 0.16175222 0
0.90675068 -0.19361877 0.13722134 0
0.95682621 -0.14926529 0.10690737 0
0.88343048 -0.49596405 0.22864962 0
0.86541653 -0.40579224 0.21291256 0
0.89457703 -0.4691124 0.19619942 0
0.91565037 -0.20185852 0.18982887 0
0.48789978 -0.072563171 -0.5056057 0
0.61768055 0.24608612 -0.5612607 0
0.71356392 0.26044464 -0.63881874 0
0.78320122 0.20948029 -0.65160513 0
0.86233425 0.17133331 -0.66447544 0
0.74559307 0.39043427 -0.64452028 0
0.77105141 0.32931519 -0.65580559 0
0.83793449 0.26665497 -0.66591454 0
0.89805222 0.21725845 -0.67147827 0
0.75287533 0.47169113 -0.64751911 0
0.84014511 0.40497208 -0.6691227 0
0.90339375 0.33683777 -0.6752615 0
0.98041248 0.32305145 -0.70014477 0
0.88967514 0.47902298 -0.68586731 0
0.97868156 0.42070389 -0.7036767 0
0.18889427 -0.38928604 -0.34337807 0
0.26767159 -0.48844147 -0.37470055 0
0.25814819 -0.34033203 -0.34637976 0
0.30241013 -0.41610336 -0.3595252 0
0.35617638 -0.45587158 -0.35928345 0
0.31847382 -0.26841354 -0.37622786 0
0.37014198 -0.30149078 -0.36397505 0
0.3791256 -0.19662476 -0.40302277 0
0.44551373 -0.25098038 -0.39481974 0
0.45328045 -0.12475967 -0.44245958 0
0.5009079 -0.17599869 -0.41708136 0
0.45414829 0.024669647 -0.42430258 0
0.48399067 -0.046787262 -0.42466879 0
0.50494957 0.087551117 -0.4354105 0
0.54806805 0.061164856 -0.4239192 0
0.54698372 0.1656189 -0.48144197 0
0.62228203 0.13192368 -0.50017929 0
0.72026825 0.062679291 -0.50955248 0
0.59564114 0.21757126 -0.51449919 0
0.70200634 0.15409851 -0.53507662 0
0.7466898 0.090438843 -0.5293622 0
0.81727314 0.074043274 -0.53021193 0
0.89409161 0.13731003 -0.66325331 0
0.9552021 0.077365875 -0.65965986 0
0.94656467 0.19043732 -0.67607927 0
0.99740887 0.13681793 -0.67873096 0
0.95719528 0.33008957 -0.67989302 0
0.98538017 0.28067398 -0.68400097 0
0.96477222 0.37453461 -0.68098545 0
0.32287216 -0.49554443 -0.33996725 0
0.36172104 -0.40774155 -0.33135509 0
0.40944862 -0.4738121 -0.32980394 0
0.42053699 -0.33503723 -0.33675909 0
0.48812294 -0.40640259 -0.33103943 0
0.55679035 -0.4836731 -0.35234022 0
0.48877048 -0.2800827 -0.35636854 0
0.53906441 -0.29546356 -0.32326698 0
0.50363445 -0.11636353 -0.38808203 0
0.54974365 -0.19726944 -0.36870623 0
0.56381035 -0.24303436 -0.36724472 0
0.54807663 -0.053955078 -0.36971855 0
0.57196808 -0.11447525 -0.3625474 0
0.58892536 0.022453308 -0.38597631 0
0.65842724 -0.012825012 -0.36312389 0
0.73468781 0.026622772 -0.4776125 0
0.79953766 -0.012176514 -0.4564085 0
0.779562 0.057525635 -0.50737572 0
0.84828663 0.023685455 -0.49302816 0
0.91108704 0.018692017 -0.52310371 0
0.98076534 0.016975403 -0.55164528 0
0.53815651 -0.39700317 -0.27679396 0
0.57656765 -0.4671669 -0.29055548 0
0.5659647 -0.26249313 -0.30904531 0
0.57407188 -0.32117462 -0.27115917 0
0.5985918 -0.18703461 -0.29065228 0
0.61262226 -0.24996185 -0.29022646 0
0.61143208 -0.047893524 -0.33212328 0
0.63535595 -0.11420059 -0.2928524 0
0.62032604 -0.030014038 -0.32613611 0
0.70662498 -0.050502777 -0.31998205 0
0.77467442 -0.032184601 -0.31826353 0
0.84481239 -0.037895203 -0.38179302 0
0.8962431 0.0020065308 -0.43591881 0
0.94708443 -0.028865814 -0.41197824 0
0.59985638 -0.41096497 -0.18260431 0
0.63165665 -0.45240021 -0.21143866 0
0.69987869 -0.49497604 -0.22253942 0
0.62909698 -0.33241653 -0.19385004 0
0.66192818 -0.40731812 -0.17957687 0
0.65068913 -0.19732666 -0.20854521 0
0.65662479 -0.25735092 -0.20319271 0
0.69252586 -0.1490097 -0.21264219 0
0.73146915 -0.15415192 -0.20062542 0
0.73764896 -0.092880249 -0.26603842 0
0.78780746 -0.094993591 -0.24460316 0
0.86855507 -0.064571381 -0.29350424 0
0.95040894 -0.061664581 -0.29873562 0
0.97962666 -0.047454834 -0.34343243 0
0.67977047 -0.43879318 -0.12154627 0
0.74487209 -0.4838295 -0.11071968 0
0.68804932 -0.34281921 -0.11379051 0
0.7116251 -0.41618729 -0.12657118 0
0.75803566 -0.4844017 -0.11871576 0
0.70483398 -0.19723511 -0.12709522 0
0.70996857 -0.25903702 -0.11536121 0
0.73400688 -0.16433334 -0.13611603 0
0.76822281 -0.16548538 -0.12308121 0
0.84018993 -0.11437607 -0.16429996 0
0.9081707 -0.083213806 -0.19956446 0
0.98334217 -0.085693359 -0.1993103 0
0.72215748 -0.44506073 -0.026594639 0
0.72913551 -0.35151672 -0.022183418 0
0.75318909 -0.4014473 -0.028667927 0
0.75469875 -0.2693367 -0.027369022 0
0.75819969 -0.17770386 -0.070864201 0
0.8042593 -0.17871475 -0.040192604 0
0.88685799 -0.12689209 -0.075247765 0
0.95291138 -0.099815369 -0.096521854 0
0.80692196 -0.48712921 0.071023464 0
0.78588009 -0.34239197 0.077375412 0
0.7979641 -0.40748978 0.052308083 0
0.86408138 -0.47399139 0.063434124 0
0.80565071 -0.27975082 0.055344582 0
0.8153677 -0.34897614 0.030483723 0
0.84658146 -0.18864059 0.042321682 0
0.92831707 -0.14198303 0.012559414 0
0.85112381 -0.49774933 0.12885141 0
0.82265377 -0.35177612 0.14501381 0
0.85354424 -0.40563965 0.15019751 0
0.88724804 -0.47657776 0.12441826 0
0.85634518 -0.28167343 0.14895248 0
0.86968994 -0.3537674 0.19241667 0
0.89999676 -0.20203781 0.13342857 0
0.97250175 -0.14380646 0.097670555 0
0.89671421 -0.40785599 0.22026825 0
0.94479084 -0.49226379 0.20688963 0
0.88308334 -0.30903244 0.22028255 0
0.89716816 -0.33751297 0.21106625 0
0.94130993 -0.21068954 0.20093346 0
0.12631607 -0.39516449 -0.35740709 0
0.16964722 -0.46772003 -0.38406944 0
0.179533 -0.33148193 -0.37739372 0
0.24529266 -0.26253891 -0.40028763 0
0.31161308 -0.18968201 -0.42902231 0
0.35103321 -0.16639709 -0.43644619 0
0.39462757 -0.13393021 -0.46347952 0
0.39696503 0.043502808 -0.44782209 0
0.40975475 -0.016139984 -0.46246481 0
0.46165657 -0.10694504 -0.47780561 0
0.52543545 -0.15552902 -0.58272123 0
0.43393993 0.10389709 -0.45842648 0
0.4381628 0.066806793 -0.46003294 0
0.49627781 0.19427109 -0.49432802 0
0.53787041 0.18638992 -0.4960885 0
0.54089546 0.21767426 -0.51323318 0
0.58786392 0.21928024 -0.52924109 0
0.6767683 0.28052521 -0.62690783 0
0.7316103 0.24794006 -0.64055777 0
0.78959846 0.17313766 -0.63615084 0
0.8798399 0.10625458 -0.65611935 0
0.681633 0.43267822 -0.62171507 0
0.70934868 0.36138535 -0.63429117 0
0.78557873 0.29707718 -0.64705992 0
0.86602879 0.2391243 -0.658319 0
0.92400169 0.15978622 -0.66487551 0
0.96831512 0.0884552 -0.67867422 0
0.77182579 0.44193268 -0.64628601 0
0.83962536 0.3770256 -0.660779 0
0.92602253 0.30355835 -0.66662407 0
0.98369884 0.24785995 -0.68218374 0
0.91212845 0.43948746 -0.68331814 0
0.98063564 0.38179779 -0.69553041 0
0.15601349 -0.38874817 -0.34043503 0
0.19321442 -0.42898941 -0.34498549 0
0.19914818 -0.34122467 -0.35585928 0
0.25056076 -0.37168503 -0.33121347 0
0.32855225 -0.45401764 -0.35337114 0
0.26737595 -0.26239395 -0.38613367 0
0.31925583 -0.30635071 -0.35775042 0
0.38487244 -0.3466301 -0.35065937 0
0.31191444 -0.21031952 -0.40126848 0
0.37679863 -0.22698975 -0.39031458 0
0.45372963 -0.27537918 -0.38378286 0
0.41613293 -0.084125519 -0.42823839 0
0.44371033 -0.15652084 -0.42302322 0
0.51311779 -0.20973969 -0.4037466 0
0.3803196 0.043205261 -0.43107319 0
0.44745255 -0.025268555 -0.41104078 0
0.49632454 -0.091968536 -0.41378975 0
0.45702934 0.11540222 -0.45512199 0
0.49664021 0.065177917 -0.42722034 0
0.59042358 0.057254791 -0.41082191 0
0.5444622 0.14408875 -0.46971703 0
0.64146614 0.086372375 -0.50433254 0
0.73676586 0.025772095 -0.48699713 0
0.60928726 0.1852417 -0.49689722 0
0.68580055 0.12424469 -0.51968861 0
0.74991322 0.067779541 -0.51977682 0
0.87744045 0.035469055 -0.5605979 0
0.93478966 0.098114014 -0.64552355 0
0.94666958 0.018203735 -0.60439587 0
0.95896339 0.139431 -0.66048002 0
0.37611198 -0.46982574 -0.32619905 0
0.38942242 -0.31479645 -0.34108448 0
0.41761017 -0.36462402 -0.32602262 0
0.48956299 -0.44598389 -0.31275797 0
0.49358749 -0.30646515 -0.33130836 0
0.5304842 -0.155056 -0.34250164 0
0.55726337 -0.23147202 -0.35062265 0
0.5536871 -0.088840485 -0.34896612 0
0.57569695 -0.1635437 -0.35261154 0
0.54973221 0.023406982 -0.38810158 0
0.59342575 -0.009979248 -0.36413193 0
0.64819527 0.017967224 -0.40033436 0
0.74278545 -0.0043144226 -0.42057896 0
0.80364418 -0.031852722 -0.43329954 0
0.85087681 -0.0054740906 -0.47537994 0
0.92090607 -0.021057129 -0.49021864 0
0.49676514 -0.38018799 -0.27922297 0
0.54477596 -0.43424606 -0.25994062 0
0.56144714 -0.32300568 -0.26169348 0
0.57713985 -0.35103989 -0.24977303 0
0.60475254 -0.24060822 -0.27181673 0
0.6218729 -0.27699661 -0.26043892 0
0.61343479 -0.095596313 -0.30046511 0
0.63253307 -0.14286423 -0.27113104 0
0.63405704 -0.047534943 -0.31527281 0
0.7196722 -0.074287415 -0.30347204 0
0.80050468 -0.096038818 -0.29900742 0
0.76754475 -0.036933899 -0.31760359 0
0.85970211 -0.060333252 -0.36063528 0
0.89332676 -0.035869598 -0.39871407 0
0.96285915 -0.061294556 -0.3759551 0
0.60589981 -0.44743729 -0.18921041 0
0.64383411 -0.49349213 -0.20281029 0
0.62748718 -0.36948776 -0.17721653 0
0.67637539 -0.42797089 -0.16307068 0
0.65802097 -0.24079895 -0.19114208 0
0.6590786 -0.29078293 -0.176682 0
0.69315052 -0.16836929 -0.19565535 0
0.76974964 -0.10587311 -0.24323034 0
0.7985487 -0.12454987 -0.20697546 0
0.80845642 -0.059204102 -0.27776194 0
0.89013004 -0.085132599 -0.26178789 0
0.94371128 -0.05758667 -0.30999136 0
0.9926157 -0.071479797 -0.35224152 0
0.64954853 -0.46157455 -0.12380505 0
0.68412781 -0.37562943 -0.086889744 0
0.70743942 -0.45559311 -0.094259262 0
0.71656704 -0.23836136 -0.088021278 0
0.70224762 -0.29185486 -0.094610691 0
0.73421192 -0.19099045 -0.11000061 0
0.80007076 -0.17645645 -0.094025612 0
0.78270149 -0.1564064 -0.14875126 0
0.83904648 -0.13262177 -0.13971329 0
0.93250179 -0.10313034 -0.17538738 0
0.73700047 -0.37498856 -0.008310318 0
0.75532913 -0.45155716 -0.015049458 0
0.74974346 -0.24441528 -0.011085033 0
0.75742722 -0.30103683 -0.0015001297 0
0.78861904 -0.1987915 -0.018756866 0
0.81333065 -0.20835876 -0.026006222 0
0.88368607 -0.14598846 -0.053770542 0
0.95404625 -0.1179924 -0.076052189 0
0.7692852 -0.37220764 0.059296131 0
0.80904102 -0.42957687 0.06901741 0
0.76264191 -0.26876831 0.054315567 0
0.80443954 -0.31272125 0.082241535 0
0.81697655 -0.21613693 0.061498642 0
0.85297585 -0.21730423 0.070681572 0
0.91883278 -0.16150284 0.035057068 0
0.99785519 -0.13325882 0.011607647 0
0.82817936 -0.39384842 0.16008806 0
0.85976028 -0.45071793 0.15335417 0
0.84923363 -0.31819916 0.17304468 0
0.88095951 -0.38876724 0.16445589 0
0.89238548 -0.22625732 0.15223074 0
0.9697113 -0.16981125 0.1282506 0
0.85608006 -0.38632965 0.23013926 0
0.90547943 -0.46519852 0.24390125 0
0.90074635 -0.32730865 0.2592206 0
0.91714191 -0.395504 0.24937344 0
0.93894291 -0.23992538 0.24109316 0
0.89475155 -0.38610077 0.3215785 0
0.94508171 -0.44994736 0.30547428 0
0.90709591 -0.34695816 0.31128979 0
0.93053722 -0.41362762 0.30664015 0
0.98762035 -0.22869492 0.29209948 0
0.428339 -0.18559265 -0.56187057 0
0.47465229 -0.11446762 -0.58193922 0
0.62289619 0.33081055 -0.61695194 0
0.64407349 0.40047455 -0.61970949 0
0.68797302 0.31291199 -0.63924456 0
0.69998455 0.44604874 -0.6423974 0
0.11737061 -0.3924942 -0.36797667 0
0.17991829 -0.31729126 -0.38515139 0
0.24333763 -0.24783325 -0.41098928 0
0.30820847 -0.19083023 -0.43157911 0
0.38030434 -0.15569687 -0.4459672 0
0.44019032 -0.16350555 -0.51955223 0
0.46503353 -0.2106781 -0.55499268 0
0.38418961 0.034988403 -0.45060778 0
0.40967655 -0.019100189 -0.45401144 0
0.47104359 -0.11571884 -0.52045774 0
0.54670334 -0.15911102 -0.58553314 0
0.42790699 0.099452972 -0.46594524 0
0.43131733 0.21631241 -0.48151731 0
0.47747993 0.17168808 -0.4852457 0
0.4820137 0.25901413 -0.51598501 0
0.54866695 0.23495483 -0.52868223 0
0.59491539 0.19047928 -0.50623178 0
0.6482687 0.24335098 -0.58889675 0
0.75700283 0.21265793 -0.63659143 0
0.82674122 0.13028717 -0.64297104 0
0.91651154 0.078987122 -0.65189314 0
0.61155891 0.46430588 -0.59190035 0
0.68599129 0.38502502 -0.62383366 0
0.73164654 0.32926178 -0.63875675 0
0.80275822 0.26233673 -0.64526844 0
0.88757229 0.19259262 -0.65827179 0
0.9654274 0.14845657 -0.66845608 0
0.71012688 0.48041534 -0.62556505 0
0.79646301 0.41869354 -0.65209961 0
0.86747074 0.34449768 -0.65962076 0
0.93722534 0.27702332 -0.66921425 0
0.86330795 0.47698212 -0.66919518 0
0.92053318 0.42835999 -0.68229198 0
0.99936581 0.37034607 -0.69468212 0
0.99763393 0.47750854 -0.71016026 0
0.16226006 -0.40327835 -0.33164263 0
0.2152462 -0.46976852 -0.34028435 0
0.22191429 -0.3563652 -0.33881903 0
0.29728317 -0.38492584 -0.33256626 0
0.3455143 -0.47971344 -0.3501668 0
0.2798233 -0.27122498 -0.37368774 0
0.3465786 -0.33134079 -0.34660959 0
0.34715843 -0.20459366 -0.39959335 0
0.39237213 -0.26215363 -0.37513208 0
0.46827984 -0.27653122 -0.38721609 0
0.46113491 -0.17539978 -0.41567516 0
0.50689411 -0.24472427 -0.39859295 0
0.42727566 0.020298004 -0.41489124 0
0.4653368 -0.045280457 -0.40393066 0
0.50750637 -0.11438751 -0.40973377 0
0.46993732 0.076778412 -0.43212271 0
0.52142239 0.032794952 -0.40234709 0
0.5213213 0.1401329 -0.46297503 0
0.55483818 0.11677551 -0.45213223 0
0.64980125 0.048927307 -0.49208164 0
0.73530197 0.00074768066 -0.47738314 0
0.59547901 0.17153931 -0.48345518 0
0.71270943 0.083759308 -0.51785469 0
0.77308369 0.040588379 -0.50520468 0
0.85888386 0.011188507 -0.51613569 0
0.94259262 0.038352966 -0.61259508 0
0.38692474 -0.49354172 -0.31972122 0
0.44416904 -0.4007225 -0.30833197 0
0.51690197 -0.46612549 -0.30369186 0
0.43455982 -0.31546402 -0.33279514 0
0.49642658 -0.31467819 -0.32504463 0
0.5370369 -0.18625641 -0.34875822 0
0.56016159 -0.25549316 -0.33015394 0
0.5175209 -0.070068359 -0.34832573 0
0.56209183 -0.11352921 -0.33333683 0
0.60099983 -0.18529892 -0.31375933 0
0.56689358 -0.0061225891 -0.36857414 0
0.62373161 -0.036178589 -0.34184027 0
0.69883633 -0.059421539 -0.3428731 0
0.66429234 0.0026435852 -0.37196541 0
0.78974628 -0.045566559 -0.4135561 0
0.85021019 -0.042461395 -0.40639353 0
0.82792759 -0.013725281 -0.4633894 0
0.86919308 -0.021022797 -0.46333265 0
0.977952 -0.033031464 -0.46820879 0
0.55121326 -0.45938492 -0.24978971 0
0.57283211 -0.34314346 -0.24928474 0
0.59468937 -0.39651871 -0.22259712 0
0.61604309 -0.26760864 -0.2558012 0
0.6241045 -0.13499451 -0.2784543 0
0.65449905 -0.16870117 -0.25086737 0
0.64698505 -0.07339859 -0.29785252 0
0.72958946 -0.090251923 -0.2868886 0
0.77481174 -0.055934906 -0.29790878 0
0.8638401 -0.075363159 -0.33714199 0
0.91226673 -0.059257507 -0.36932802 0
0.61245632 -0.46601105 -0.18233252 0
0.61092567 -0.36027145 -0.17312574 0
0.63342476 -0.40354156 -0.15927982 0
0.69485378 -0.49241257 -0.16843271 0
0.6612978 -0.27098083 -0.16948509 0
0.67377472 -0.32971954 -0.16027164 0
0.70080566 -0.18169022 -0.17606544 0
0.788764 -0.1289444 -0.20663786 0
0.83559132 -0.087593079 -0.23546076 0
0.91413975 -0.095050812 -0.25579977 0
0.68905735 -0.40921021 -0.084560394 0
0.74253464 -0.46316528 -0.099164486 0
0.71441841 -0.27170944 -0.07500267 0
0.7145853 -0.3343811 -0.075451374 0
0.75577354 -0.19992065 -0.088951588 0
0.83278847 -0.14855576 -0.12485313 0
0.86938286 -0.10954666 -0.14488029 0
0.92658138 -0.11614227 -0.15563726 0
0.75799465 -0.40092087 0.01098156 0
0.7845583 -0.47257614 -0.016393185 0
0.75667381 -0.28361893 0.0068006516 0
0.76151848 -0.33149719 0.011719704 0
0.80021667 -0.20998001 -0.0051631927 0
0.8389082 -0.23106766 0.011840343 0
0.86542511 -0.16231537 -0.039339066 0
0.8897438 -0.16430664 -0.020448208 0
0.95329952 -0.12811661 -0.067639351 0
0.79561996 -0.40591812 0.10009861 0
0.83183002 -0.4800148 0.079531193 0
0.88876247 -0.4968605 0.078022003 0
0.80469322 -0.32848358 0.098957539 0
0.84612942 -0.2237854 0.084527016 0
0.83508205 -0.26587677 0.08177948 0
0.88659382 -0.19295502 0.089199066 0
0.92700958 -0.17214966 0.057007313 0
0.85535622 -0.46634674 0.18460274 0
0.83578491 -0.27977371 0.15625238 0
0.85642052 -0.34585571 0.17884731 0
0.89704704 -0.40274811 0.20188761 0
0.88199902 -0.22885513 0.1624341 0
0.90695953 -0.24500656 0.17538881 0
0.96645641 -0.18596268 0.15486431 0
0.90291119 -0.46469498 0.26301956 0
0.90186787 -0.35028076 0.27720118 0
0.93321133 -0.41986084 0.2842145 0
0.93767834 -0.25782013 0.26628494 0
0.95492935 -0.46906662 0.34465456 0
0.95517826 -0.35738754 0.33844137 0
0.97115898 -0.45075607 0.33772326 0
0.9781723 -0.27320099 0.33776188 0
0.024814606 -0.49505997 -0.4186945 0
0.19348145 -0.21364594 -0.45921898 0
0.31561089 -0.20801926 -0.5407815 0
0.35621834 -0.2061882 -0.54010201 0
0.37056541 -0.1354332 -0.55389738 0
0.42877007 -0.18165588 -0.5600729 0
0.41490173 -0.079902649 -0.56629801 0
0.47877121 -0.11175919 -0.58149815 0
0.40640545 0.17948151 -0.52386713 0
0.5692091 0.27793884 -0.60067177 0
0.56287289 0.37289429 -0.60174131 0
0.60142231 0.3216095 -0.61314487 0
0.68028736 0.26720428 -0.63102293 0
0.60554123 0.46917343 -0.61159086 0
0.68046951 0.39324188 -0.6339941 0
0.73654175 0.35627747 -0.65370607 0
0.74199867 0.46839142 -0.64356613 0
0.82425117 0.42121124 -0.67755604 0
0.024827957 -0.4242363 -0.38841629 0
0.081827164 -0.4849205 -0.41007042 0
0.072828293 -0.36035156 -0.3962779 0
0.11475563 -0.39412689 -0.36672068 0
0.16725349 -0.45998383 -0.37968111 0
0.12927055 -0.2985611 -0.40842772 0
0.1774559 -0.32083511 -0.38014698 0
0.19501495 -0.23244476 -0.4320178 0
0.24767494 -0.24485016 -0.400249 0
0.2550087 -0.16896057 -0.46452475 0
0.30826378 -0.17786789 -0.43352413 0
0.40725231 -0.12147903 -0.45840645 0
0.48801804 -0.20134735 -0.55878019 0
0.343503 0.08939743 -0.48083448 0
0.37239265 0.03087616 -0.46002197 0
0.43376827 -0.069438934 -0.47408104 0
0.46786785 -0.10607529 -0.46907616 0
0.54087162 -0.15771484 -0.58221483 0
0.38603592 0.15072632 -0.49240112 0
0.43276215 0.10580444 -0.46345615 0
0.42855263 0.23694611 -0.49941778 0
0.49844456 0.17378616 -0.48731899 0
0.59889698 0.11755753 -0.49594641 0
0.49665356 0.25901794 -0.51891422 0
0.55666924 0.22708893 -0.51359224 0
0.61619663 0.18887329 -0.50246382 0
0.70897293 0.11846161 -0.53411961 0
0.60743427 0.27702332 -0.56948185 0
0.70328808 0.27768707 -0.62725544 0
0.75764942 0.20604706 -0.64551115 0
0.83214378 0.14420319 -0.65157223 0
0.94314957 0.064094543 -0.6748333 0
0.97440338 0.03421402 -0.66897535 0
0.77523994 0.31290436 -0.65178919 0
0.81187057 0.24544907 -0.65357304 0
0.9080143 0.18946838 -0.66096258 0
0.97093964 0.11900711 -0.67504644 0
0.82473946 0.38185501 -0.66163826 0
0.87807083 0.32470703 -0.66770077 0
0.94805431 0.27459335 -0.67411232 0
0.86144161 0.47817993 -0.67412043 0
0.94160557 0.40807724 -0.6892128 0
0.99085617 0.49149323 -0.72057962 0
0.16263771 -0.40452194 -0.32622862 0
0.23388672 -0.47011566 -0.34934187 0
0.21839333 -0.35723495 -0.33995962 0
0.30804443 -0.39915466 -0.33889103 0
0.35642624 -0.47477341 -0.33740854 0
0.28999519 -0.28461456 -0.36700964 0
0.36495972 -0.32575226 -0.34585238 0
0.39950752 -0.43238831 -0.34261656 0
0.35878658 -0.21232224 -0.39479351 0
0.43059063 -0.26935959 -0.37483931 0
0.43671227 -0.14588165 -0.42434406 0
0.49010944 -0.19263458 -0.40332794 0
0.51837826 -0.24383926 -0.39115572 0
0.45294189 0.029109955 -0.41218615 0
0.47566795 -0.052837372 -0.40079403 0
0.52602863 -0.12005997 -0.40526009 0
0.48349953 0.067256927 -0.42444372 0
0.53076077 0.026832581 -0.40049744 0
0.51667881 0.13090515 -0.45688915 0
0.60225487 0.076049805 -0.43046236 0
0.70124912 0.043411255 -0.49347353 0
0.76797199 -0.0040245056 -0.47826242 0
0.63044453 0.17792892 -0.48598051 0
0.72264862 0.075885773 -0.51997566 0
0.81449127 0.033794403 -0.51245594 0
0.9097414 0.016853333 -0.52170753 0
0.93454933 0.023452759 -0.56278467 0
0.39319801 -0.49345016 -0.31886053 0
0.41887665 -0.33274841 -0.32381201 0
0.46164894 -0.40649033 -0.31286955 0
0.51446342 -0.47660065 -0.31341648 0
0.45089912 -0.304039 -0.33105946 0
0.51726723 -0.31340027 -0.31455946 0
0.55644798 -0.19729996 -0.32900238 0
0.56451702 -0.24465942 -0.32829094 0
0.54457951 -0.064617157 -0.34954357 0
0.57344437 -0.12017441 -0.32870817 0
0.59749317 -0.18886948 -0.36333466 0
0.57818031 -0.011310577 -0.35488319 0
0.64977455 -0.042892456 -0.33027935 0
0.67824078 0.018688202 -0.37832928 0
0.79349899 -0.036579132 -0.41068792 0
0.84992313 -0.009727478 -0.43956804 0
0.89585304 -0.014968872 -0.42774773 0
0.54889202 -0.42075729 -0.22572136 0
0.58123207 -0.46183777 -0.2534461 0
0.5691824 -0.34573364 -0.23861313 0
0.60272789 -0.41291809 -0.22116947 0
0.57257462 -0.19802094 -0.27593994 0
0.6168642 -0.25120926 -0.2483387 0
0.63199615 -0.14281845 -0.25797844 0
0.66578484 -0.17235565 -0.23254776 0
0.69885254 -0.085990906 -0.29115248 0
0.74385548 -0.090824127 -0.26979256 0
0.81983757 -0.058624268 -0.32151699 0
0.90322876 -0.070526123 -0.31082249 0
0.91974163 -0.05198288 -0.37326813 0
0.58292866 -0.42144012 -0.15492773 0
0.67089558 -0.48015594 -0.14525318 0
0.62753391 -0.35052872 -0.15705967 0
0.63795567 -0.41495895 -0.15484571 0
0.72897339 -0.45971298 -0.16171741 0
0.6622467 -0.26855087 -0.16604567 0
0.66762447 -0.16672516 -0.18806458 0
0.70168591 -0.18460083 -0.15774298 0
0.78403854 -0.12193298 -0.19860411 0
0.84619617 -0.078350067 -0.22383928 0
0.93175316 -0.086963654 -0.24188232 0
0.66126442 -0.36263657 -0.098446369 0
0.71051598 -0.40239334 -0.066945553 0
0.74532318 -0.47852707 -0.12409258 0
0.71202278 -0.2931366 -0.070980549 0
0.71363354 -0.34648514 -0.078914165 0
0.74690533 -0.19395447 -0.082380772 0
0.83645916 -0.13637924 -0.10963058 0
0.878932 -0.10088348 -0.13444328 0
0.9541235 -0.094741821 -0.15182734 0
0.75277615 -0.41082764 0.0080103874 0
0.81022263 -0.4352684 0.012043953 0
0.75969696 -0.28069305 0.01497364 0
0.75580788 -0.34664536 0.015252113 0
0.82782936 -0.42694092 0.023668766 0
0.80032063 -0.20389557 0.0078468323 0
0.87471867 -0.15210724 -0.021356106 0
0.93090439 -0.13834 -0.0049529076 0
0.9170723 -0.11776733 -0.047604561 0
0.98902035 -0.12675095 -0.062159061 0
0.79531193 -0.41054153 0.095495701 0
0.82600594 -0.47732162 0.094096184 0
0.79631805 -0.29526138 0.093537807 0
0.81764984 -0.34281158 0.10246563 0
0.8416872 -0.22953033 0.097048283 0
0.91827583 -0.15965652 0.059850693 0
0.95486259 -0.15941238 0.085210323 0
0.93478394 -0.12135696 0.014264584 0
0.85782146 -0.42622757 0.20704222 0
0.8905983 -0.48505783 0.1548419 0
0.84247112 -0.30011368 0.1870451 0
0.86156368 -0.34773254 0.19093418 0
0.90335083 -0.45330811 0.12330675 0
0.89454269 -0.22830582 0.18105888 0
0.89342403 -0.26928329 0.16835451 0
0.94333649 -0.18315125 0.16551495 0
0.90906143 -0.34561539 0.28506708 0
0.93369675 -0.42679596 0.27089548 0
0.93034172 -0.24193954 0.26745367 0
0.93997383 -0.27195358 0.27311516 0
0.97868156 -0.4859314 0.33650637 0
0.94955826 -0.35835648 0.36857033 0
0.98456383 -0.4288559 0.37233067 0
0.97857761 -0.26591873 0.36019611 0
0.97676373 -0.36050034 0.43216276 0
-0.073682785 -0.49757004 -0.39588308 0
-0.02837944 -0.4474411 -0.40995932 0
0.047924042 -0.36348343 -0.41570377 0
0.11884499 -0.2838707 -0.45593786 0
0.17258453 -0.23767471 -0.4676218 0
0.23115921 -0.26594162 -0.50803804 0
0.22924232 -0.1521492 -0.51360941 0
0.30073547 -0.20586014 -0.52326345 0
0.37067795 -0.23371124 -0.54453707 0
0.26723862 0.010372162 -0.50044823 0
0.28845215 -0.048347473 -0.52531338 0
0.35479546 -0.11823654 -0.54450512 0
0.43994999 -0.18418121 -0.55776548 0
0.31057835 0.070819855 -0.4988718 0
0.30718899 0.011997223 -0.47967386 0
0.42614174 -0.07932663 -0.5733552 0
0.49084854 -0.12291336 -0.57481766 0
0.5455637 -0.17137146 -0.58408403 0
0.33663559 0.22714615 -0.50687361 0
0.3627367 0.1602478 -0.51060581 0
0.3596735 0.27558517 -0.5135355 0
0.39688015 0.24954987 -0.51138115 0
0.42828846 0.34397125 -0.55463409 0
0.47108269 0.30679703 -0.54980516 0
0.55049706 0.26159286 -0.55825853 0
0.47517395 0.44373322 -0.56689119 0
0.54440975 0.3865242 -0.58862782 0
0.60465145 0.31074905 -0.60439062 0
0.70679092 0.26556396 -0.63287115 0
0.77719975 0.21312714 -0.64642286 0
0.8208065 0.16766357 -0.66214085 0
0.60368729 0.45286179 -0.5989151 0
0.67818928 0.38736343 -0.62168455 0
0.76018333 0.32369614 -0.64531708 0
0.80228901 0.28382492 -0.65428591 0
0.74697018 0.44235992 -0.63976097 0
0.81925583 0.39536667 -0.66067171 0
0.88794327 0.45638657 -0.68034887 0
0.033411026 -0.43993759 -0.38534403 0
0.094205856 -0.36516953 -0.38859653 0
0.13527298 -0.40687561 -0.36451578 0
0.20935249 -0.49208832 -0.36197662 0
0.14942741 -0.29372406 -0.41381311 0
0.19225883 -0.3314743 -0.37203741 0
0.20821381 -0.23707199 -0.43868685 0
0.24681473 -0.25546646 -0.40154457 0
0.32034492 -0.1897316 -0.43038607 0
0.31765461 -0.010505676 -0.4672513 0
0.40820694 -0.14596558 -0.45130491 0
0.45473003 -0.15218735 -0.43301344 0
0.35153675 0.071327209 -0.4639039 0
0.38528061 0.026615143 -0.46053123 0
0.45833206 -0.059486389 -0.46020412 0
0.49739361 -0.088680267 -0.47317266 0
0.58136082 -0.19226456 -0.581954 0
0.40744019 0.1495285 -0.48945379 0
0.4490099 0.094306946 -0.45658541 0
0.4361105 0.21202087 -0.49389935 0
0.51980495 0.15259933 -0.47653246 0
0.60132885 0.10815048 -0.48176813 0
0.47588444 0.26839447 -0.51779175 0
0.55306435 0.22403336 -0.51574183 0
0.64332676 0.15620804 -0.49391031 0
0.73129272 0.089427948 -0.52745771 0
0.63325787 0.25373077 -0.5719533 0
0.80591679 0.17897034 -0.64477253 0
0.8614378 0.12700653 -0.64970016 0
0.92153168 0.050754547 -0.64987278 0
0.9817791 0.038448334 -0.66747856 0
0.83009815 0.25484848 -0.64155769 0
0.91706371 0.19207764 -0.66844368 0
0.9820776 0.11793518 -0.66898537 0
0.87714672 0.4080162 -0.66366911 0
0.89066696 0.32194901 -0.66388941 0
0.9752636 0.23857117 -0.6679225 0
0.88719177 0.48466873 -0.66816854 0
0.96396828 0.40789032 -0.69700956 0
0.19059944 -0.40768051 -0.30042219 0
0.2568531 -0.49518967 -0.33729792 0
0.2539978 -0.35779953 -0.34180403 0
0.29637527 -0.39495087 -0.33353186 0
0.37129784 -0.48776627 -0.32801628 0
0.29413223 -0.30401993 -0.35753155 0
0.36836624 -0.34170532 -0.33827829 0
0.365242 -0.2369957 -0.38043213 0
0.44989967 -0.27822876 -0.37227488 0
0.50814533 -0.27838135 -0.35697508 0
0.47074223 -0.13600922 -0.40615463 0
0.48110867 -0.18863297 -0.40217686 0
0.53522301 -0.25577545 -0.37867928 0
0.43824196 -0.0047492981 -0.41563559 0
0.49880981 -0.046970367 -0.3905406 0
0.54400063 -0.13568115 -0.38706636 0
0.48002338 0.041400909 -0.41049862 0
0.55775833 0.028869629 -0.39940166 0
0.5431385 0.10777664 -0.4437418 0
0.61177635 0.046112061 -0.40617132 0
0.6941309 0.030567169 -0.47057343 0
0.7564621 0.0014419556 -0.47139692 0
0.74981785 0.056034088 -0.50581074 0
0.81184196 0.020206451 -0.49419165 0
0.88150501 0.0043907166 -0.52066374 0
0.91978168 0.0038719177 -0.5533247 0
0.4072094 -0.37517929 -0.29897881 0
0.46076298 -0.40933609 -0.32022905 0
0.52799416 -0.48707581 -0.31279182 0
0.52692795 -0.33792114 -0.30630064 0
0.5653944 -0.40817642 -0.28870201 0
0.54899979 -0.19747162 -0.32574606 0
0.58542538 -0.26482773 -0.31048679 0
0.59350777 -0.12790298 -0.31726885 0
0.61637402 -0.21060562 -0.33697557 0
0.57729053 -0.040493011 -0.34451246 0
0.64810371 -0.050514221 -0.32978296 0
0.73589134 -0.026802063 -0.34149122 0
0.80803585 -0.041397095 -0.4206419 0
0.86268234 -0.031253815 -0.41500568 0
0.9032526 -0.03465271 -0.44084692 0
0.58155441 -0.45066833 -0.24222183 0
0.59102917 -0.35677719 -0.21509552 0
0.61669064 -0.42806625 -0.22099113 0
0.63925648 -0.26642609 -0.24242067 0
0.65331936 -0.15460205 -0.23977804 0
0.6716423 -0.18971634 -0.23398066 0
0.68727684 -0.11414337 -0.28530455 0
0.74403572 -0.09860611 -0.26934528 0
0.81152821 -0.070198059 -0.29574442 0
0.89803314 -0.077648163 -0.32407093 0
0.94354439 -0.058570862 -0.35665894 0
0.64148426 -0.47040558 -0.162076 0
0.63411713 -0.36328506 -0.14946747 0
0.65335751 -0.41474915 -0.13471079 0
0.68296909 -0.27985001 -0.15017366 0
0.70567608 -0.32337952 -0.1252408 0
0.67940426 -0.17660522 -0.16882324 0
0.72654533 -0.1894455 -0.14374876 0
0.80714989 -0.13357544 -0.18595314 0
0.86031532 -0.094741821 -0.20894814 0
0.94505501 -0.097595215 -0.23084879 0
0.69867229 -0.34739685 -0.07063961 0
0.70887947 -0.41800308 -0.052062035 0
0.72275448 -0.29315948 -0.065865993 0
0.73428726 -0.35407257 -0.055177689 0
0.76502895 -0.20910263 -0.064865112 0
0.8620472 -0.14334106 -0.097285271 0
0.88919258 -0.10003662 -0.1466589 0
0.9634161 -0.11146164 -0.14939785 0
0.76198292 -0.39851379 0.016402721 0
0.8143959 -0.48730469 0.013223171 0
0.77055168 -0.29337692 0.023109436 0
0.78475571 -0.35719299 0.033988476 0
0.81384563 -0.21072006 0.015695572 0
0.88997173 -0.15945053 -0.010378361 0
0.94305706 -0.14494324 0.020117283 0
0.99413776 -0.12837219 -0.03894186 0
0.8124609 -0.42044067 0.10609722 0
0.8710022 -0.47571945 0.12886047 0
0.82178783 -0.30206299 0.1238451 0
0.83042336 -0.34580994 0.12194443 0
0.87651062 -0.41334152 0.1133008 0
0.85236931 -0.23664093 0.10164785 0
0.9235096 -0.17897797 0.088273525 0
0.95023918 -0.17453003 0.084967136 0
0.84675217 -0.40870285 0.20921564 0
0.88305283 -0.44481659 0.19094849 0
0.87753201 -0.35385895 0.21236134 0
0.91622257 -0.44655228 0.22236586 0
0.90800953 -0.23836136 0.18947268 0
0.91492939 -0.26886368 0.2175169 0
0.9478035 -0.19171906 0.15943336 0
0.93507481 -0.47200012 0.28714132 0
0.92652321 -0.37590408 0.29763556 0
0.93093872 -0.44858551 0.26535654 0
0.95812321 -0.26592636 0.28156233 0
0.97809696 -0.49030685 0.37330818 0
0.97117615 -0.35828781 0.37094259 0
-0.27739143 -0.45320511 -0.34722853 0
-0.19727707 -0.37620163 -0.36759663 0
-0.14058304 -0.44807434 -0.3924861 0
-0.11301613 -0.28866959 -0.3932538 0
-0.074386597 -0.36497498 -0.40797043 0
-0.023252487 -0.42302322 -0.4150176 0
-0.074277878 -0.25384521 -0.41230536 0
-0.035514832 -0.30302429 -0.42310667 0
0.036161423 -0.32994843 -0.42824602 0
-0.022764206 -0.20185089 -0.42761564 0
0.041053772 -0.20753098 -0.46087265 0
0.10571289 -0.27254105 -0.44618368 0
0.071258545 -0.074306488 -0.4575367 0
0.081523895 -0.14408875 -0.47340679 0
0.18345451 -0.21453857 -0.48713112 0
0.24350929 -0.25414276 -0.52671719 0
0.11372948 -0.024799347 -0.48192072 0
0.14242554 -0.079437256 -0.48448896 0
0.22353554 -0.13047028 -0.51730967 0
0.30138397 -0.19599915 -0.5351305 0
0.35884285 -0.23919296 -0.53758669 0
0.17266464 0.070716858 -0.49344063 0
0.23710251 0.0091552734 -0.50752068 0
0.29994202 -0.065120697 -0.54450798 0
0.34613132 -0.11672974 -0.54914188 0
0.41444588 -0.17906189 -0.55572319 0
0.23110104 0.15128708 -0.49928427 0
0.29159451 0.077381134 -0.49557209 0
0.4193325 -0.075366974 -0.57685375 0
0.50684452 -0.13124847 -0.58733606 0
0.60733509 -0.15195847 -0.60959291 0
0.23842812 0.2596283 -0.50546312 0
0.29578209 0.23188782 -0.50725746 0
0.35036373 0.17107773 -0.51206398 0
0.29314232 0.34972763 -0.53016281 0
0.3427248 0.29642105 -0.52153015 0
0.41579723 0.24625397 -0.51896763 0
0.34219265 0.44405746 -0.53736734 0
0.40443516 0.35403824 -0.54962587 0
0.4850502 0.31154633 -0.5647068 0
0.47193336 0.44881058 -0.57007122 0
0.55459785 0.38881683 -0.59812737 0
0.6272068 0.32480621 -0.61934185 0
0.70107174 0.26308441 -0.63972759 0
0.62137508 0.46965408 -0.61040354 0
0.67706108 0.3963623 -0.62536573 0
0.73741055 0.33003616 -0.64973927 0
0.75413418 0.45500183 -0.64444447 0
0.037752151 -0.43083572 -0.38420439 0
0.089313507 -0.37478256 -0.37267637 0
0.15641212 -0.41661072 -0.36154318 0
0.15200424 -0.30006027 -0.39701128 0
0.21602058 -0.31661987 -0.37028074 0
0.22897911 -0.2259903 -0.42305279 0
0.25916672 -0.2561264 -0.39102173 0
0.29129791 -0.15962601 -0.45628786 0
0.33924961 -0.16758347 -0.43006897 0
0.40770531 -0.1243515 -0.46020985 0
0.34658432 0.079048157 -0.46695852 0
0.38932991 0.019794464 -0.45106792 0
0.47428989 -0.096530914 -0.46661663 0
0.40529633 0.1409111 -0.48190737 0
0.44203568 0.10055542 -0.45114851 0
0.44599724 0.24150848 -0.50325871 0
0.52924061 0.16790771 -0.48031187 0
0.63281631 0.087520599 -0.50697184 0
0.48904133 0.27292633 -0.52392435 0
0.57025909 0.23851013 -0.5369339 0
0.66505909 0.18201065 -0.55994081 0
0.75801468 0.13486862 -0.56273937 0
0.78050137 0.19660187 -0.64233112 0
0.87144089 0.089115143 -0.63693094 0
0.93980122 0.051010132 -0.66225815 0
0.99001026 0.034030914 -0.65911102 0
0.78399944 0.29023743 -0.64737415 0
0.86077404 0.25932693 -0.65754795 0
0.92237282 0.18808365 -0.67211533 0
0.99688911 0.1342392 -0.67692232 0
0.83229733 0.3826828 -0.65512037 0
0.90366077 0.34202576 -0.66808462 0
0.98701477 0.26654816 -0.68752909 0
0.9002409 0.4681778 -0.6840601 0
0.977458 0.38288498 -0.69033718 0
0.16075897 -0.38590622 -0.32865047 0
0.23190117 -0.35775375 -0.3352313 0
0.34180641 -0.42899323 -0.34750223 0
0.3694725 -0.48312378 -0.32895374 0
0.30736923 -0.28121948 -0.36571789 0
0.37332153 -0.33327103 -0.33796978 0
0.43342304 -0.42139816 -0.33966732 0
0.36484909 -0.22481918 -0.38412809 0
0.44152737 -0.27165222 -0.36747599 0
0.42047882 -0.17354584 -0.40702009 0
0.51316071 -0.19897842 -0.38744926 0
0.44422245 -0.0012779236 -0.4160552 0
0.49981594 -0.060714722 -0.3939085 0
0.51591301 -0.13876343 -0.42608929 0
0.49540043 0.063983917 -0.41846895 0
0.54391289 0.012207031 -0.38501596 0
0.59042263 0.11355209 -0.45604134 0
0.71254826 0.031147003 -0.49154186 0
0.78395176 -0.0043678284 -0.4699645 0
0.60212898 0.17768097 -0.47632599 0
0.75391388 0.063491821 -0.51221418 0
0.83673382 0.022521973 -0.50220919 0
0.91694164 0.0076560974 -0.52075148 0
0.93770313 0.046211243 -0.60981894 0
0.43244743 -0.34983444 -0.30392647 0
0.48376942 -0.41504669 -0.305686 0
0.54132748 -0.49957657 -0.3100996 0
0.50239182 -0.28919983 -0.33080101 0
0.53542042 -0.32356644 -0.29327297 0
0.56345749 -0.20582199 -0.31678772 0
0.57960701 -0.26251984 -0.30585003 0
0.54973698 -0.068969727 -0.35054064 0
0.58821678 -0.11948013 -0.30956221 0
0.60123253 -0.0096702576 -0.35141087 0
0.66700649 -0.032611847 -0.33336592 0
0.7500248 -0.019363403 -0.35776806 0
0.82053471 -0.033779144 -0.41175938 0
0.84975529 0.0040283203 -0.46149492 0
0.91211987 -0.028423309 -0.43023205 0
0.95568275 -0.0073738098 -0.51559114 0
0.5510788 -0.3978157 -0.24232292 0
0.57409 -0.46186066 -0.24782467 0
0.5801487 -0.34209824 -0.23606014 0
