# .PCD v0.7 - Point Cloud Data file format
VERSION 0.7
FIELDS x y z intensity
SIZE 4 4 4 4
TYPE F F F F
COUNT 1 1 1 1
WIDTH 1298
HEIGHT 1
VIEWPOINT 0 0 0 1 0 0 0
POINTS 1298
DATA ascii
0.20068169 0.36647987 -0.42669868 0
0.26383781 0.3622551 -0.41394877 0
-0.0033950806 0.48239517 -0.4360764 0
0.091033936 0.49579048 -0.42407131 0
0.16838455 0.4784832 -0.41583824 0
0.87541771 -0.42704391 -0.28313613 0
0.97650337 -0.37994194 -0.26384854 0
0.91859055 -0.35705757 -0.31788349 0
0.96279716 -0.30595207 -0.32615924 0
0.60867882 -0.19848824 -0.32175279 0
0.71190834 -0.19779587 -0.30845404 0
0.52304268 -0.08429718 -0.33899593 0
0.59924889 -0.10295296 -0.32507873 0
0.7011013 -0.11627388 -0.30399895 0
0.50280571 -0.0030479431 -0.34989309 0
0.60046005 -0.018335342 -0.31952929 0
0.68936157 -0.0078125 -0.29953766 0
0.76586342 -0.057655334 -0.30146432 0
0.42973518 0.081495285 -0.35835505 0
0.49146843 0.075784683 -0.34922624 0
0.59603691 0.088804245 -0.32762575 0
0.65561867 0.046072006 -0.30872917 0
0.40275192 0.18956757 -0.3623035 0
0.49814606 0.1793766 -0.34122968 0
0.58574867 0.1869278 -0.32281852 0
0.32291603 0.28773308 -0.37722111 0
0.41087532 0.28794479 -0.36778617 0
0.51330757 0.29357147 -0.3471179 0
0.048761368 0.37699127 -0.37278914 0
0.11721039 0.43403816 -0.39001703 0
0.23357391 0.3904953 -0.39822078 0
0.30951691 0.38811111 -0.38610911 0
0.40706253 0.38381577 -0.35797334 0
0.4912262 0.3747139 -0.36276531 0
0.13351822 0.48447227 -0.40032673 0
0.19730759 0.48822594 -0.39930177 0
0.31584167 0.49437141 -0.38484502 0
0.39565086 0.47302246 -0.37160516 0
0.77829552 -0.10032845 -0.26351142 0
0.71153259 -0.005853653 -0.28095007 0
0.8195343 0.0037651062 -0.26743054 0
0.65609169 0.13559341 -0.29189229 0
0.71102905 0.095134735 -0.29069138 0
0.785923 0.092552185 -0.26567793 0
0.89411736 0.12098312 -0.25721383 0
0.62346077 0.20026588 -0.2989645 0
0.71683693 0.20614433 -0.27978349 0
0.80674171 0.21268845 -0.26381445 0
0.53653145 0.29602814 -0.32533216 0
0.61348534 0.31604385 -0.30814505 0
0.70375061 0.29726028 -0.28693938 0
0.79269028 0.29503632 -0.26945877 0
0.42652702 0.44392586 -0.34156609 0
0.50966072 0.41292572 -0.33611798 0
0.61212349 0.40698242 -0.31771493 0
0.72683907 0.38313484 -0.28640246 0
0.77345657 0.43200302 -0.3002634 0
0.6231823 0.49407959 -0.32628989 0
0.7054882 0.48931122 -0.30773139 0
0.91519356 0.12125015 -0.23242426 0
0.86087418 0.23607254 -0.2483809 0
0.92955208 0.19933891 -0.23304033 0
0.75522232 0.31420517 -0.25760913 0
0.81236267 0.30049133 -0.24553037 0
0.91149521 0.30982208 -0.24233413 0
0.99190712 0.30232239 -0.23721886 0
0.73293114 0.44797516 -0.28637624 0
0.81977844 0.4152813 -0.27005363 0
0.91819382 0.39878654 -0.25309324 0
0.99477386 0.36614418 -0.23870683 0
0.086402893 -0.41083527 -0.34604359 0
0.18168831 -0.40127182 -0.33402061 0
0.11927414 -0.33498764 -0.37075019 0
0.17084122 -0.29994392 -0.38734317 0
0.27187347 -0.31068993 -0.39090133 0
0.43001938 -0.37900925 -0.37848449 0
0.11420631 -0.24472809 -0.41278219 0
0.19878197 -0.23248291 -0.41811156 0
0.27348709 -0.24420929 -0.40240073 0
0.125103 -0.13931847 -0.42990422 0
0.21295547 -0.13388062 -0.42636108 0
0.26509857 -0.13876534 -0.41876769 0
0.21691132 -0.051939011 -0.43031549 0
0.2810154 -0.046676636 -0.42920709 0
-0.065235138 0.36808777 -0.45934749 0
-0.091636658 0.47863007 -0.47823572 0
0.11604691 -0.4724865 -0.28106451 0
0.2787075 -0.49032402 -0.28925705 0
0.77812386 -0.4986515 -0.33217287 0
0.12774467 -0.44589043 -0.29298615 0
0.20313263 -0.40975952 -0.31116176 0
0.31910133 -0.43832779 -0.30905652 0
0.42760658 -0.43106079 -0.33261895 0
0.50430679 -0.41880035 -0.32624102 0
0.56668282 -0.4596653 -0.32102871 0
0.81455612 -0.42875671 -0.36853814 0
0.85752869 -0.39361572 -0.35763049 0
0.16088676 -0.34006882 -0.33475065 0
0.30687141 -0.32541656 -0.35037422 0
0.4068985 -0.30928421 -0.35519576 0
0.49765968 -0.30770111 -0.34153533 0
0.62915802 -0.30838013 -0.34016728 0
0.89027977 -0.36042213 -0.35827184 0
0.30845451 -0.20992661 -0.38296533 0
0.41164589 -0.20953751 -0.3576479 0
0.50733376 -0.22379303 -0.33748317 0
0.6246376 -0.21259308 -0.34393382 0
-0.10344887 -0.073001862 -0.33673978 0
0.31439972 -0.13958168 -0.38777542 0
0.41143227 -0.11173439 -0.36422825 0
0.51788521 -0.11779976 -0.34503889 0
-0.074422836 0.0062999725 -0.35464716 0
0.00021743774 0.017889023 -0.34805989 0
0.25505638 -0.020792007 -0.39816952 0
0.34166718 -0.024671555 -0.39658904 0
0.39528275 -0.030170441 -0.38472247 0
0.48275948 -0.044979095 -0.36085844 0
-0.075164795 0.086576462 -0.36971951 0
0.0028591156 0.085458755 -0.36366463 0
0.10489464 0.072021484 -0.3599143 0
0.18443871 0.10151672 -0.3796823 0
0.31458664 0.062553406 -0.40554476 0
0.40862083 0.073482513 -0.39059639 0
0.47534561 0.050859451 -0.37735772 0
-0.14441872 0.1676712 -0.3691535 0
-0.092254639 0.20382309 -0.3871901 0
0.011341095 0.17237663 -0.39063692 0
0.11125183 0.18393898 -0.39871812 0
0.23210144 0.17105675 -0.39883971 0
0.31124115 0.17121315 -0.39018488 0
0.40538979 0.14696884 -0.38108969 0
-0.07400322 0.288414 -0.39379859 0
0.00056648254 0.30139732 -0.38263273 0
0.12534523 0.28251648 -0.42463756 0
0.20293617 0.27152634 -0.40618229 0
-0.061481476 0.39238739 -0.43005204 0
-0.0024223328 0.39248657 -0.39478278 0
0.21427917 0.37423897 -0.41050076 0
0.27311516 0.33587265 -0.42034745 0
-0.065576553 0.46915627 -0.45281029 0
0.010412216 0.48377991 -0.428617 0
0.097352982 0.4968853 -0.41805029 0
0.83737946 -0.45478058 -0.30660272 0
0.89249039 -0.41165352 -0.27954602 0
0.65460014 -0.27206993 -0.31146812 0
0.92496872 -0.3456955 -0.30670261 0
0.97564507 -0.29442215 -0.3195231 0
0.63688087 -0.20376968 -0.30700088 0
0.72296715 -0.19824982 -0.2907505 0
0.54236031 -0.11048317 -0.32006574 0
0.60839653 -0.12579155 -0.31152129 0
0.72010422 -0.11502266 -0.29643726 0
0.45136452 -0.027999878 -0.33456278 0
0.52079964 -0.012212753 -0.33283329 0
0.614151 -0.0061092377 -0.30687642 0
0.71003151 -0.020143509 -0.29725671 0
0.45724487 0.10266304 -0.35011649 0
0.52834511 0.081970215 -0.32287312 0
0.60123444 0.099546432 -0.3017478 0
0.33260536 0.20405388 -0.37200713 0
0.42745018 0.19443893 -0.35051417 0
0.53218269 0.18511963 -0.3284812 0
0.58189011 0.16099548 -0.31073689 0
0.26365662 0.30025482 -0.38184762 0
0.32994652 0.28527832 -0.37039399 0
0.43108368 0.30517006 -0.35330796 0
0.51402283 0.26852798 -0.33783293 0
0.074840546 0.41674423 -0.38039351 0
0.1108799 0.41271782 -0.37287331 0
0.24328423 0.39167213 -0.39005208 0
0.32673836 0.38800812 -0.37502885 0
0.42794991 0.38594437 -0.35911822 0
0.13526344 0.46336555 -0.38790035 0
0.33413506 0.4876461 -0.37394619 0
0.41153526 0.45701408 -0.35985827 0
0.93033028 -0.39447784 -0.23417974 0
0.74313354 -0.070747375 -0.25587678 0
0.78274918 -0.1017952 -0.26368999 0
0.72901917 0.021139145 -0.276721 0
0.82441711 0.0048313141 -0.26074409 0
0.65548325 0.10929489 -0.28921914 0
0.74084091 0.097726822 -0.26978636 0
0.84176254 0.12452507 -0.26037025 0
0.9128685 0.084911346 -0.2593472 0
0.63389206 0.20357513 -0.29783344 0
0.73612213 0.20219421 -0.2623105 0
0.90548515 0.15839577 -0.26315546 0
0.5225563 0.30297089 -0.30936384 0
0.6425457 0.29380798 -0.29283333 0
0.72801399 0.31282616 -0.28044105 0
0.48249435 0.40985489 -0.33701324 0
0.5524559 0.39647675 -0.31509352 0
0.64510918 0.38690567 -0.30266309 0
0.73539734 0.41794586 -0.29109502 0
0.44297791 0.49970627 -0.32276058 0
0.54379845 0.48723221 -0.32101655 0
0.65826225 0.49028206 -0.30562782 0
0.84373283 0.19878578 -0.23510385 0
0.95696068 0.21292686 -0.23215437 0
0.77163315 0.32334328 -0.25668383 0
0.84412766 0.29927254 -0.24792242 0
0.96310425 0.30012512 -0.24261379 0
0.77005768 0.41694641 -0.26105738 0
0.86222649 0.40984344 -0.26056528 0
0.94702911 0.37944984 -0.23922753 0
0.81660652 0.4835186 -0.25196266 0
0.92244339 0.4768219 -0.25756693 0
0.73831749 -0.11510849 0.75131869 0
-0.067768097 -0.49210548 -0.32592964 0
0.059427261 -0.49269485 -0.33104086 0
-0.078317642 -0.41679192 -0.34207368 0
0.038034439 -0.41621971 -0.35311365 0
0.12334061 -0.38761139 -0.35023093 0
0.19954681 -0.38417816 -0.3435781 0
-0.045034409 -0.30025482 -0.38150215 0
0.022155762 -0.30763626 -0.38809586 0
0.12710381 -0.31875038 -0.39159989 0
0.25902557 -0.30689812 -0.39234376 0
0.32062912 -0.29121971 -0.38462591 0
0.024721146 -0.20575714 -0.41626716 0
0.1373291 -0.20480728 -0.42750525 0
0.24535942 -0.20353508 -0.41925311 0
0.35140228 -0.2431469 -0.39801526 0
-0.1428051 -0.076332092 -0.36433125 0
0.019346237 -0.1480732 -0.4263382 0
0.1395874 -0.10961723 -0.44852495 0
0.24263763 -0.10245323 -0.4404099 0
0.32233238 -0.068534851 -0.43148327 0
-0.14395523 0.016998291 -0.3791666 0
-0.080781937 -0.0062637329 -0.37605023 0
0.24935722 -0.021039963 -0.443573 0
0.31336784 -0.034727097 -0.43359804 0
-0.17229462 0.10282135 -0.39257169 0
-0.15323067 0.1971302 -0.41605973 0
-0.14212608 0.2929554 -0.44327283 0
-0.081447601 0.30888557 -0.44871497 0
-0.14741325 0.38505173 -0.47404218 0
-0.055568695 0.39504051 -0.47968984 0
-0.12327194 0.4830246 -0.49814653 0
0.073776245 -0.47297668 -0.29614472 0
0.12843323 -0.47129631 -0.27518392 0
0.33257484 -0.4810524 -0.30068779 0
0.80126572 -0.47282219 -0.35446024 0
0.14526749 -0.43034172 -0.30213666 0
0.24285889 -0.3963089 -0.32205677 0
0.33871269 -0.4262867 -0.31794763 0
0.42666435 -0.39002228 -0.34702826 0
0.52049255 -0.39349937 -0.34072995 0
0.82328987 -0.42851639 -0.36358047 0
0.17673683 -0.32223129 -0.34420896 0
0.26248932 -0.34814835 -0.35220242 0
0.33556747 -0.30496407 -0.35574317 0
0.45682907 -0.29740906 -0.35680532 0
0.53734207 -0.27606201 -0.33897018 0
0.64219093 -0.28789139 -0.34447169 0
0.89247131 -0.34684181 -0.38035154 0
0.91928101 -0.32315826 -0.36646938 0
0.29143143 -0.1624279 -0.39721417 0
0.34796333 -0.19506645 -0.37962604 0
0.45556068 -0.20984268 -0.35102773 0
0.56596756 -0.18811417 -0.34135032 0
-0.085821152 -0.045455933 -0.36483002 0
0.2889843 -0.13033104 -0.40172577 0
0.35746765 -0.094638824 -0.39226007 0
0.43671417 -0.10587502 -0.36446834 0
0.51320267 -0.090536118 -0.35668325 0
-0.1534214 0.043077469 -0.34977436 0
-0.05027771 0.015974045 -0.36597514 0
0.017276764 0.047981262 -0.34936547 0
0.34374809 -0.021459579 -0.40767097 0
0.43223953 -0.004858017 -0.3763938 0
-0.12887764 0.12139893 -0.3855319 0
-0.045423508 0.095506668 -0.37329531 0
0.056735992 0.11487198 -0.37739897 0
0.14223671 0.086503983 -0.36738658 0
0.28175545 0.072687149 -0.41569018 0
0.36855698 0.088504791 -0.40848136 0
0.44143486 0.072389603 -0.38465476 0
-0.10880852 0.22590828 -0.40202451 0
-0.067234039 0.22767258 -0.39581752 0
0.031705856 0.20774651 -0.40606308 0
0.16155624 0.18758774 -0.41016388 0
0.27593803 0.18618011 -0.40337324 0
0.35224342 0.18069267 -0.39686942 0
-0.046226501 0.31908607 -0.40609717 0
0.17414284 0.30226898 -0.43253565 0
0.25611496 0.29814339 -0.41723466 0
-0.10895348 0.44400978 -0.45229959 0
-0.040182114 0.40459442 -0.42513537 0
0.041179657 0.42106628 -0.39648342 0
0.17700577 0.37226295 -0.42856574 0
0.23298836 0.3968029 -0.4199121 0
-0.040000916 0.49638367 -0.45710373 0
0.84482956 -0.4814949 -0.25647616 0
0.95214653 -0.49894333 -0.22640467 0
0.87473679 -0.41882515 -0.2936151 0
0.92636681 -0.38398552 -0.27628088 0
0.65797424 -0.2956028 -0.30661774 0
0.96806335 -0.30614662 -0.31145525 0
0.6053257 -0.18704987 -0.313411 0
0.6617012 -0.21530724 -0.31805825 0
0.72740364 -0.17542076 -0.29417109 0
0.98461533 -0.24754715 -0.37345171 0
0.47099495 -0.05009079 -0.34615254 0
0.55169296 -0.091266632 -0.32936716 0
0.66175461 -0.10377312 -0.31929564 0
0.77607346 -0.098789215 -0.29864502 0
0.50561333 0.0093860626 -0.35009551 0
0.56271935 0.0079421997 -0.33264756 0
0.65395546 0.0025081635 -0.30787301 0
0.72686958 0.027746201 -0.30259323 0
0.47912216 0.11666489 -0.35734487 0
0.56685448 0.11390114 -0.33491969 0
0.67349815 0.12025642 -0.32230377 0
0.37196922 0.21310043 -0.37292171 0
0.45338631 0.20380592 -0.34437704 0
0.53441048 0.2099514 -0.33360791 0
0.30243874 0.30381966 -0.39428091 0
0.36469841 0.31410789 -0.36712575 0
0.45466614 0.31506538 -0.35693908 0
0.55436897 0.32128334 -0.35952783 0
0.095239639 0.42318726 -0.38961029 0
0.16033173 0.43949509 -0.37420893 0
0.28299522 0.39974976 -0.4035182 0
0.36404991 0.42044067 -0.38191795 0
0.4497776 0.41022491 -0.36403918 0
0.36646652 0.49611664 -0.37621069 0
0.98503876 -0.39510345 -0.22247958 0
0.7625103 -0.070186615 -0.27317119 0
0.85606194 -0.04255867 -0.26736975 0
0.69442749 0.052333832 -0.29526591 0
0.78624535 0.0073680878 -0.28048539 0
0.85049057 0.063337326 -0.26384854 0
0.66612053 0.15102577 -0.29764032 0
0.76323128 0.11909294 -0.28153229 0
0.86522675 0.13786507 -0.25789213 0
0.58754349 0.2015934 -0.3082788 0
0.67848969 0.24275208 -0.28954005 0
0.77474976 0.22515106 -0.27632308 0
0.57543945 0.31124115 -0.31996632 0
0.67614555 0.32898903 -0.29031467 0
0.76563454 0.31323814 -0.29046082 0
0.49399757 0.40992737 -0.34294319 0
0.58284187 0.42279243 -0.33111525 0
0.68007469 0.41556168 -0.29996824 0
0.76530647 0.4048748 -0.29886079 0
0.90049362 0.13129807 -0.23599625 0
0.9579277 0.16517258 -0.23108673 0
0.83647537 0.26481628 -0.25476861 0
0.88847351 0.2501049 -0.25193596 0
0.96800041 0.24146271 -0.23442745 0
0.73697853 0.32581711 -0.26261735 0
0.81244469 0.3269043 -0.2624073 0
0.88194656 0.33980179 -0.25588727 0
0.94704056 0.34140396 -0.2422514 0
0.70884895 0.46129227 -0.28991342 0
0.80953598 0.43789101 -0.28046846 0
0.89868736 0.43394279 -0.26349902 0
0.99869537 0.42894173 -0.24751091 0
0.80738258 -0.043521881 0.77199006 0
-0.2632618 -0.47816849 -0.29134583 0
-0.17262459 -0.49959946 -0.29622698 0
0.037237167 -0.4822998 -0.32288074 0
0.095363617 -0.48128128 -0.31665325 0
-0.27544403 -0.39815331 -0.31108665 0
-0.16538048 -0.4048233 -0.32605219 0
-0.048774719 -0.41118813 -0.34466267 0
0.032554626 -0.4202137 -0.34378099 0
0.11837578 -0.40989876 -0.32651043 0
0.1859436 -0.39762688 -0.32782841 0
-0.24737549 -0.31168175 -0.33725023 0
-0.15331268 -0.28844261 -0.36330771 0
-0.097337723 -0.31912994 -0.35970092 0
0.015861511 -0.31415558 -0.3826654 0
0.13079262 -0.32306862 -0.36863899 0
0.24386024 -0.31487656 -0.39014697 0
0.30807686 -0.29695129 -0.37914467 0
-0.18053055 -0.1998539 -0.37785625 0
-0.053165436 -0.20412445 -0.40207529 0
0.015813828 -0.21797752 -0.39800382 0
0.12784576 -0.2154026 -0.42288327 0
0.24466896 -0.2237339 -0.40635943 0
0.3140583 -0.24086761 -0.38101149 0
-0.23706627 -0.11274719 -0.37259603 0
-0.15631676 -0.090564728 -0.36461306 0
0.14163017 -0.15670204 -0.42550945 0
0.23334885 -0.11152267 -0.42920518 0
0.29699707 -0.10850716 -0.4103148 0
-0.23279953 0.0070400238 -0.39707756 0
-0.17312813 -0.013259888 -0.37401772 0
0.24957848 -0.05906105 -0.41877818 0
0.31370163 -0.038249969 -0.42642593 0
-0.24283409 0.095518112 -0.40183234 0
-0.17082596 0.10011673 -0.38994813 0
-0.33263969 0.20702362 -0.40530658 0
-0.26798058 0.1901474 -0.40307212 0
-0.15219116 0.19968414 -0.41236997 0
-0.31805801 0.26676559 -0.42828465 0
-0.25488853 0.2851944 -0.43514514 0
-0.16155052 0.28580475 -0.43810749 0
-0.23753166 0.3966198 -0.48949075 0
-0.15523529 0.37360954 -0.46669984 0
-0.080612183 0.36176109 -0.454494 0
-0.26750374 0.48278046 -0.50508881 0
-0.16650581 0.48567963 -0.49587488 0
-0.090974808 0.48085976 -0.48398447 0
0.12901497 -0.46533775 -0.27351165 0
0.29821014 -0.46203613 -0.29489493 0
0.50018501 -0.46407318 -0.32906914 0
0.79733086 -0.46558571 -0.32575631 0
0.22868538 -0.3833313 -0.32161951 0
0.34403229 -0.41044807 -0.32671213 0
0.45969772 -0.3924675 -0.34104013 0
0.51560974 -0.40436363 -0.31696177 0
0.83992577 -0.40846825 -0.35466242 0
0.34984589 -0.27853966 -0.35574841 0
0.41981697 -0.30027008 -0.34397578 0
0.52319908 -0.28844833 -0.33658695 0
0.61612511 -0.33563042 -0.32168484 0
0.92234421 -0.31866837 -0.35528517 0
0.32823563 -0.20785522 -0.36573076 0
0.43245125 -0.18289948 -0.35843492 0
0.5159359 -0.20816612 -0.33191347 0
0.63028145 -0.22397041 -0.33019304 0
-0.12109947 -0.045080185 -0.33528447 0
-0.085083008 -0.064596176 -0.34877157 0
0.34555244 -0.094070435 -0.375458 0
0.43417168 -0.10824203 -0.34233856 0
0.55801392 -0.13298988 -0.33745217 0
-0.12629509 -0.0056476593 -0.34232974 0
-0.063417435 0.0071487427 -0.34239721 0
0.013092041 0.02722168 -0.3475318 0
0.28077507 -0.0085906982 -0.41821551 0
0.34989738 -0.0017662048 -0.395015 0
0.42444992 -0.00045013428 -0.36091423 0
-0.1157589 0.10041237 -0.37312388 0
-0.063350677 0.095703125 -0.36484194 0
0.040914536 0.10208702 -0.36415005 0
0.16618919 0.12066841 -0.37983084 0
0.2328434 0.12054634 -0.37793064 0
0.32492828 0.082334518 -0.38978887 0
0.41506386 0.10204887 -0.37535167 0
-0.12132645 0.2051754 -0.38556695 0
-0.071487427 0.19642448 -0.38360429 0
0.039457321 0.19004822 -0.3905139 0
0.11307716 0.23884201 -0.4122293 0
0.23466492 0.21142578 -0.39613557 0
0.31687355 0.20068932 -0.38390088 0
-0.11612701 0.25122833 -0.40995383 0
-0.061286926 0.31316185 -0.39997864 0
0.16290283 0.281847 -0.413692 0
0.25242424 0.30010223 -0.39839101 0
-0.05140686 0.39913368 -0.41887951 0
0.034658432 0.39388847 -0.37828326 0
0.17846107 0.35601616 -0.4076376 0
0.24594307 0.38718224 -0.40656638 0
-0.11578941 0.46180916 -0.46738625 0
-0.045001984 0.49986458 -0.45179105 0
0.043905258 0.49590111 -0.4215126 0
0.85439491 -0.48235512 -0.24545121 0
0.86772728 -0.42442894 -0.28478789 0
0.93394279 -0.38513374 -0.26768184 0
0.66950035 -0.27667236 -0.29767871 0
0.95883179 -0.30749893 -0.30537844 0
0.54815292 -0.21340179 -0.31018329 0
0.64437103 -0.1814518 -0.29784536 0
0.74816895 -0.16335106 -0.27835298 0
0.54637527 -0.11675644 -0.31687999 0
0.6504631 -0.087110519 -0.30175519 0
0.71905899 -0.090885162 -0.28709173 0
0.48230171 0.017724991 -0.33116317 0
0.55582428 -0.0016536713 -0.3211422 0
0.64384651 0.0135746 -0.30306315 0
0.73863029 -0.020151138 -0.28520322 0
0.46284485 0.12147331 -0.34289408 0
0.57593918 0.11672592 -0.31309867 0
0.36594391 0.21402168 -0.35720372 0
0.45649719 0.20519829 -0.34054947 0
0.55563164 0.20372772 -0.32298088 0
0.27556038 0.32265854 -0.38155794 0
0.36942101 0.32003784 -0.37267661 0
0.44976997 0.30859756 -0.34405088 0
0.53175735 0.31788254 -0.33073425 0
0.055818558 0.41476822 -0.375489 0
0.16379547 0.45540237 -0.38350058 0
0.25428581 0.41093254 -0.3981173 0
0.35051155 0.40501022 -0.36928368 0
0.45499611 0.44518661 -0.35851336 0
0.095003128 0.49760628 -0.40547609 0
0.95108223 -0.36855888 -0.23280811 0
0.98565674 -0.32789421 -0.23302674 0
0.7604084 -0.070421219 -0.25989532 0
0.84604263 -0.093460083 -0.26560283 0
0.73918915 0.045309067 -0.281317 0
0.84188652 0.020858765 -0.26455736 0
0.67134857 0.11405945 -0.28589821 0
0.77815437 0.12099648 -0.26464009 0
0.8781662 0.10095024 -0.24932671 0
0.58627892 0.22356987 -0.29551649 0
0.66373634 0.23470306 -0.29707503 0
0.74299431 0.22809029 -0.27454185 0
0.85505676 0.18630981 -0.25268722 0
0.58813286 0.32842636 -0.31083012 0
0.69417 0.34440231 -0.28995585 0
0.80097198 0.29460526 -0.26710343 0
0.49510574 0.37758446 -0.33291578 0
0.56581116 0.43422699 -0.31081128 0
0.65839577 0.41759491 -0.2906096 0
0.74660683 0.43296623 -0.28572822 0
0.90527153 0.1690979 -0.22463632 0
0.80885887 0.23974419 -0.23148799 0
0.86084938 0.21649551 -0.22442365 0
0.97166252 0.25255013 -0.21446109 0
0.78812599 0.34691429 -0.25573635 0
0.90706444 0.34400368 -0.24049139 0
0.95095062 0.31214142 -0.22520876 0
0.81085777 0.43738747 -0.2726655 0
0.88780594 0.4338932 -0.24537492 0
0.95853233 0.42685318 -0.24266982 0
0.76212692 -0.083770752 0.75024819 0
0.81939316 -0.030204773 0.78956532 0
0.85537148 0.0061416626 0.84429574 0
0.9143486 0.065820694 0.84560776 0
-0.3549099 -0.46680641 -0.27851272 0
-0.42803383 -0.39855194 -0.28825951 0
-0.33214951 -0.40121651 -0.29958916 0
-0.24031258 -0.40528679 -0.31753135 0
-0.12240982 -0.38780022 -0.34139013 0
-0.027565002 -0.40983582 -0.34636569 0
0.086589813 -0.41438293 -0.35349417 0
0.14660835 -0.39335442 -0.33207464 0
0.22634315 -0.38895416 -0.32448769 0
0.34737206 -0.41089439 -0.34097648 0
0.45809174 -0.37155533 -0.36477518 0
-0.39804077 -0.28279495 -0.32143211 0
-0.3218441 -0.29963493 -0.33092809 0
-0.24535179 -0.30439186 -0.34207201 0
-0.15104294 -0.31275177 -0.35369873 0
-0.052595139 -0.31439018 -0.36565804 0
0.067886353 -0.31495094 -0.38494182 0
0.14699936 -0.31987381 -0.37688708 0
0.27334595 -0.310112 -0.38576555 0
0.35270691 -0.31221581 -0.36562538 0
-0.33764648 -0.19589043 -0.35240412 0
-0.2351284 -0.20432472 -0.37306762 0
-0.15517998 -0.19814873 -0.37369919 0
-0.065658569 -0.21931839 -0.39372683 0
0.059123993 -0.22465324 -0.40732169 0
0.18979836 -0.21985054 -0.42417216 0
0.24853897 -0.21918869 -0.40979576 0
0.34319305 -0.24662399 -0.39222312 0
-0.34541702 -0.11418343 -0.37455487 0
-0.21914864 -0.10378265 -0.37962151 0
-0.12455559 -0.079811096 -0.37623286 0
0.056268692 -0.15799522 -0.42087603 0
0.18855095 -0.12922859 -0.4447062 0
0.25972748 -0.12379646 -0.42275381 0
-0.43404007 0.0094089508 -0.3651104 0
-0.3612957 -0.040369034 -0.38904595 0
-0.24019432 -0.0082492828 -0.39460182 0
-0.1384964 -0.015262604 -0.37510753 0
0.27067757 -0.046924591 -0.4260745 0
-0.4843235 0.064235687 -0.35376859 0
-0.43485641 0.10074425 -0.3736589 0
-0.32935905 0.11154556 -0.39506245 0
-0.22719002 0.094377518 -0.40435266 0
-0.13070488 0.059562683 -0.3830955 0
-0.43652344 0.18575668 -0.40842795 0
-0.33909798 0.2027626 -0.41209435 0
-0.22642136 0.20340538 -0.41431022 0
-0.13537788 0.19667816 -0.41495347 0
-0.41607857 0.28676796 -0.44613838 0
-0.32760239 0.27301979 -0.44274735 0
-0.23597908 0.29869652 -0.4488647 0
-0.15288353 0.30371094 -0.44480586 0
-0.4045105 0.38498497 -0.47609091 0
-0.32108498 0.37962151 -0.4816165 0
-0.23018456 0.37211037 -0.47831869 0
-0.12924194 0.38820839 -0.46899343 0
-0.072162628 0.38081741 -0.46745038 0
-0.42875671 0.49312782 -0.49704909 0
-0.32572174 0.48656845 -0.50670075 0
-0.23265266 0.47434998 -0.51038647 0
-0.13182831 0.48184204 -0.50120902 0
0.14537811 -0.46432495 -0.26593876 0
0.31873703 -0.45498657 -0.29516697 0
0.8229332 -0.47153664 -0.31190085 0
0.2954731 -0.45389748 -0.31255651 0
0.36380577 -0.40087509 -0.32476115 0
0.4906826 -0.42885017 -0.32998848 0
0.54834175 -0.43630028 -0.31993175 0
0.79593468 -0.46051598 -0.3661077 0
0.83478165 -0.41714096 -0.35653448 0
0.29100418 -0.34619904 -0.32885265 0
0.402771 -0.28032684 -0.34491992 0
0.45873642 -0.32137489 -0.34333658 0
0.56798363 -0.3080101 -0.32433009 0
0.66472626 -0.30333519 -0.33299184 0
0.89703751 -0.34921646 -0.36055088 0
0.25815964 -0.22816849 -0.36607623 0
0.35939217 -0.21201706 -0.36911082 0
0.46312523 -0.18833923 -0.34782434 0
0.56549644 -0.20189285 -0.33699465 0
0.29708672 -0.13119316 -0.37796116 0
0.37736893 -0.12309456 -0.3646698 0
0.45878601 -0.10362053 -0.34572887 0
0.54586792 -0.11460495 -0.33857059 0
-0.10206223 -0.033857346 -0.34685349 0
-0.030239105 0.016672134 -0.34844685 0
0.29482651 0.0053501129 -0.40323472 0
0.38454437 -0.0076370239 -0.38981962 0
0.46274185 0.0060081482 -0.37607765 0
-0.17860603 0.081302643 -0.3656981 0
-0.11628723 0.093397141 -0.36836672 0
-0.028558731 0.098201752 -0.36938715 0
0.08716774 0.098930359 -0.36838245 0
0.21021461 0.1121273 -0.38548231 0
0.30626488 0.13843346 -0.39954019 0
0.38583755 0.098199844 -0.38251996 0
-0.1137085 0.21425247 -0.39465666 0
-0.015146255 0.1842289 -0.40025163 0
0.039365768 0.19579124 -0.38978171 0
0.16373444 0.20696831 -0.40975547 0
0.27301216 0.19560051 -0.39663792 0
0.38136101 0.19566917 -0.38850427 0
-0.092384338 0.28648567 -0.41962981 0
-0.040859222 0.31826019 -0.39403057 0
0.12714958 0.27111244 -0.41672969 0
0.20371437 0.31280136 -0.41372967 0
0.2518158 0.26353073 -0.39889288 0
-0.11713791 0.39488983 -0.43024588 0
-0.028717041 0.39793205 -0.41675258 0
0.23949814 0.40595818 -0.42180109 0
-0.10178947 0.4650135 -0.46480966 0
-0.022293091 0.49150085 -0.44117451 0
0.074968338 0.4934845 -0.4223001 0
0.8576355 -0.47072601 -0.25067711 0
0.96433258 -0.49042511 -0.21983051 0
0.89064217 -0.41127586 -0.28880286 0
0.94691086 -0.36152458 -0.25524378 0
0.65561295 -0.27444839 -0.30086327 0
0.90926933 -0.34971809 -0.32720947 0
0.97807884 -0.29631042 -0.30309796 0
0.62967873 -0.21209717 -0.30982995 0
0.68765831 -0.17897987 -0.29574084 0
0.748106 -0.1616478 -0.26829219 0
0.58832741 -0.10091209 -0.31057668 0
0.68440437 -0.090639114 -0.28597951 0
0.50149155 -0.017499924 -0.34787107 0
0.58698654 0.0073719025 -0.32187104 0
0.67610168 -0.023262024 -0.2818079 0
0.43840408 0.13082504 -0.33119416 0
0.49443626 0.083265305 -0.34695125 0
0.5999794 0.087068558 -0.31831622 0
0.65122986 0.068454742 -0.30098677 0
0.32709122 0.22457314 -0.3742528 0
0.3764801 0.20830345 -0.35119104 0
0.48282433 0.1986866 -0.34206915 0
0.56737328 0.1865654 -0.32008576 0
0.22587776 0.2846508 -0.37861443 0
0.28535271 0.3035202 -0.38021469 0
0.37775421 0.31267357 -0.37051535 0
0.47704887 0.31842804 -0.35052347 0
0.55575752 0.26922226 -0.32585073 0
0.062475204 0.41021347 -0.37569833 0
0.28411674 0.41214943 -0.38956308 0
0.39993286 0.39181709 -0.36362529 0
0.11798477 0.48142242 -0.39800072 0
0.20071602 0.49881172 -0.39394569 0
0.37176895 0.49739075 -0.37041402 0
0.77993393 -0.076721191 -0.26901865 0
0.72701263 0.038835526 -0.27251649 0
0.8227253 0.034833908 -0.26338696 0
0.84798431 -0.035600662 -0.26862359 0
0.58701706 0.15466499 -0.30197763 0
0.70316696 0.1141758 -0.28116417 0
0.81762123 0.11785126 -0.2522018 0
0.89481544 0.07756424 -0.24859571 0
0.64039803 0.1975441 -0.30176187 0
0.70602417 0.2101841 -0.28314209 0
0.78235626 0.20042992 -0.26187897 0
0.53251457 0.33803749 -0.32550645 0
0.61128044 0.32118988 -0.29938316 0
0.71095085 0.30415916 -0.28388047 0
0.52309418 0.42360497 -0.32500839 0
0.61087799 0.42627907 -0.30076528 0
0.69697189 0.40702057 -0.2817893 0
0.91841507 0.1209774 -0.23002958 0
0.85644341 0.25078011 -0.25448775 0
0.90045357 0.22009277 -0.23793888 0
0.98908806 0.2184124 -0.2260766 0
0.80344582 0.30796242 -0.25092149 0
0.91572571 0.33597755 -0.24536371 0
0.97723389 0.28946114 -0.22242665 0
0.80297661 0.41501617 -0.26303291 0
0.91946602 0.43738937 -0.24920678 0
0.88438034 0.49963951 -0.25556111 0
0.78230858 -0.075719833 0.74240303 0
0.8321476 -0.028802872 0.81111836 0
0.86733055 -0.0019836426 0.89503527 0
0.88955688 0.035352707 0.8308301 0
0.94033432 0.084690094 0.87018394 0
-0.64142799 -0.48167801 -0.22941446 0
-0.52436066 -0.48169518 -0.25210762 0
-0.42867088 -0.49542236 -0.26553941 0
-0.35146904 -0.49886513 -0.27560854 0
-0.24572182 -0.49917984 -0.29622293 0
-0.14238548 -0.48881721 -0.31615281 0
-0.63419724 -0.36963844 -0.26156831 0
-0.55240822 -0.38314819 -0.27513146 0
-0.43160439 -0.40125084 -0.29013491 0
-0.34594536 -0.41628265 -0.29877567 0
-0.22309685 -0.39985085 -0.32335663 0
-0.12518311 -0.40433311 -0.33820367 0
-0.025663376 -0.42222404 -0.34954119 0
0.089521408 -0.41926765 -0.35400057 0
0.14818764 -0.39600754 -0.33064318 0
0.25948524 -0.36987877 -0.33836746 0
-0.60789871 -0.27086067 -0.29291534 0
-0.51985168 -0.27770233 -0.31069064 0
-0.43702126 -0.30793953 -0.3132031 0
-0.31696129 -0.30928993 -0.33267617 0
-0.22544289 -0.33224487 -0.33333421 0
-0.11042786 -0.314785 -0.36169887 0
0.00623703 -0.33493042 -0.38210773 0
0.065738678 -0.32647705 -0.39027524 0
0.13805771 -0.33978653 -0.3781929 0
0.27321053 -0.32061195 -0.37619758 0
0.31674767 -0.3113308 -0.36810398 0
-0.60822105 -0.186203 -0.30917001 0
-0.51317978 -0.18521118 -0.33222246 0
-0.45140076 -0.21720505 -0.33030367 0
-0.34160042 -0.20806313 -0.35419035 0
-0.24469566 -0.19466782 -0.3634541 0
-0.14505386 -0.22341347 -0.38548613 0
0.055494308 -0.2173233 -0.41421556 0
0.17140961 -0.25189018 -0.42061949 0
0.26129341 -0.2175293 -0.41012597 0
0.31467438 -0.20314026 -0.39400363 0
-0.59342194 -0.071079254 -0.33482099 0
-0.53817368 -0.096370697 -0.34003878 0
-0.4676342 -0.094602585 -0.35087633 0
-0.35010338 -0.11528397 -0.37700415 0
-0.24480629 -0.096403122 -0.38524747 0
-0.14560127 -0.10030365 -0.37331486 0
0.075479507 -0.16075706 -0.42221904 0
0.18340492 -0.1149044 -0.44784427 0
0.25051117 -0.12877274 -0.42508268 0
-0.61385155 0.012580872 -0.35240078 0
-0.54035568 0.017278671 -0.34815812 0
-0.36522102 -0.040603638 -0.38679814 0
-0.24069595 -0.0082874298 -0.39596152 0
-0.15064049 -0.021512985 -0.37493372 0
-0.6109333 0.1200161 -0.38105702 0
-0.53363037 0.093570709 -0.37886834 0
-0.4258728 0.11255646 -0.38875031 0
-0.36966324 0.12756729 -0.38295293 0
-0.22765541 0.090799332 -0.40303445 0
-0.1510601 0.063524246 -0.39007688 0
-0.60633278 0.20491409 -0.40669084 0
-0.52388573 0.19125938 -0.41010547 0
-0.42750549 0.18396568 -0.41374087 0
-0.33646011 0.18963623 -0.40770125 0
-0.24243355 0.19606781 -0.41601443 0
-0.16509628 0.17378235 -0.41238475 0
-0.60073853 0.26668167 -0.4272511 0
-0.52942657 0.28799248 -0.43966389 0
-0.43220901 0.27352142 -0.44557214 0
-0.34614754 0.27965164 -0.45055819 0
-0.25330734 0.28359222 -0.44318867 0
-0.16577148 0.31686401 -0.45039344 0
-0.6004982 0.39687729 -0.46126413 0
-0.53145409 0.39418602 -0.47131753 0
-0.4350872 0.38208008 -0.47961569 0
-0.31696129 0.38014603 -0.4858768 0
-0.21619606 0.38267517 -0.47535563 0
-0.16058731 0.37892151 -0.47732472 0
-0.075969696 0.37947464 -0.47809196 0
-0.63014603 0.47443199 -0.47800803 0
-0.54423714 0.49019623 -0.49198341 0
-0.43030167 0.47967911 -0.49594879 0
-0.34696388 0.45403671 -0.49762583 0
-0.21632004 0.47786522 -0.5112257 0
-0.12999725 0.49985313 -0.50947952 0
0.10539818 -0.49564743 -0.27635574 0
0.13429832 -0.4837513 -0.26622057 0
0.30310059 -0.4689579 -0.29891014 0
0.18909264 -0.43349648 -0.29538417 0
0.28852081 -0.36279106 -0.31476355 0
0.35342026 -0.40290833 -0.33239436 0
0.49759293 -0.39947128 -0.34054494 0
0.53795433 -0.44764519 -0.3208673 0
0.81140709 -0.44076157 -0.36269712 0
0.85280228 -0.41861153 -0.33894134 0
0.26845551 -0.35668373 -0.33973861 0
0.33829498 -0.31753922 -0.34369946 0
0.46629333 -0.29538155 -0.34966683 0
0.61167526 -0.32650566 -0.34669137 0
0.63852501 -0.28421402 -0.3326509 0
0.91391182 -0.32582855 -0.37116432 0
0.36852646 -0.21534157 -0.37184834 0
0.45522118 -0.19584465 -0.33981919 0
0.55097198 -0.21425819 -0.33249068 0
-0.064224243 -0.062917709 -0.33645725 0
0.28592682 -0.097459793 -0.40664577 0
0.38119125 -0.11014557 -0.3804307 0
0.44466782 -0.099739075 -0.36334991 0
0.53993797 -0.099525452 -0.34887052 0
-0.1037674 0.0094547272 -0.35327911 0
-0.032962799 0.0038719177 -0.35580206 0
0.28620911 0.00040817261 -0.43453979 0
0.38146019 -0.013017654 -0.3908658 0
0.44968414 -0.050886154 -0.36247516 0
-0.19707489 0.073232651 -0.37119937 0
-0.12281418 0.090026855 -0.37364626 0
-0.029525757 0.091197968 -0.37317801 0
0.086385727 0.11807823 -0.37843704 0
0.30035591 0.10102272 -0.40642953 0
0.39462852 0.083816528 -0.39017677 0
-0.19244766 0.22723961 -0.41398168 0
-0.12625504 0.19817734 -0.38452482 0
-0.011426926 0.16591072 -0.39217591 0
0.034543991 0.19296646 -0.39178014 0
0.19022942 0.20247269 -0.40915561 0
0.25886726 0.19637108 -0.39767671 0
0.36694717 0.15935516 -0.39124966 0
-0.20309258 0.26096153 -0.41847634 0
-0.096763611 0.29541397 -0.4369123 0
-0.046257019 0.29668808 -0.39211559 0
0.19383621 0.28830528 -0.42621684 0
0.24627876 0.28449631 -0.40955257 0
-0.10500526 0.40074921 -0.45889735 0
-0.034751892 0.38487053 -0.42928243 0
0.19601631 0.36048698 -0.41167259 0
-0.10518646 0.44742775 -0.4600203 0
-0.032075882 0.49599457 -0.45619011 0
0.052097321 0.4879303 -0.42801881 0
0.8680687 -0.48946571 -0.24883366 0
0.90525627 -0.39992905 -0.29590225 0
0.95694733 -0.38604927 -0.26959682 0
0.98630714 -0.29878235 -0.30252647 0
0.59807396 -0.19026566 -0.307266 0
0.68574333 -0.19866371 -0.30397487 0
0.58520699 -0.078275681 -0.32470369 0
0.67960739 -0.089126587 -0.29912496 0
0.74116135 -0.11763763 -0.27642632 0
0.50607491 0.0078907013 -0.34015608 0
0.58206749 0.0037574768 -0.32579398 0
0.67329216 -0.013542175 -0.30323267 0
0.42098999 0.10344696 -0.35820198 0
0.48454094 0.11408997 -0.34861326 0
0.59159088 0.098075867 -0.3261652 0
0.30447578 0.20833778 -0.38108873 0
0.39875221 0.2302494 -0.36500788 0
0.49140167 0.21020889 -0.33868742 0
0.54217529 0.16013145 -0.32644939 0
-0.0033931732 0.35289001 -0.37118602 0
0.29234505 0.31017303 -0.38069582 0
0.39274788 0.33190155 -0.37119889 0
0.46824074 0.29962349 -0.35274982 0
0.0045185089 0.38888359 -0.38284588 0
0.089948654 0.42329597 -0.38808942 0
0.22599983 0.37366295 -0.40016031 0
0.29457283 0.41259575 -0.3907249 0
0.37461472 0.41079903 -0.36153913 0
0.45132256 0.37128448 -0.35871959 0
0.17364311 0.49603271 -0.40528965 0
0.40147018 0.4756794 -0.37402296 0
0.93635941 -0.38724136 -0.2228303 0
0.79495621 -0.04076767 -0.28310108 0
0.61645889 0.020849228 -0.27116442 0
0.72259331 0.021787643 -0.27501822 0
0.79089546 0.028467178 -0.26291656 0
0.59463501 0.13378143 -0.3006146 0
0.70956802 0.13616562 -0.28218293 0
0.81434822 0.11493301 -0.26508307 0
0.87924957 0.13171196 -0.25072551 0
0.61428642 0.22668648 -0.29374456 0
0.71315575 0.24733162 -0.29092884 0
0.76803017 0.20227432 -0.27895713 0
0.52357292 0.33690834 -0.31968141 0
0.58772087 0.31646156 -0.31999326 0
0.67071533 0.32136917 -0.2984128 0
0.49846268 0.42404175 -0.3391397 0
0.61092567 0.40240479 -0.30720305 0
0.63461876 0.49045372 -0.32195663 0
0.94999123 0.13088989 -0.23080397 0
0.79171371 0.20775604 -0.24630499 0
0.91670036 0.23758507 -0.24333525 0
0.98274803 0.19003868 -0.21861148 0
0.72958946 0.34353065 -0.26748204 0
0.81006622 0.32461548 -0.26320028 0
0.92893982 0.35317421 -0.24123383 0
0.99280739 0.31652832 -0.22307301 0
0.70263481 0.42486572 -0.28372526 0
0.77634811 0.43450546 -0.2712996 0
0.91802216 0.44153786 -0.26022863 0
0.76377487 -0.098049164 0.75233865 0
0.83079147 -0.031568527 0.80752349 0
0.88993454 0.02796936 0.77437377 0
0.8735714 -0.0058803558 0.89336896 0
0.90545082 0.04929924 0.83860254 0
0.94902611 0.087503433 0.85136986 0
0.9019928 0.020452499 0.94742346 0
0.96998024 0.11039543 0.92172074 0
-0.81414604 -0.47212791 -0.2063818 0
-0.71271324 -0.47102547 -0.22442412 0
-0.6129303 -0.48483849 -0.23621798 0
-0.52721596 -0.47777748 -0.25324225 0
-0.43028641 -0.48790932 -0.26731586 0
-0.33716774 -0.4889431 -0.27880764 0
0.022668839 -0.49741745 -0.31264234 0
0.061561584 -0.49858665 -0.32773519 0
-0.81553078 -0.36537933 -0.23362756 0
-0.69935989 -0.37473488 -0.25167847 0
-0.60481834 -0.38152122 -0.26438546 0
-0.50047112 -0.38781166 -0.28217053 0
-0.41150856 -0.40166473 -0.2911191 0
-0.29654694 -0.3628521 -0.32254934 0
-0.21254921 -0.41700745 -0.31833196 0
-0.11954308 -0.44694138 -0.32543659 0
0.019569397 -0.42006493 -0.34592414 0
0.074335098 -0.41336823 -0.32546711 0
-0.79555321 -0.27098083 -0.26089811 0
-0.70733833 -0.26127815 -0.28222203 0
-0.61703682 -0.29098129 -0.28641009 0
-0.50932884 -0.27351379 -0.3101604 0
-0.38824844 -0.30573463 -0.32114005 0
-0.20288849 -0.30023193 -0.35514712 0
-0.079860687 -0.30898285 -0.37228632 0
-0.024959564 -0.32024384 -0.37675643 0
0.074172974 -0.31541634 -0.37760758 0
0.17560196 -0.30934715 -0.38263965 0
0.26377487 -0.28367233 -0.3864305 0
-0.77781677 -0.18576241 -0.28718424 0
-0.70726776 -0.18818855 -0.29679751 0
-0.60091591 -0.20416069 -0.31250334 0
-0.50219536 -0.19103622 -0.32919025 0
-0.37593269 -0.23282814 -0.34217429 0
-0.31402588 -0.19625473 -0.36466193 0
-0.21758652 -0.23734665 -0.36952829 0
-0.102314 -0.20573616 -0.39390326 0
0.0068511963 -0.20331001 -0.39767623 0
0.17041206 -0.19901085 -0.41252661 0
0.27283859 -0.19875526 -0.40350032 0
-0.7630043 -0.099533081 -0.31344843 0
-0.70322227 -0.076078415 -0.32025862 0
-0.61151314 -0.092311859 -0.33200741 0
-0.51909256 -0.096763611 -0.34402442 0
-0.40229607 -0.10366821 -0.36955357 0
-0.29698181 -0.095291138 -0.38279343 0
-0.22005653 -0.10642433 -0.37275147 0
0.18569946 -0.11456871 -0.42769456 0
-0.77889061 0.012792587 -0.33230233 0
-0.70442963 0.025655746 -0.34818912 0
-0.6150322 0.020511627 -0.34768391 0
-0.53751945 0.055221558 -0.36784649 0
-0.37178612 -0.042446136 -0.38858795 0
-0.299366 0.0067062378 -0.39716339 0
-0.22096062 0.0018024445 -0.38477111 0
-0.78490448 0.13297653 -0.36041355 0
-0.69787979 0.11303902 -0.3702693 0
-0.60458755 0.1199398 -0.37454963 0
-0.50757027 0.10484314 -0.37297726 0
-0.4467392 0.12601089 -0.37609291 0
-0.28713036 0.10519218 -0.4135139 0
-0.24584961 0.10196877 -0.39919162 0
-0.80126762 0.22101974 -0.37715816 0
-0.70902061 0.22380829 -0.39920425 0
-0.60764503 0.21427345 -0.4101243 0
-0.50344658 0.21004486 -0.41316462 0
-0.40909004 0.19029999 -0.40338135 0
-0.33001518 0.21356392 -0.4137578 0
-0.22799492 0.24065399 -0.42572832 0
-0.78931808 0.31352806 -0.4097333 0
-0.70936775 0.30939484 -0.4240365 0
-0.6020813 0.29366684 -0.43558168 0
-0.49567223 0.30044937 -0.44395995 0
-0.40891457 0.28761864 -0.44475341 0
-0.30723381 0.29636192 -0.44634318 0
-0.24139214 0.29686737 -0.43408346 0
-0.80646133 0.40486526 -0.43009639 0
-0.70541954 0.38712311 -0.44423008 0
-0.59952927 0.40431213 -0.46282578 0
-0.50020409 0.36475372 -0.46093512 0
-0.4248333 0.37849808 -0.47292995 0
-0.30540085 0.38049698 -0.48300624 0
-0.22793388 0.38756752 -0.4763186 0
-0.13011551 0.39802933 -0.48048782 0
-0.70978165 0.48679543 -0.46861076 0
-0.58236504 0.49234581 -0.48707747 0
-0.49282074 0.48818016 -0.49827552 0
-0.41015244 0.48887825 -0.50646234 0
-0.30349731 0.49470711 -0.50815988 0
-0.2215786 0.47896576 -0.50406075 0
0.073801041 -0.47502136 -0.26677036 0
0.27183914 -0.45417023 -0.29569387 0
0.48804283 -0.4564476 -0.31828094 0
0.75876236 -0.48007393 -0.33385682 0
0.13955879 -0.42797089 -0.28612232 0
0.19378281 -0.38649368 -0.31199694 0
0.30561638 -0.40737152 -0.31809497 0
0.40983772 -0.4063797 -0.33331203 0
0.48905563 -0.38885689 -0.32131052 0
0.80204201 -0.4075222 -0.3508904 0
0.854599 -0.35123062 -0.33400416 0
0.30028915 -0.3086586 -0.33483434 0
0.4189167 -0.26867676 -0.34229875 0
0.48512459 -0.31249428 -0.3376267 0
0.62075043 -0.30365562 -0.31394219 0
0.28892708 -0.18894768 -0.3717339 0
0.39380074 -0.18779182 -0.34408498 0
0.51245117 -0.21583748 -0.33855247 0
-0.14593506 -0.049016953 -0.3519454 0
0.29177666 -0.092983246 -0.38668942 0
0.38197708 -0.12191772 -0.3339591 0
-0.19282532 0.025669098 -0.36175942 0
-0.094402313 0.034580231 -0.35596013 0
-0.029560089 0.058416367 -0.34516549 0
0.28398705 0.0028247833 -0.40259099 0
0.39322853 0.0044345856 -0.37320471 0
-0.1920414 0.11208153 -0.37695265 0
-0.11885643 0.10472107 -0.36807489 0
-0.019790649 0.12005997 -0.36456227 0
0.090736389 0.12047005 -0.37487984 0
0.2278595 0.13787651 -0.39638352 0
0.26927185 0.109972 -0.38367462 0
0.38357353 0.10106659 -0.37823915 0
-0.26220512 0.16019821 -0.38735771 0
-0.16821098 0.20229721 -0.39771461 0
-0.095565796 0.21701431 -0.39237499 0
-0.013620377 0.2030468 -0.39998817 0
0.12132835 0.21715927 -0.41125298 0
0.20110703 0.21154213 -0.3987639 0
-0.25790977 0.25343704 -0.41537809 0
-0.16064835 0.27803612 -0.43374467 0
-0.10846138 0.30796814 -0.4077158 0
0.10561752 0.2971096 -0.41161728 0
0.19025993 0.28945541 -0.40931869 0
-0.16848564 0.39764977 -0.45585036 0
-0.092786789 0.40297508 -0.42579722 0
-0.015962601 0.41623306 -0.39643717 0
0.17715073 0.36994171 -0.41959858 0
-0.18069267 0.46478081 -0.47905278 0
0.95539665 -0.49328423 -0.22969198 0
0.83446884 -0.42347908 -0.28319216 0
0.8885498 -0.36515045 -0.26534772 0
0.91970634 -0.29731369 -0.32585216 0
0.9711113 -0.25662231 -0.30831432 0
0.53517342 -0.16765594 -0.32387924 0
0.60282707 -0.19060516 -0.30658889 0
0.69303703 -0.19343567 -0.30206227 0
0.5355072 -0.075105667 -0.31581497 0
0.61618996 -0.082107544 -0.30844712 0
0.68579483 -0.091251373 -0.29419851 0
0.44776535 0.015748978 -0.32691598 0
0.51235771 -0.012254715 -0.32679057 0
0.62796402 0.03250885 -0.31240439 0
0.32061005 0.15550232 -0.37372541 0
0.4255085 0.11875725 -0.34718513 0
0.51758003 0.10102844 -0.31730366 0
0.59581566 0.082849503 -0.31640887 0
0.33663368 0.23911667 -0.37266397 0
0.408638 0.20142365 -0.34244561 0
0.25018692 0.33886909 -0.38729286 0
0.29879379 0.29063606 -0.37383056 0
0.40748787 0.31602097 -0.35787344 0
0.0041046143 0.42745209 -0.3863759 0
0.07425499 0.43063736 -0.37070465 0
0.20614052 0.38192368 -0.38862419 0
0.32815933 0.40877342 -0.37301159 0
0.22593498 0.49944496 -0.3876915 0
0.2877121 0.47331238 -0.37764454 0
0.8535881 -0.4562912 -0.20070958 0
0.94785309 -0.32712364 -0.22622752 0
0.71779823 -0.082345963 -0.26737261 0
0.81069756 -0.032928467 -0.2760036 0
0.72225189 0.04986763 -0.27357888 0
0.82680511 0.049772263 -0.24884629 0
0.490448 0.15951538 -0.29967022 0
0.64045906 0.11379623 -0.29036665 0
0.71375275 0.14619827 -0.26544785 0
0.81119156 0.1607914 -0.26229 0
0.45777702 0.21396446 -0.30504251 0
0.55360031 0.20827866 -0.30213428 0
0.63672256 0.21978569 -0.27989388 0
0.73438454 0.24361992 -0.26450896 0
0.45514679 0.31614304 -0.33819771 0
0.51599693 0.32479858 -0.31262565 0
0.60283279 0.32856369 -0.29740357 0
0.37335968 0.47496033 -0.32311106 0
0.41106987 0.42326927 -0.34361815 0
0.52225113 0.4258976 -0.3160522 0
0.8751297 0.13033295 -0.22701669 0
0.83539581 0.24925041 -0.24197769 0
0.93307686 0.24466705 -0.2210145 0
0.66724777 0.33473587 -0.26886606 0
0.75050163 0.34687233 -0.25935435 0
0.86284447 0.34381104 -0.25328636 0
0.93922997 0.35600853 -0.2410419 0
0.61733055 0.43846321 -0.28378963 0
0.72658157 0.44620132 -0.28396082 0
0.82966614 0.43010712 -0.25485587 0
0.90638924 0.41083336 -0.24800396 0
0.73089409 -0.074892044 0.75745702 0
0.75669479 -0.053752899 0.81684256 0
0.78980446 -0.022285461 0.8026588 0
0.83514214 0.030342102 0.81678271 0
0.83304405 -0.0030555725 0.89532638 0
0.84699821 0.03588295 0.87237883 0
0.88491058 0.077327728 0.85039926 0
0.95524025 0.14331055 0.8723073 0
0.82575607 0.001127243 0.95442128 0
0.89510155 0.060342789 0.97030258 0
0.88617897 0.086053848 0.9208045 0
0.96380424 0.15962601 0.93535805 0
0.89144325 0.068429947 1.0153503 0
-0.99896812 -0.49040794 -0.17261076 0
-0.92502594 -0.49478531 -0.18100095 0
-0.83070755 -0.47766876 -0.20433664 0
-0.72256851 -0.4824791 -0.21724296 0
-0.60014343 -0.48988152 -0.23757029 0
-0.45296097 -0.47760582 -0.26632333 0
-0.34390259 -0.4943943 -0.27944756 0
-0.23665619 -0.49243164 -0.29624987 0
0.45296288 -0.46956635 -0.32185555 0
-0.97541237 -0.38752556 -0.20111513 0
-0.9080658 -0.38035011 -0.21630454 0
-0.82348442 -0.38650703 -0.22288489 0
-0.71421432 -0.37002182 -0.25412774 0
-0.64306068 -0.38883591 -0.25725079 0
-0.55224609 -0.40543175 -0.26481199 0
-0.43494034 -0.40196228 -0.28913879 0
-0.32909584 -0.43109131 -0.29847074 0
-0.2137394 -0.40244484 -0.32469463 0
-0.079158783 -0.44205856 -0.33880568 0
-0.06565094 -0.3943119 -0.35492659 0
0.10314178 -0.40975761 -0.34667087 0
0.16586304 -0.43458557 -0.30337048 0
0.33675003 -0.42769432 -0.33126783 0
-0.95946121 -0.27680016 -0.22936559 0
-0.89866257 -0.29502296 -0.23668766 0
-0.8030014 -0.29769897 -0.25056529 0
-0.72569847 -0.30098343 -0.26090455 0
-0.62851906 -0.29910469 -0.28216505 0
-0.52965355 -0.30525589 -0.29597402 0
-0.42090607 -0.32432747 -0.31130171 0
-0.30421257 -0.32214546 -0.33259559 0
-0.21458817 -0.33082962 -0.33814883 0
-0.081935883 -0.35138512 -0.35417509 0
0.078941345 -0.34923363 -0.37749362 0
0.16272163 -0.33065414 -0.3742466 0
0.28792191 -0.32557487 -0.37412143 0
0.33619881 -0.31008911 -0.3598485 0
0.47099876 -0.37170982 -0.35916519 0
-0.971138 -0.20062637 -0.23875904 0
-0.90909958 -0.21640587 -0.25404763 0
-0.80108261 -0.1886158 -0.28144598 0
-0.71115494 -0.20820808 -0.2880168 0
-0.62449265 -0.20608139 -0.30415893 0
-0.51771164 -0.20273209 -0.32465005 0
-0.41057968 -0.21946716 -0.33920383 0
-0.29271507 -0.21879196 -0.36057806 0
-0.2144165 -0.19941139 -0.36244297 0
-0.046747208 -0.24299049 -0.39540935 0
0.051210403 -0.22990799 -0.40167284 0
0.19856071 -0.2253952 -0.41786909 0
0.27702713 -0.22761726 -0.39265299 0
0.34555626 -0.25617409 -0.37675452 0
-0.90582275 -0.10944939 -0.28210735 0
-0.77819633 -0.099046707 -0.30671334 0
-0.70625114 -0.11831284 -0.31103945 0
-0.61709976 -0.10048866 -0.32602978 0
-0.52535629 -0.10408401 -0.34602332 0
-0.4240551 -0.10998344 -0.36028957 0
-0.29220772 -0.13114929 -0.38175154 0
-0.21331215 -0.094184875 -0.36715913 0
-0.12462044 -0.088989258 -0.36027408 0
0.19390297 -0.15547943 -0.42862105 0
0.27128601 -0.13371849 -0.40279794 0
-0.92056084 0.01451683 -0.31033683 0
-0.80558968 -0.004863739 -0.32664204 0
-0.69823074 -0.0033569336 -0.3433702 0
-0.60995102 -0.0042743683 -0.34729266 0
-0.53138351 0.017658234 -0.34773898 0
-0.45303345 -0.055538177 -0.36111712 0
-0.27666473 -0.029523849 -0.41496921 0
-0.22345352 -0.0088748932 -0.38604903 0
-0.11153603 -0.012857437 -0.3622725 0
0.31206512 -0.054672241 -0.41715741 0
-0.96762276 0.1191864 -0.32010198 0
-0.89577675 0.10557175 -0.33181405 0
-0.8032093 0.1139183 -0.34959531 0
-0.72106552 0.087060928 -0.35655141 0
-0.60673714 0.081689835 -0.36591363 0
-0.49114037 0.07923317 -0.36759949 0
-0.44629097 0.087574005 -0.37670803 0
-0.26620483 0.087919235 -0.40876627 0
-0.23554039 0.07242775 -0.39549541 0
-0.12617874 0.096735001 -0.38782811 0
-0.98672676 0.218853 -0.33895135 0
-0.89690971 0.20890808 -0.35537076 0
-0.82360458 0.19721603 -0.36337423 0
-0.71871185 0.17084503 -0.38079739 0
-0.62611961 0.16953278 -0.39923167 0
-0.51264191 0.18550873 -0.40921283 0
-0.39989662 0.17930794 -0.40756679 0
-0.31169891 0.20613098 -0.40984821 0
-0.23711205 0.20062828 -0.40980005 0
-0.14877701 0.19021225 -0.41110063 0
-0.90770721 0.29343414 -0.37516665 0
-0.81922913 0.29015732 -0.39250803 0
-0.71631622 0.28158951 -0.41372514 0
-0.63187981 0.28677177 -0.43000531 0
-0.52157784 0.26718712 -0.43525171 0
-0.43251038 0.29484367 -0.44702816 0
-0.2937851 0.29877853 -0.4573288 0
-0.21479225 0.28543091 -0.44188595 0
-0.1410923 0.28535843 -0.44122028 0
-0.92312241 0.40137482 -0.39628816 0
-0.83871269 0.39173508 -0.41487646 0
-0.73919296 0.35257721 -0.42474604 0
-0.61133575 0.39673042 -0.45877385 0
-0.50104713 0.37166595 -0.46779275 0
-0.39172745 0.38426971 -0.48192453 0
-0.31933212 0.38247681 -0.48613238 0
-0.20119476 0.37474251 -0.48097253 0
-0.14140701 0.37113571 -0.46436739 0
-0.80497169 0.46891212 -0.44312143 0
-0.70784378 0.45174789 -0.46197248 0
-0.61009216 0.48680687 -0.48112035 0
-0.49854851 0.4886837 -0.49652362 0
-0.41235733 0.48494911 -0.49791837 0
-0.315485 0.48706055 -0.50408387 0
-0.20242882 0.46573257 -0.50285482 0
-0.10404205 0.48866272 -0.49593759 0
0.14670563 -0.47975922 -0.25894451 0
0.19768333 -0.44088936 -0.28478122 0
0.35531044 -0.44680786 -0.30573773 0
0.49475098 -0.41845703 -0.31902146 0
0.80195045 -0.43880272 -0.37060666 0
0.84578323 -0.42651367 -0.34193802 0
0.40593147 -0.33659935 -0.3404963 0
0.47890282 -0.28935623 -0.32996297 0
0.60111427 -0.32756996 -0.34102941 0
0.68842125 -0.29530334 -0.30059505 0
0.90990448 -0.36152649 -0.32983232 0
0.95448303 -0.3031559 -0.33923054 0
0.39396286 -0.23201752 -0.34909153 0
0.45187378 -0.21040916 -0.32152677 0
0.59010506 -0.23677254 -0.32473898 0
0.33427048 -0.11046791 -0.37396955 0
0.38562965 -0.1145668 -0.36107993 0
0.50105286 -0.11594009 -0.34211326 0
-0.087133408 -0.013660431 -0.35292435 0
-0.0073947906 0.013380051 -0.34310246 0
0.33346558 -0.05266571 -0.38948393 0
0.37413216 -0.024078369 -0.36799335 0
0.46194649 -0.039236069 -0.33502531 0
-0.099006653 0.10312271 -0.36990285 0
-0.00045585632 0.08455658 -0.35904622 0
0.17625237 0.11281776 -0.38633823 0
0.31992531 0.091836929 -0.39612412 0
0.41835213 0.072525024 -0.37666559 0
0.45962334 0.044013977 -0.36016893 0
-0.11249542 0.21523476 -0.39634514 0
-0.0062122345 0.16679573 -0.38957715 0
0.20984459 0.21616173 -0.41612411 0
0.27067947 0.166996 -0.38399696 0
0.40104103 0.1690464 -0.37928009 0
-0.079523087 0.29611969 -0.41639256 0
-0.038269043 0.32524872 -0.38888645 0
0.095891953 0.25553513 -0.41250205 0
0.21021843 0.29968452 -0.40271854 0
0.26810455 0.26314735 -0.39563084 0
-0.086565018 0.38702583 -0.43996167 0
-0.013496399 0.38993454 -0.39710426 0
-0.068325043 0.46575165 -0.45490456 0
0.011196136 0.49330139 -0.43321347 0
0.8671093 -0.49534607 -0.23302007 0
0.96722603 -0.49466515 -0.21654153 0
0.90049362 -0.41846466 -0.25816655 0
0.96142578 -0.35577774 -0.25226331 0
0.98509026 -0.30814934 -0.29813528 0
0.63321686 -0.20523262 -0.31043649 0
0.71207619 -0.19841003 -0.28265166 0
0.60423851 -0.090501785 -0.32374215 0
0.68566322 -0.11370277 -0.29342031 0
0.51433372 0.0064907074 -0.33192968 0
0.60118103 0.0052051544 -0.29994559 0
0.68166161 0.015756607 -0.27679396 0
0.78351021 -0.034158707 -0.30006099 0
0.52217484 0.089044571 -0.32428432 0
0.34223366 0.20490265 -0.36825085 0
0.43461037 0.19935608 -0.35226798 0
0.50602913 0.1863575 -0.32458091 0
0.31413841 0.29467583 -0.38656163 0
0.39685822 0.30607986 -0.35533404 0
