# .PCD v0.7 - Point Cloud Data file format
VERSION 0.7
FIELDS x y z intensity
SIZE 4 4 4 4
TYPE F F F F
COUNT 1 1 1 1
WIDTH 1294
HEIGHT 1
VIEWPOINT 0 0 0 1 0 0 0
POINTS 1294
DATA ascii
0.98667526 -0.4229126 -0.33539438 0
0.57284927 -0.343853 -0.34666705 0
0.66977692 -0.31765556 -0.35045815 0
0.77318192 -0.32623291 -0.34957027 0
0.89115906 -0.31713867 -0.34914088 0
0.97575378 -0.29706573 -0.35054302 0
0.57510757 -0.25966454 -0.35624409 0
0.67741776 -0.21577072 -0.36746716 0
0.77536011 -0.22504425 -0.36553359 0
0.8602562 -0.22156143 -0.36663246 0
0.97834778 -0.2214756 -0.37030482 0
0.60026932 -0.14820671 -0.3731153 0
0.66654968 -0.13669777 -0.37582111 0
0.75931549 -0.12553787 -0.38021684 0
0.86126709 -0.13308334 -0.37897778 0
0.97359467 -0.15139961 -0.37458611 0
0.61360168 -0.045995712 -0.38246036 0
0.68060303 -0.055625916 -0.38720632 0
0.78561783 -0.048709869 -0.39013505 0
0.8636322 -0.029972076 -0.39317966 0
0.95393753 -0.051654816 -0.38950992 0
0.66819382 0.068750381 -0.40458488 0
0.75493622 0.045402527 -0.39876771 0
0.8609314 0.045742035 -0.39953136 0
0.97332001 0.067317963 -0.40788937 0
0.66319656 0.15781784 -0.41695118 0
0.76907349 0.1795845 -0.42084622 0
0.86422729 0.16814804 -0.4199512 0
0.97970581 0.16388321 -0.41767478 0
0.67644501 0.26472473 -0.43257809 0
0.76669312 0.2762413 -0.43205857 0
0.87716675 0.29773521 -0.44055653 0
0.96701431 0.2775383 -0.43963575 0
0.65748215 0.34627151 -0.43932056 0
0.75589371 0.37113762 -0.4436872 0
0.8575058 0.3579464 -0.43941331 0
0.98007965 0.37388611 -0.44472718 0
0.66263962 0.43974304 -0.4524889 0
0.74849701 0.4696312 -0.45149732 0
0.84553528 0.46953583 -0.45247889 0
0.92065048 -0.4722023 -0.31945395 0
0.14601517 0.33016968 -0.28307676 0
0.1215744 0.35565758 -0.27434039 0
0.57242203 -0.4944725 -0.32428694 0
0.72897339 -0.491642 -0.33098125 0
0.98716736 -0.49562645 -0.33103657 0
0.4034729 -0.46249771 -0.335356 0
0.50424576 -0.44724083 -0.33643699 0
0.59758759 -0.43946075 -0.34072471 0
0.66761017 -0.43689156 -0.33872819 0
0.79496002 -0.42799568 -0.34448647 0
0.922966 -0.44066429 -0.33716321 0
0.42805099 -0.34789848 -0.3513577 0
0.49739075 -0.34037971 -0.35222816 0
0.6107254 -0.33820724 -0.35336113 0
0.70861435 -0.31891441 -0.35500026 0
0.78483582 -0.3381443 -0.35116243 0
0.8678093 -0.34249306 -0.3521688 0
0.98635483 -0.32138443 -0.35503364 0
0.49843216 -0.2260704 -0.37124705 0
0.58905792 -0.25816345 -0.36333942 0
0.69765472 -0.2385006 -0.3646121 0
0.8204155 -0.22008896 -0.36935353 0
0.90832138 -0.21397781 -0.3737936 0
0.49982452 -0.15401459 -0.38126874 0
0.60667801 -0.12619781 -0.38478971 0
0.68550491 -0.15525818 -0.37967348 0
0.78902054 -0.14347839 -0.37726903 0
0.92817307 -0.13830566 -0.38414836 0
0.49961472 -0.06240654 -0.39075327 0
0.59462357 -0.060758591 -0.3912766 0
0.70687103 -0.044109344 -0.39287686 0
0.78438568 -0.017368317 -0.40007234 0
0.86748123 -0.020565033 -0.39931774 0
0.97522354 -0.027616501 -0.39822054 0
0.52210236 0.0697155 -0.41365862 0
0.58864594 0.064247131 -0.41189909 0
0.6807785 0.070209503 -0.41208649 0
0.7967453 0.067455292 -0.41010141 0
0.88093185 0.077638626 -0.40933037 0
0.97108841 0.087514877 -0.4122839 0
0.52361298 0.16054916 -0.42039633 0
0.59260559 0.14943886 -0.41929817 0
0.6928978 0.16870499 -0.42723131 0
0.79169846 0.17123985 -0.42526746 0
0.89941025 0.158144 -0.42956614 0
0.98786545 0.1975441 -0.43020725 0
0.52782059 0.24845123 -0.43356729 0
0.60137939 0.24874496 -0.43646288 0
0.6661644 0.23893356 -0.43129992 0
0.76040268 0.25243378 -0.43599367 0
0.89960098 0.24131775 -0.43329668 0
0.99414825 0.2812748 -0.4411943 0
0.60410309 0.34007454 -0.45261955 0
0.68585587 0.36730576 -0.44755578 0
0.79689407 0.34257317 -0.44799232 0
0.90169907 0.34596443 -0.44733047 0
0.99866104 0.35718346 -0.45364833 0
0.71709061 0.46975136 -0.46065927 0
0.78678894 0.44756317 -0.45421219 0
0.88521194 0.47396469 -0.46226549 0
0.99604797 0.4373436 -0.46350694 0
0.59794998 -0.48184586 -0.30441356 0
0.1327858 0.2772541 -0.30462885 0
0.15033722 0.26460457 -0.30972838 0
0.10796356 0.35077858 -0.30192661 0
0.13811874 0.33561134 -0.29297328 0
0.13264465 0.41652107 -0.33744812 0
0.13957977 0.42259598 -0.32397485 0
0.54295731 0.29071999 -0.45063996 0
0.6185112 0.26026344 -0.44790721 0
0.87649155 0.29929543 -0.45382571 0
0.87503052 0.38183784 -0.46090412 0
0.87192917 0.47724342 -0.47533798 0
0.27218246 -0.48047829 -0.33671355 0
0.34209442 -0.44366074 -0.34253836 0
0.42742538 -0.45378304 -0.3409524 0
0.54282379 -0.44632339 -0.34044695 0
0.65169525 -0.43599129 -0.34184694 0
0.74945831 -0.42242813 -0.34268117 0
0.85997391 -0.44458961 -0.34180927 0
0.95452881 -0.44334984 -0.34274697 0
0.33599854 -0.35730171 -0.35234237 0
0.43127441 -0.33973503 -0.35597873 0
0.52408218 -0.34116364 -0.3530221 0
0.62445831 -0.33914566 -0.35176492 0
0.71671677 -0.3325367 -0.35363603 0
0.81594467 -0.31361771 -0.3592627 0
0.91099548 -0.32149124 -0.3594954 0
0.99193192 -0.35959053 -0.35041237 0
0.36077881 -0.25294113 -0.36393785 0
0.44221115 -0.22402573 -0.3737433 0
0.52207947 -0.25784302 -0.36601973 0
0.63682175 -0.21623421 -0.37445617 0
0.75708389 -0.21663857 -0.37439632 0
0.85317993 -0.20864296 -0.37511468 0
0.94259644 -0.23722649 -0.36719799 0
0.38145828 -0.18052673 -0.37194538 0
0.43209457 -0.13182449 -0.38500309 0
0.53797913 -0.14310074 -0.38221216 0
0.61740494 -0.13119125 -0.38791895 0
0.72199249 -0.132658 -0.38350701 0
0.83262634 -0.12056923 -0.38332033 0
0.92687225 -0.12924957 -0.38211751 0
0.40952301 -0.062206268 -0.38873839 0
0.52140045 -0.032722473 -0.39899659 0
0.63512802 -0.057571411 -0.39402843 0
0.71525574 -0.042890549 -0.39695501 0
0.80903244 -0.027198792 -0.39452147 0
0.90690994 -0.0194664 -0.39774275 0
0.43313217 0.054868698 -0.4092288 0
0.51509094 0.076599121 -0.41797829 0
0.61417007 0.049341202 -0.40969658 0
0.73433304 0.05616188 -0.40731335 0
0.83353806 0.085180283 -0.4118793 0
0.93348312 0.08688736 -0.41772652 0
0.44520187 0.16634941 -0.42256069 0
0.51961899 0.14221764 -0.42123747 0
0.61962891 0.14085007 -0.4200058 0
0.71741867 0.17840576 -0.42679501 0
0.84921646 0.1691246 -0.42484331 0
0.94686127 0.16374016 -0.42591166 0
0.17739868 0.23258209 -0.35357237 0
0.52582169 0.20836639 -0.42950606 0
0.60441971 0.24732971 -0.43377686 0
0.71878433 0.26993561 -0.43985438 0
0.86058807 0.25996399 -0.4376111 0
0.95964813 0.26161957 -0.43755579 0
0.74184418 0.37348366 -0.45193648 0
0.86291504 0.39542007 -0.45569992 0
0.96881104 0.36109352 -0.45247984 0
0.96940231 0.40511322 -0.45745134 0
0.15167618 0.4643116 -0.38141131 0
0.95056152 0.45837975 -0.4542985 0
0.96802521 0.44923401 -0.4627924 0
0.12866211 0.26623154 -0.31790972 0
0.10881805 0.35297012 -0.31122422 0
0.14645004 0.43358803 -0.35242581 0
0.10398483 -0.44520569 -0.33572674 0
0.15939331 -0.42621422 -0.33772063 0
0.27435684 -0.46345901 -0.33234358 0
0.37075806 -0.42910767 -0.33444548 0
0.46621323 -0.427145 -0.3361392 0
0.57723236 -0.43263245 -0.33501148 0
0.67356491 -0.43284225 -0.33463526 0
0.7707634 -0.4240551 -0.33382154 0
0.88312149 -0.43478966 -0.33512878 0
0.15780258 -0.34659386 -0.34713149 0
0.25130844 -0.3435688 -0.34691048 0
0.35902023 -0.34684563 -0.34601164 0
0.47555161 -0.34943962 -0.34355617 0
0.55262375 -0.34401894 -0.34426451 0
0.66722107 -0.32799339 -0.34866285 0
0.7677002 -0.31319237 -0.35198545 0
0.93343735 -0.3104763 -0.35630035 0
0.17835999 -0.24431419 -0.36026692 0
0.24837875 -0.24446297 -0.35670471 0
0.36201477 -0.25344658 -0.3617003 0
0.46792221 -0.24320602 -0.3617487 0
0.56194687 -0.22865295 -0.36354947 0
0.65721512 -0.21837234 -0.36549258 0
0.74694824 -0.24089813 -0.35933447 0
0.83531952 -0.25564766 -0.36246991 0
0.95676422 -0.25110626 -0.35816169 0
0.20171356 -0.16959953 -0.37780309 0
0.24500275 -0.13822365 -0.38019109 0
0.3474884 -0.15373993 -0.37577271 0
0.44100952 -0.13473129 -0.3767128 0
0.60002899 -0.10580635 -0.38698053 0
0.68361282 -0.12930679 -0.37476778 0
0.77923584 -0.14042091 -0.37692428 0
0.86613083 -0.16513443 -0.3760519 0
0.99772644 -0.12994766 -0.38162827 0
0.25278854 -0.048809052 -0.38996124 0
0.35047531 -0.047519684 -0.39169645 0
0.44758224 -0.039842606 -0.38608456 0
0.52557373 -0.038738251 -0.39226103 0
0.61632919 -0.033493042 -0.39063716 0
0.75510025 -0.050922394 -0.38944578 0
0.86312485 -0.04524231 -0.39065576 0
0.9116478 -0.00097846985 -0.3916688 0
0.24716568 0.066282272 -0.40339684 0
0.34170532 0.027627945 -0.40281963 0
0.45186615 0.065704346 -0.40530515 0
0.55101395 0.079236984 -0.40975857 0
0.63837433 0.068782806 -0.40483952 0
0.72901917 0.057687759 -0.40120459 0
0.83280945 0.060548782 -0.40691066 0
0.93386841 0.086900711 -0.40776849 0
0.0027503967 0.20081711 -0.34102368 0
0.12817383 0.19236374 -0.36564851 0
0.26590729 0.17450905 -0.4243927 0
0.33480453 0.14103699 -0.41899204 0
0.43759155 0.16303825 -0.41897869 0
0.55972672 0.15745926 -0.41549134 0
0.65465546 0.15535736 -0.41836166 0
0.75746918 0.20056534 -0.42464423 0
0.85729218 0.17847633 -0.42495704 0
0.94815063 0.15435028 -0.41711688 0
0.035755157 0.29045296 -0.36184359 0
0.13373566 0.23543358 -0.34981918 0
0.57100677 0.24037743 -0.42796159 0
0.66662979 0.25804329 -0.43155479 0
0.76105118 0.27370834 -0.4303062 0
0.86174774 0.2674942 -0.42610121 0
0.97071075 0.2685318 -0.43718076 0
0.054737091 0.32744408 -0.36622286 0
0.11732864 0.40234756 -0.36385894 0
0.76113129 0.35040665 -0.44140077 0
0.87036133 0.35833168 -0.44241595 0
0.97192764 0.35932159 -0.44181395 0
0.085674286 0.40517807 -0.38959289 0
0.11977768 0.44789505 -0.40489435 0
0.86989594 0.45231438 -0.45780206 0
0.97801208 0.47350121 -0.4600749 0
0.065013885 0.26888084 -0.3334136 0
0.13539886 0.26394081 -0.31567144 0
0.073959351 0.33482933 -0.32283401 0
0.12667465 0.35220337 -0.29260325 0
0.13321304 0.42800903 -0.33940053 0
0.66822433 -0.49342537 -0.32362461 0
-0.08259201 -0.4701252 -0.32812881 0
-0.00035476685 -0.43369293 -0.34050941 0
0.08291626 -0.45072556 -0.33186913 0
0.18959045 -0.4387188 -0.33488941 0
0.29605103 -0.44799614 -0.33459687 0
0.38765717 -0.43988419 -0.33880138 0
0.48319626 -0.44179916 -0.33287477 0
0.57911301 -0.45300484 -0.32695699 0
0.69908142 -0.42171478 -0.3355422 0
0.80744171 -0.44876671 -0.33555365 0
0.94911957 -0.42660522 -0.33147001 0
-0.0086631775 -0.35508347 -0.34652948 0
0.1061554 -0.34461403 -0.35179329 0
0.17827988 -0.34783363 -0.34425402 0
0.28787994 -0.36415672 -0.34336138 0
0.39451599 -0.35293579 -0.34740496 0
0.48454666 -0.31994629 -0.35290575 0
0.58810425 -0.33249474 -0.3503716 0
0.71809769 -0.38016129 -0.33677626 0
0.75014496 -0.29566956 -0.35223746 0
0.8582077 -0.32998848 -0.35396361 0
0.98423386 -0.3409214 -0.34765768 0
-0.0097618103 -0.27758789 -0.35341072 0
0.081638336 -0.25527 -0.36244011 0
0.17275238 -0.23612022 -0.36148143 0
0.28278732 -0.25574684 -0.36052823 0
0.37347794 -0.24533081 -0.3586781 0
0.46237946 -0.24913979 -0.36037636 0
0.59453583 -0.23048592 -0.36962509 0
0.65571213 -0.23270035 -0.36267757 0
0.77425766 -0.22995186 -0.36121631 0
0.89796829 -0.22959709 -0.36414242 0
0.022041321 -0.17079353 -0.37149715 0
0.077613831 -0.1387043 -0.37710452 0
0.18880463 -0.16333389 -0.37056828 0
0.2803154 -0.14157486 -0.37475395 0
0.40819168 -0.13362885 -0.3781755 0
0.49707794 -0.14030075 -0.37712836 0
0.58817673 -0.15619087 -0.37229657 0
0.68185043 -0.1530838 -0.37206388 0
0.80337143 -0.14356232 -0.37812805 0
0.92747879 -0.14639854 -0.37420177 0
0.94408035 -0.095081329 -0.37989926 0
0.08965683 -0.054010391 -0.38708758 0
0.19842148 -0.032949448 -0.3938868 0
0.29055786 -0.051197052 -0.38714981 0
0.38621521 -0.049711227 -0.39069629 0
0.49078751 -0.028282166 -0.39339399 0
0.62497711 -0.030576706 -0.39536428 0
0.71810532 -0.02951622 -0.39214563 0
0.82934952 -0.061702728 -0.39191318 0
0.84584045 -0.0027656555 -0.39812779 0
0.95022583 -0.073408127 -0.37828493 0
0.086521149 0.02737999 -0.39632177 0
0.18954086 0.053087234 -0.40340519 0
0.28770447 0.056972504 -0.40232372 0
0.35924149 0.037660599 -0.40009022 0
0.45985794 0.07626152 -0.41022134 0
0.5450325 0.054738998 -0.40126348 0
0.65507889 0.089111328 -0.41419601 0
0.74152756 0.068574905 -0.40287495 0
0.86219025 0.068340302 -0.40164876 0
0.9801178 0.026199341 -0.39872718 0
-0.030162811 0.16543388 -0.36480951 0
0.073978424 0.099723816 -0.41000628 0
0.17211914 0.13131332 -0.41045761 0
0.27982712 0.15493774 -0.41825581 0
0.37784958 0.1503315 -0.41485333 0
0.46837234 0.14990997 -0.41385412 0
0.56853104 0.17099953 -0.42017341 0
0.65946579 0.13566589 -0.41133833 0
0.76386261 0.17018509 -0.41868591 0
0.88369751 0.15405655 -0.41739392 0
-0.0084190369 0.24962807 -0.38251042 0
0.053508759 0.27779388 -0.36153769 0
0.14170074 0.21623421 -0.36057043 0
0.57739639 0.24291611 -0.42726994 0
0.68503189 0.2577858 -0.43486762 0
0.78131485 0.2708683 -0.43467546 0
0.90456772 0.24514198 -0.4342761 0
0.015163422 0.31871033 -0.40500569 0
0.06010437 0.354105 -0.38718295 0
0.77277756 0.31978035 -0.43378448 0
0.91115189 0.3473835 -0.44220185 0
0.011199951 0.4396286 -0.43202519 0
0.091320038 0.42555046 -0.40430021 0
0.13256836 0.4256649 -0.3904779 0
0.90362549 0.43457031 -0.44799757 0
0.088150024 0.27178192 -0.33206201 0
0.1470108 0.25689697 -0.30345392 0
0.099357605 0.34378815 -0.30965447 0
0.16100693 0.31651306 -0.30160642 0
0.13885498 0.40761948 -0.35760546 0
0.67579269 -0.49545097 -0.3245759 0
0.94641876 -0.49861145 -0.32501173 0
-0.27379227 -0.47013092 -0.33466768 0
-0.17133713 -0.45746422 -0.3366549 0
-0.089183807 -0.43842316 -0.3376224 0
0.0022773743 -0.43939972 -0.3397522 0
0.098674774 -0.45995331 -0.33510709 0
0.20722961 -0.4405632 -0.33861923 0
0.3176918 -0.4333992 -0.33720732 0
0.45582581 -0.44913292 -0.33676958 0
0.4806633 -0.39214897 -0.34432077 0
0.58554077 -0.43767166 -0.33575702 0
0.70515823 -0.4323616 -0.33137727 0
0.83153534 -0.41581535 -0.33954668 0
0.97346115 -0.44996834 -0.32508135 0
-0.24741745 -0.38285065 -0.3420279 0
-0.19556808 -0.35089302 -0.34672618 0
-0.079338074 -0.36786079 -0.34636211 0
0.012363434 -0.34527779 -0.35049295 0
0.1241188 -0.34528732 -0.35009074 0
0.19563675 -0.38720512 -0.33719158 0
0.31068802 -0.32102013 -0.3523953 0
0.39216995 -0.33377838 -0.3564887 0
0.50135422 -0.34422493 -0.34648514 0
0.61601257 -0.34919357 -0.34838533 0
0.74337769 -0.33600426 -0.35256839 0
0.76412964 -0.28447342 -0.36038089 0
0.87446213 -0.31648636 -0.35332274 0
-0.1680069 -0.27041245 -0.36126637 0
-0.061717987 -0.23524284 -0.36608338 0
0.033561707 -0.26570511 -0.36101222 0
0.11579895 -0.24972725 -0.36338544 0
0.22132111 -0.25383949 -0.36659026 0
0.33705902 -0.24731827 -0.36153412 0
0.42757416 -0.23967171 -0.36699653 0
0.55167389 -0.20545578 -0.37224054 0
0.65061569 -0.26070404 -0.36021996 0
0.79191208 -0.21186829 -0.37045407 0
0.91152191 -0.22448158 -0.36437798 0
-0.17614746 -0.15172005 -0.37715459 0
-0.11049652 -0.1705265 -0.3769424 0
0.0058059692 -0.14793777 -0.37830496 0
0.10078049 -0.15954781 -0.37422633 0
0.18386078 -0.16611099 -0.3739965 0
0.29506302 -0.16423988 -0.37650013 0
0.37643051 -0.12521553 -0.38307333 0
0.46619415 -0.12362099 -0.38576055 0
0.58045578 -0.11956978 -0.38420844 0
0.69055557 -0.14748001 -0.38087249 0
0.81848145 -0.13803482 -0.38148284 0
0.94960022 -0.11886215 -0.38604403 0
0.95988846 -0.090236664 -0.38467622 0
-0.16527557 -0.065372467 -0.38388968 0
-0.090400696 -0.080448151 -0.38643813 0
0.0094337463 -0.061756134 -0.39232039 0
0.10413361 -0.036941528 -0.39345288 0
0.22011948 -0.033763885 -0.39583111 0
0.30508804 -0.044803619 -0.39292264 0
0.39603424 -0.052461624 -0.3907392 0
0.48761749 -0.044652939 -0.39023352 0
0.5980835 -0.06039238 -0.39033532 0
0.72795868 -0.029916763 -0.39788127 0
0.84665298 -0.053665161 -0.3945179 0
0.86330414 0.0018539429 -0.39732766 0
0.98474884 -0.014188766 -0.39477468 0
-0.31552505 0.087120056 -0.34711814 0
-0.1514473 0.032964706 -0.39994693 0
-0.074050903 0.049705505 -0.40401959 0
0.0031471252 0.049339294 -0.40611744 0
0.11584854 0.056324005 -0.40623188 0
0.20906067 0.055789948 -0.40482092 0
0.32543945 0.038463593 -0.40538502 0
0.41889191 0.037845612 -0.40391088 0
0.51607513 0.068241119 -0.4065578 0
0.62900925 0.054161072 -0.40621448 0
0.74887848 0.058851242 -0.39616942 0
0.75785828 0.073263168 -0.41403103 0
0.88471603 0.076389313 -0.40865517 0
-0.33890533 0.16048241 -0.35277748 0
-0.093658447 0.12587929 -0.39165902 0
-0.039955139 0.15886879 -0.37015295 0
0.10765839 0.15306664 -0.404634 0
0.15414047 0.197752 -0.37777543 0
0.30336761 0.14172745 -0.42368174 0
0.41667938 0.13829994 -0.41904855 0
0.53884125 0.16814613 -0.42324877 0
0.65071869 0.14560318 -0.41890383 0
0.65380478 0.17168236 -0.41794753 0
0.76966095 0.13471222 -0.41269088 0
0.91013718 0.16991425 -0.42438293 0
-0.24563217 0.26113319 -0.39119554 0
-0.089679718 0.27036667 -0.42219305 0
-0.0085067749 0.24645233 -0.38125372 0
0.088386536 0.21581841 -0.36010671 0
0.45330429 0.21154404 -0.42803836 0
0.56258774 0.27017212 -0.44487238 0
0.67906952 0.266325 -0.44230175 0
0.79191589 0.24518776 -0.43040848 0
0.93345642 0.26330757 -0.44117355 0
-0.25218582 0.33442688 -0.40017271 0
-0.18136978 0.32414627 -0.40402937 0
-0.10615921 0.3523159 -0.41716862 0
0.0096054077 0.33659554 -0.41544247 0
0.076919556 0.3722229 -0.38787198 0
0.94241714 0.34740829 -0.44711304 0
-0.25740051 0.40413284 -0.40928769 0
-0.20785141 0.43976593 -0.418926 0
-0.062885284 0.44585609 -0.43131042 0
0.031761169 0.44280434 -0.43673015 0
0.1004715 0.45883751 -0.42110419 0
0.15242004 0.4623127 -0.40557599 0
0.95363235 0.44588852 -0.46281457 0
-0.30706787 0.16848373 -0.33454943 0
-0.38459778 0.20356941 -0.34158802 0
0.039848328 0.26914406 -0.34818888 0
0.10749435 0.27139282 -0.32364297 0
0.15866852 0.28553391 -0.30321598 0
0.048477173 0.3100605 -0.31712842 0
0.096641541 0.35564613 -0.32517862 0
0.13060379 0.41703033 -0.31554651 0
0.6469574 -0.47802544 -0.32826209 0
0.7988205 -0.46849442 -0.33662152 0
-0.42906952 -0.44443703 -0.3323853 0
-0.3432045 -0.4792366 -0.32963514 0
-0.25710678 -0.43532944 -0.33885074 0
-0.15054703 -0.43023491 -0.33891344 0
-0.072395325 -0.4452858 -0.33418894 0
0.040500641 -0.45182419 -0.33416295 0
0.14780426 -0.44416428 -0.33462477 0
0.25629425 -0.4175415 -0.34268928 0
0.3171463 -0.40956497 -0.33785152 0
0.43261337 -0.40867615 -0.34249401 0
0.55303574 -0.41275787 -0.34055281 0
0.67763901 -0.40859604 -0.33835506 0
0.82520676 -0.41584015 -0.34017825 0
0.97851944 -0.44175911 -0.33489299 0
-0.40247726 -0.37604713 -0.3443861 0
-0.34772873 -0.35769844 -0.34521079 0
-0.22544098 -0.37470627 -0.3452425 0
-0.13196182 -0.30930138 -0.35355091 0
-0.037639618 -0.35843468 -0.34497309 0
0.053264618 -0.343853 -0.34975624 0
0.14712143 -0.33598518 -0.3517735 0
0.24134445 -0.31802177 -0.35367322 0
0.35326004 -0.31745911 -0.35205698 0
0.4665947 -0.32931137 -0.34685349 0
0.59828949 -0.30175591 -0.35912538 0
0.72008133 -0.30661011 -0.35273647 0
0.87899017 -0.28611374 -0.36418223 0
-0.34070587 -0.26266289 -0.36163235 0
-0.25428009 -0.25867462 -0.35949969 0
-0.1476593 -0.23036766 -0.36651397 0
-0.035182953 -0.25461769 -0.36148381 0
0.091629028 -0.23520088 -0.36864448 0
0.18544388 -0.22771072 -0.36916089 0
0.27379608 -0.22712708 -0.3633728 0
0.39188766 -0.20888901 -0.37264848 0
0.50185013 -0.23394012 -0.36101961 0
0.62763977 -0.22559547 -0.3663857 0
0.7589798 -0.20428085 -0.36827374 0
0.90259933 -0.23189926 -0.36629009 0
0.92204285 -0.18169022 -0.37255836 0
-0.33935547 -0.1705761 -0.37328601 0
-0.22999954 -0.16756821 -0.37239766 0
-0.14897537 -0.14341927 -0.37704158 0
-0.053066254 -0.14785385 -0.37842965 0
0.034885406 -0.13604164 -0.38056612 0
0.11440659 -0.15934372 -0.37304044 0
0.24631882 -0.12891197 -0.38290739 0
0.30271912 -0.1332798 -0.37351036 0
0.41805649 -0.12627983 -0.37744808 0
0.52870178 -0.15428543 -0.37432933 0
0.66143417 -0.12848091 -0.37400293 0
0.79631042 -0.09784317 -0.3896215 0
0.94324493 -0.12500954 -0.37466407 0
-0.3236351 -0.059034348 -0.38495636 0
-0.25654221 -0.065605164 -0.38397074 0
-0.1307373 -0.050647736 -0.38930726 0
-0.027561188 -0.050140381 -0.39369059 0
0.059883118 -0.033740997 -0.39178133 0
0.14881897 -0.031469345 -0.3926816 0
0.24172211 -0.034114838 -0.39326954 0
0.32473373 -0.055719376 -0.38667083 0
0.4451828 -0.034683228 -0.39417791 0
0.56131744 -0.049947739 -0.39153647 0
0.70130539 -0.0048904419 -0.40351272 0
0.82188034 -0.017677307 -0.39568186 0
0.99443054 0.026779175 -0.41306663 0
-0.31726074 0.055849075 -0.39202023 0
-0.24575424 0.042144775 -0.39718366 0
-0.17778778 0.029457092 -0.39397597 0
-0.046150208 0.053821564 -0.40266752 0
0.080654144 0.079605103 -0.40573573 0
0.1770668 0.097013474 -0.41185427 0
0.26546097 0.078151703 -0.4049387 0
0.35606003 0.06725502 -0.40724158 0
0.48095322 0.095689774 -0.41726565 0
0.5867424 0.042985916 -0.40310717 0
0.60533905 0.11640549 -0.41403556 0
0.7225647 0.07456398 -0.40969253 0
0.86023712 0.10967636 -0.41755104 0
-0.42892075 0.17172813 -0.37012362 0
-0.35965729 0.15087318 -0.37007499 0
-0.14264297 0.11759567 -0.4019475 0
-0.050506592 0.15350342 -0.38516021 0
0.0022468567 0.19799042 -0.35511017 0
0.15001297 0.15870094 -0.38828111 0
0.28735733 0.18014526 -0.4231143 0
0.37372208 0.1628418 -0.41692138 0
0.48979568 0.15392303 -0.41748667 0
0.61520767 0.17145729 -0.4165473 0
0.75300598 0.19898033 -0.42550206 0
0.87485504 0.16880226 -0.4223516 0
-0.45108032 0.2665863 -0.36799097 0
-0.37164688 0.24940681 -0.36985207 0
-0.18341827 0.26174164 -0.39305043 0
-0.02589035 0.26943016 -0.40374422 0
0.022949219 0.28634453 -0.37776279 0
0.63627625 0.26450539 -0.43353033 0
0.77082825 0.27908325 -0.43745589 0
0.89231873 0.25605392 -0.42877793 0
-0.51556396 0.32924271 -0.36556077 0
-0.47516251 0.33445549 -0.37866116 0
-0.3748703 0.36839485 -0.39619398 0
-0.29740524 0.36602402 -0.39930773 0
-0.18419266 0.34918022 -0.40709662 0
-0.0924263 0.34300423 -0.40882993 0
0.046630859 0.365839 -0.40778565 0
0.098239899 0.40764809 -0.39340472 0
0.90555954 0.34604263 -0.44050241 0
-0.45257568 0.44650459 -0.40415931 0
-0.37692261 0.44631386 -0.40650797 0
-0.28925323 0.4366684 -0.40908337 0
-0.18767166 0.46156502 -0.42171979 0
-0.088726044 0.44954491 -0.42576885 0
0.065441132 0.45792007 -0.43187904 0
0.13402557 0.45562553 -0.40388465 0
-0.31541443 0.16244888 -0.33539057 0
-0.27143097 0.19073105 -0.33487082 0
0.15338516 0.21493912 -0.34660649 0
-0.36100006 0.22277641 -0.34181166 0
0.04656601 0.27317619 -0.34400415 0
0.12878799 0.27992249 -0.31502032 0
0.078411102 0.34561157 -0.33742023 0
0.11944199 0.3818512 -0.31472135 0
0.13409805 0.42075348 -0.36586571 0
0.65398788 -0.46477318 -0.32668352 0
0.82001495 -0.46756172 -0.32993269 0
-0.61014175 -0.44488525 -0.33516812 0
-0.54031372 -0.4424839 -0.33298516 0
-0.43186951 -0.45096207 -0.33130717 0
-0.33286285 -0.4522438 -0.33083081 0
-0.24703217 -0.44998932 -0.33126092 0
-0.16223145 -0.45843124 -0.32793474 0
-0.072338104 -0.46562004 -0.32534981 0
0.02412796 -0.4431839 -0.33475804 0
0.13411713 -0.45303535 -0.33038664 0
0.26098633 -0.43359566 -0.33299232 0
0.391716 -0.41658974 -0.33835173 0
0.40571213 -0.38155365 -0.33953142 0
0.52563477 -0.3917675 -0.34240842 0
0.68237305 -0.39118004 -0.34131646 0
0.84648132 -0.40637207 -0.33512115 0
-0.56504059 -0.35869598 -0.34635234 0
-0.45386887 -0.32674217 -0.34860182 0
-0.35457611 -0.35319519 -0.34541512 0
-0.25001144 -0.33913231 -0.34998059 0
-0.14106369 -0.33670044 -0.34849548 0
-0.023937225 -0.32956505 -0.34793544 0
0.058418274 -0.35070419 -0.34456706 0
0.18395996 -0.31429291 -0.35220408 0
0.28419876 -0.37240219 -0.33941126 0
0.31363678 -0.28655815 -0.3550787 0
0.43241501 -0.30657196 -0.35109115 0
0.55250931 -0.3217392 -0.34579635 0
0.69527054 -0.35957909 -0.3425386 0
0.71731949 -0.29901314 -0.35392451 0
0.88336945 -0.30978966 -0.35260034 0
-0.53993607 -0.23487282 -0.36755276 0
-0.47817612 -0.25443459 -0.35875916 0
-0.35502243 -0.23293304 -0.36429095 0
-0.26817322 -0.25782394 -0.3570807 0
-0.17921448 -0.24749756 -0.3598361 0
-0.060516357 -0.24977112 -0.36048937 0
0.062232971 -0.24568939 -0.35991287 0
0.10720444 -0.19594193 -0.36801434 0
0.22154999 -0.19797897 -0.37055087 0
0.33267975 -0.227108 -0.36145949 0
0.45344543 -0.24366379 -0.35710287 0
0.57983017 -0.2420063 -0.35781646 0
0.75157547 -0.20036316 -0.37043738 0
0.91400528 -0.22613335 -0.36377287 0
-0.52629852 -0.16094398 -0.37100649 0
-0.4533844 -0.14420128 -0.37555599 0
-0.35799408 -0.15510178 -0.37087178 0
-0.24549484 -0.14935684 -0.37051439 0
-0.14849472 -0.13336182 -0.37959504 0
-0.056919098 -0.1228981 -0.38066292 0
0.033081055 -0.13699913 -0.3769033 0
0.12280655 -0.13080978 -0.37187839 0
0.24374771 -0.12099075 -0.38284278 0
0.35097122 -0.16400528 -0.36855912 0
0.48427582 -0.14565468 -0.3771944 0
0.49869919 -0.091953278 -0.38023281 0
0.61182404 -0.14226151 -0.37745762 0
0.78263474 -0.10297394 -0.38160849 0
0.95557785 -0.10268974 -0.38226962 0
-0.51714325 -0.065965652 -0.38078475 0
-0.46220398 -0.04082489 -0.38476419 0
-0.34403992 -0.064172745 -0.38003373 0
-0.23254395 -0.045560837 -0.38457727 0
-0.13763046 -0.027282715 -0.38824034 0
-0.034473419 -0.010601044 -0.39398861 0
0.05487442 -0.049650192 -0.39104891 0
0.13997269 -0.05364418 -0.38006282 0
0.26634216 -0.024503708 -0.39241004 0
0.38113022 -0.054933548 -0.38712025 0
0.52604675 0.00067138672 -0.4027164 0
0.63582611 -0.056350708 -0.38537312 0
0.80946732 -0.0073127747 -0.39118648 0
0.98748398 0.0032730103 -0.39486313 0
-0.51652527 0.040021896 -0.38980246 0
-0.44289017 0.064073563 -0.39449811 0
-0.37409973 0.052675247 -0.38958955 0
-0.25870514 0.05506897 -0.39916158 0
-0.13103104 0.071456909 -0.39979291 0
-0.02947998 0.07118988 -0.40273619 0
0.075763702 0.057653427 -0.40531731 0
0.17100906 0.075183868 -0.40724754 0
0.29116058 0.080543518 -0.41086817 0
0.40955353 0.060285568 -0.40646982 0
0.5397377 0.062122345 -0.40832353 0
0.66464233 0.054697037 -0.40190291 0
0.84428406 0.11605453 -0.41679215 0
-0.53024673 0.17800331 -0.40177679 0
-0.45749664 0.17314339 -0.39342666 0
-0.3672142 0.15689659 -0.36660004 0
-0.29466629 0.1400528 -0.3666997 0
-0.050807953 0.15863419 -0.38281775 0
0.076915741 0.1235218 -0.40803623 0
0.16968536 0.1902771 -0.40699244 0
0.30036926 0.14220428 -0.41605139 0
0.42993546 0.15910149 -0.42116833 0
0.55652618 0.14869499 -0.41670895 0
0.68399429 0.13896942 -0.41383719 0
0.69021225 0.17811775 -0.41584301 0
0.85720825 0.18012047 -0.42120981 0
-0.55961609 0.25629234 -0.39543557 0
-0.47151566 0.26529694 -0.37454557 0
-0.396595 0.23945427 -0.37281251 0
-0.2591362 0.29584503 -0.38843942 0
-0.051445007 0.28621864 -0.41872549 0
0.013465881 0.2862854 -0.3823514 0
0.44055176 0.22647285 -0.42886591 0
0.57607651 0.24152184 -0.4328835 0
0.70956039 0.25891304 -0.43338346 0
0.86683655 0.24013138 -0.4234674 0
0.88610458 0.33325577 -0.44420862 0
-0.63062668 0.37794113 -0.40098619 0
-0.56713486 0.34341621 -0.38641095 0
-0.48538971 0.34144592 -0.38742352 0
-0.37564468 0.366642 -0.39137626 0
-0.25514221 0.3764782 -0.4037149 0
-0.12340546 0.34204102 -0.40787578 0
0.03465271 0.36480141 -0.41273141 0
0.10243988 0.39905357 -0.38447547 0
-0.66638184 0.44632912 -0.39368129 0
-0.57017517 0.44640541 -0.39602566 0
-0.46378708 0.42933464 -0.39352083 0
-0.39937592 0.44796562 -0.39342093 0
-0.25067139 0.47149277 -0.41751528 0
-0.12802887 0.44101715 -0.41985154 0
0.049053192 0.46801376 -0.4331944 0
0.13598251 0.43268585 -0.39277911 0
-0.33971405 0.1944561 -0.33459449 0
-0.27824783 0.17372513 -0.33926511 0
0.0021476746 0.21763229 -0.35384297 0
-0.46665573 0.26191902 -0.34921217 0
-0.39616013 0.23176765 -0.34597588 0
-0.2872963 0.2167511 -0.32984471 0
0.054618835 0.28347778 -0.34218287 0
0.12842941 0.25927734 -0.32556319 0
0.06993866 0.35250664 -0.34645963 0
0.11389542 0.36923027 -0.30954266 0
0.15512466 0.45096779 -0.34855318 0
0.35089874 -0.48531723 -0.32757258 0
-0.79038239 -0.48823547 -0.32321763 0
-0.72311783 -0.4414196 -0.33331203 0
-0.63888931 -0.46905899 -0.32998848 0
-0.52967072 -0.46764374 -0.32677531 0
-0.402668 -0.45503807 -0.33168864 0
-0.30896759 -0.44173431 -0.33719683 0
-0.22057343 -0.45852852 -0.33052421 0
-0.11747742 -0.42504883 -0.33483505 0
-0.0085830688 -0.44262886 -0.33244276 0
0.10678482 -0.45875168 -0.33108759 0
0.12813568 -0.40385056 -0.33095431 0
0.25093842 -0.41527557 -0.335814 0
0.37682343 -0.41916656 -0.33480763 0
0.52951813 -0.43597794 -0.3343277 0
0.69462967 -0.45947838 -0.32542801 0
0.72359085 -0.38308144 -0.3395896 0
0.90688705 -0.39622498 -0.34017134 0
-0.72629929 -0.3543148 -0.34538627 0
-0.64027023 -0.35351562 -0.34568596 0
-0.52370834 -0.34454727 -0.3448751 0
-0.45456696 -0.35424995 -0.34470749 0
-0.34897995 -0.35020638 -0.34389591 0
-0.23577118 -0.33888626 -0.34704447 0
-0.13072586 -0.32983589 -0.3455286 0
-0.075996399 -0.30164146 -0.35197878 0
0.036758423 -0.31253433 -0.35574627 0
0.16169739 -0.30355835 -0.3516736 0
0.28150177 -0.32849312 -0.34556079 0
0.40958405 -0.32737923 -0.35263824 0
0.41849518 -0.30177307 -0.35085368 0
0.57430649 -0.31438637 -0.35505223 0
0.75177002 -0.30638695 -0.34948921 0
0.93138885 -0.33581543 -0.3422246 0
-0.71029282 -0.25019455 -0.35585237 0
-0.62560272 -0.26496887 -0.35530519 0
-0.53221893 -0.2496376 -0.35964537 0
-0.41998291 -0.24320793 -0.3658793 0
-0.33568192 -0.24490547 -0.3579576 0
-0.24033356 -0.22650337 -0.36316347 0
-0.15628433 -0.26042747 -0.35269547 0
-0.053459167 -0.2262516 -0.36445069 0
0.065723419 -0.21922493 -0.36936808 0
0.18208313 -0.23778534 -0.36042452 0
0.32233047 -0.20162392 -0.37074757 0
0.44075012 -0.23177147 -0.35882044 0
0.5978775 -0.24611473 -0.36160111 0
0.61832047 -0.18304062 -0.3722918 0
0.78980637 -0.19396591 -0.36380386 0
0.9743576 -0.21448898 -0.36647487 0
-0.69717026 -0.17708397 -0.3633666 0
-0.61789703 -0.15955544 -0.37284136 0
-0.54569244 -0.13221741 -0.37508368 0
-0.41744232 -0.15748024 -0.37369847 0
-0.3154335 -0.15248299 -0.37341142 0
-0.22539139 -0.14512444 -0.37330985 0
-0.12475586 -0.13741493 -0.3740232 0
-0.027359009 -0.12361717 -0.37734938 0
0.080039978 -0.16004372 -0.37006545 0
0.20135117 -0.17352486 -0.37303543 0
0.21375275 -0.12830162 -0.37954783 0
0.34193802 -0.1278553 -0.37492561 0
0.47906113 -0.10381699 -0.38183165 0
0.64354324 -0.099765778 -0.38512111 0
0.82006454 -0.097682953 -0.38038945 0
-0.64451599 -0.06329155 -0.38092756 0
-0.54024887 -0.049436569 -0.38256192 0
-0.45306396 -0.058885574 -0.38263655 0
-0.32484818 -0.036859512 -0.38790512 0
-0.22054291 -0.05393219 -0.37992477 0
-0.12199783 -0.073299408 -0.37522149 0
-0.0084648132 -0.039800644 -0.38872957 0
0.099506378 -0.084136963 -0.38249159 0
0.11050034 -0.036481857 -0.38964653 0
0.23159027 -0.047733307 -0.38630247 0
0.37342072 -0.0082683563 -0.39575505 0
0.50191498 -0.011886597 -0.39191175 0
0.66368103 -0.024129868 -0.39197588 0
0.84757233 -0.0020065308 -0.39527369 0
-0.69496536 0.08354187 -0.39067411 0
-0.65101242 0.046285629 -0.39142084 0
-0.53686905 0.033103943 -0.39377451 0
-0.44845963 0.055953979 -0.39263129 0
-0.35203934 0.054254532 -0.39089561 0
-0.20972824 0.067638397 -0.397681 0
-0.099121094 0.062110901 -0.40430427 0
0.00086975098 0.038694382 -0.39988327 0
0.1275177 0.052288055 -0.4010191 0
0.25440979 0.066703796 -0.3998847 0
0.39104462 0.07982254 -0.40494108 0
0.52350998 0.080062866 -0.40559387 0
0.68561935 0.061872482 -0.40524507 0
0.87372208 0.10408974 -0.40658236 0
-0.70479202 0.13785553 -0.39262033 0
-0.64515305 0.1530323 -0.39836788 0
-0.54545975 0.13536263 -0.40135837 0
-0.43673706 0.14427185 -0.39332986 0
-0.33975983 0.14425087 -0.35932231 0
-0.28964996 0.14338684 -0.35169625 0
-0.028713226 0.15710258 -0.39296341 0
0.0094985962 0.20081902 -0.36805558 0
0.16928101 0.18837166 -0.36969137 0
0.27641296 0.16617012 -0.4201014 0
0.40981674 0.17205238 -0.41986942 0
0.53718185 0.14966583 -0.41442037 0
0.71300888 0.18164825 -0.42309761 0
0.90348053 0.22338104 -0.42867827 0
-0.70960617 0.26099205 -0.41090775 0
-0.63510895 0.2449131 -0.40892911 0
-0.54933167 0.25226593 -0.39687324 0
-0.45569229 0.24533463 -0.38043261 0
-0.37680435 0.24139786 -0.37088299 0
-0.004486084 0.29951286 -0.42908597 0
0.030014038 0.27117538 -0.3774488 0
0.72597122 0.25647545 -0.43063378 0
0.91217422 0.27157021 -0.43308568 0
-0.74297333 0.32134247 -0.40712118 0
-0.64048386 0.34119987 -0.39940119 0
-0.56481171 0.33864403 -0.38838911 0
-0.48093796 0.33182907 -0.38041711 0
-0.38478088 0.32808304 -0.37977529 0
-0.2473526 0.34696198 -0.39649868 0
-0.080718994 0.34798622 -0.41593814 0
0.061935425 0.35850716 -0.4081924 0
0.11114502 0.38787651 -0.38218069 0
-0.82189941 0.4533577 -0.40628123 0
-0.75708008 0.42580032 -0.4080925 0
-0.67824173 0.43447876 -0.40047812 0
-0.5753479 0.43326569 -0.39039731 0
-0.46751785 0.47158813 -0.40786338 0
-0.36845016 0.4435997 -0.40556002 0
-0.24163437 0.43566513 -0.41007304 0
-0.11005783 0.4325676 -0.41643381 0
-0.094661713 0.4568367 -0.42669511 0
0.075115204 0.45638847 -0.44073129 0
0.14990997 0.45153236 -0.39887691 0
-0.33404541 0.18933487 -0.33352637 0
-0.28311157 0.19192505 -0.32089019 0
0.17174911 0.2051239 -0.34804463 0
-0.41182709 0.23284721 -0.33748627 0
0.061138153 0.26120758 -0.34225202 0
0.1463356 0.2840786 -0.31978989 0
0.093151093 0.35349274 -0.33875585 0
0.14631271 0.37433243 -0.31227255 0
0.13877487 -0.498209 -0.32637286 0
0.70249557 -0.46128464 -0.3328898 0
0.89949799 -0.49882317 -0.3127718 0
-0.93369293 -0.44472885 -0.32674241 0
-0.81871796 -0.45226288 -0.32991171 0
-0.75080872 -0.48478699 -0.32816148 0
-0.6503067 -0.45719528 -0.33002067 0
-0.55250168 -0.44113922 -0.33092666 0
-0.4621582 -0.46758842 -0.32622123 0
-0.36645508 -0.46509933 -0.32687521 0
-0.23116684 -0.42107391 -0.33818483 0
-0.099689484 -0.40779686 -0.33627439 0
0.015293121 -0.46741486 -0.33086157 0
0.037506104 -0.39860535 -0.33930397 0
0.16394806 -0.42246628 -0.33625507 0
0.31770325 -0.46691132 -0.33265758 0
0.33668518 -0.41040039 -0.34136105 0
0.50469971 -0.45551109 -0.3288238 0
0.52421188 -0.39620018 -0.33796406 0
0.72538757 -0.39455414 -0.34182882 0
0.91550064 -0.42032051 -0.33413625 0
-0.93805695 -0.33679008 -0.34577107 0
-0.82604599 -0.37747955 -0.34135866 0
-0.70643616 -0.34276009 -0.34713125 0
-0.61355972 -0.33086014 -0.34597516 0
-0.51958466 -0.32709885 -0.34619927 0
-0.43354416 -0.3744297 -0.34126782 0
-0.32839203 -0.34028625 -0.34873772 0
-0.20911407 -0.34397697 -0.34505677 0
-0.071933746 -0.31233406 -0.35071325 0
0.051006317 -0.35247612 -0.34418607 0
0.19620514 -0.31635857 -0.35160661 0
0.36143112 -0.33010292 -0.35060358 0
0.55877686 -0.28580284 -0.35869098 0
0.75123978 -0.31322098 -0.35163283 0
0.9568367 -0.29528999 -0.35864615 0
-0.99556732 -0.27437592 -0.35547781 0
-0.93537903 -0.22976685 -0.36060929 0
-0.84761429 -0.28281975 -0.35260105 0
-0.76020432 -0.25671768 -0.3620286 0
-0.62193298 -0.23947525 -0.35794806 0
-0.49618149 -0.23556709 -0.36155534 0
-0.39863205 -0.24102402 -0.36272788 0
-0.30448151 -0.2420826 -0.35864449 0
-0.18742371 -0.26563072 -0.35842919 0
-0.17200089 -0.20051575 -0.36725998 0
-0.046970367 -0.22197533 -0.36745954 0
0.078300476 -0.25175476 -0.35870695 0
0.21113586 -0.25876999 -0.35614848 0
0.39052963 -0.22538376 -0.36388516 0
0.56605148 -0.25086594 -0.35160589 0
0.77776718 -0.22450638 -0.36423159 0
0.98221588 -0.2077713 -0.36226153 0
-0.94585037 -0.16401482 -0.36757302 0
-0.84380341 -0.15792465 -0.36861634 0
-0.74398804 -0.15893173 -0.37225842 0
-0.66518402 -0.14847755 -0.37422919 0
-0.57405472 -0.13540649 -0.37507033 0
-0.48471069 -0.15559959 -0.37047172 0
-0.33718491 -0.159338 -0.37253737 0
-0.16218567 -0.12358856 -0.37279987 0
-0.032550812 -0.15632057 -0.37478209 0
0.10473251 -0.13490295 -0.37240052 0
0.24061203 -0.13994408 -0.37448359 0
0.40608215 -0.15867805 -0.36941695 0
0.42488098 -0.087844849 -0.38455105 0
0.60222626 -0.12160683 -0.37848425 0
0.80095673 -0.1431427 -0.37849379 0
0.81758118 -0.079963684 -0.38821864 0
-0.93967056 -0.064916611 -0.37544608 0
-0.82476044 -0.050483704 -0.37978864 0
-0.75098038 -0.087968826 -0.3728478 0
-0.67034912 -0.071357727 -0.37695384 0
-0.57309723 -0.047170639 -0.38291669 0
-0.48014832 -0.068470001 -0.38039589 0
-0.37749481 -0.040437698 -0.38617754 0
-0.27957535 -0.042348862 -0.38805652 0
-0.15486908 -0.016405106 -0.38772631 0
-0.0060386658 -0.025251389 -0.39422846 0
0.12823868 -0.021327972 -0.39024591 0
0.26575851 -0.025339127 -0.39188623 0
0.44247437 -0.0015964508 -0.39541173 0
0.62499237 -0.014970779 -0.38989902 0
0.83657074 0.0040168762 -0.39765048 0
-0.94788361 0.038883209 -0.38849854 0
-0.82988358 0.039968491 -0.38831878 0
-0.7504921 0.019702911 -0.38721085 0
-0.67809677 0.047130585 -0.38797331 0
-0.57992172 0.049528122 -0.39111161 0
-0.4753418 0.049020767 -0.39674854 0
-0.35852432 0.068471909 -0.38394237 0
-0.27880859 0.046918869 -0.39748931 0
-0.14886856 0.070253372 -0.40170979 0
0.0044975281 0.073696136 -0.40789962 0
0.14087677 0.068508148 -0.4000392 0
0.28534317 0.067596436 -0.40900779 0
0.45890808 0.10282707 -0.40628052 0
0.65293121 0.10673141 -0.41306114 0
0.85061264 0.081342697 -0.40342426 0
-0.95688248 0.12781143 -0.39381027 0
-0.85580444 0.12790871 -0.39761519 0
-0.7647934 0.14934921 -0.39881873 0
-0.68749237 0.17425156 -0.40283704 0
-0.56403732 0.15473366 -0.39432716 0
-0.45177078 0.15749168 -0.38447976 0
-0.35918808 0.14867401 -0.36225557 0
-0.037410736 0.17058754 -0.36072946 0
0.0026359558 0.12357521 -0.41267538 0
0.29547501 0.14598846 -0.41700077 0
0.47708893 0.20711136 -0.42364502 0
0.65908432 0.16855431 -0.4152298 0
0.87683487 0.20340538 -0.4255774 0
-0.94610214 0.23259735 -0.40094018 0
-0.8696022 0.25269699 -0.40478539 0
-0.78436279 0.26503372 -0.40952635 0
-0.63875961 0.26514435 -0.40437913 0
-0.55116272 0.24806976 -0.3887403 0
-0.4589119 0.24879837 -0.3719883 0
-0.025569916 0.29718018 -0.40711904 0
0.024608612 0.29511261 -0.37027621 0
0.89891434 0.32141876 -0.44740891 0
-0.96304703 0.33427429 -0.40649033 0
-0.82001495 0.32130814 -0.40639853 0
-0.73300552 0.34220314 -0.41449547 0
-0.66069794 0.34469414 -0.39834285 0
-0.56252289 0.35819435 -0.38563967 0
-0.48166275 0.3853817 -0.3905232 0
-0.34912491 0.35064697 -0.39147472 0
-0.11792374 0.39340973 -0.42182064 0
0.060886383 0.37431908 -0.3925159 0
-0.95772552 0.44630623 -0.40463161 0
-0.8710022 0.43048096 -0.40647292 0
-0.76320648 0.43577957 -0.40594697 0
-0.69574356 0.43292046 -0.39628315 0
-0.59190369 0.46228027 -0.39847422 0
-0.49182892 0.44531059 -0.39622331 0
-0.33869934 0.43368912 -0.40294147 0
-0.13005447 0.47368431 -0.4269731 0
0.042266846 0.47503471 -0.43356156 0
0.12091446 0.47768974 -0.40922046 0
-0.29244232 0.16325378 -0.32325697 0
0.12008667 0.1991787 -0.32222986 0
-0.38795471 0.21983719 -0.33806777 0
0.037628174 0.26499176 -0.33911967 0
0.14075089 0.30598831 -0.30650926 0
0.076999664 0.35540581 -0.3323977 0
0.10458374 0.3616066 -0.30299997 0
-0.8755455 -0.47212029 -0.32974243 0
-0.68585587 -0.47544479 -0.32999921 0
-0.5983963 -0.48349571 -0.32820153 0
-0.48266602 -0.47830391 -0.32960081 0
-0.36647415 -0.49198723 -0.3294754 0
-0.22598267 -0.44535255 -0.33585262 0
-0.10812759 -0.47072792 -0.33320999 0
0.05688858 -0.44485664 -0.33596039 0
0.41514969 -0.43448448 -0.3368547 0
0.59645844 -0.4372654 -0.33112597 0
0.81917191 -0.48636627 -0.32561493 0
0.84363174 -0.41191673 -0.33796954 0
-0.92220688 -0.38702393 -0.34075475 0
-0.80416107 -0.39249802 -0.34056902 0
-0.703228 -0.37433434 -0.34724092 0
-0.62739944 -0.37658882 -0.34422112 0
-0.5590477 -0.34704208 -0.34956551 0
-0.45087051 -0.36937904 -0.34577346 0
-0.33990479 -0.40069008 -0.33770204 0
-0.20388031 -0.36473656 -0.34349704 0
-0.087844849 -0.40198135 -0.34138012 0
0.0741539 -0.38350868 -0.34119368 0
0.2395668 -0.40479088 -0.34416032 0
0.25392151 -0.35408974 -0.34862041 0
0.43160629 -0.3812542 -0.345433 0
0.63318253 -0.31894875 -0.35437441 0
0.8745079 -0.31167793 -0.35278821 0
-0.99048615 -0.28759193 -0.35079956 0
-0.91693497 -0.29150581 -0.34917998 0
-0.81752777 -0.26518059 -0.35922289 0
-0.72803879 -0.27606773 -0.35579538 0
-0.63072586 -0.27071762 -0.35980082 0
-0.53820801 -0.26089478 -0.3615396 0
-0.42718887 -0.26860428 -0.35704446 0
-0.30517197 -0.26924896 -0.3594451 0
-0.18083954 -0.27178574 -0.35554028 0
-0.062992096 -0.31605911 -0.35689139 0
-0.05581665 -0.27339554 -0.35370564 0
0.10122299 -0.27991867 -0.3541007 0
0.27789688 -0.26636696 -0.3617413 0
0.4582901 -0.28720093 -0.35825419 0
0.6475029 -0.26579285 -0.35893822 0
-0.92212677 -0.1742897 -0.36976981 0
-0.80125046 -0.17169189 -0.37096596 0
-0.71297455 -0.17986298 -0.36891651 0
-0.62018204 -0.18656158 -0.36575985 0
-0.52307129 -0.15878296 -0.37357306 0
-0.41985703 -0.19919205 -0.36014128 0
-0.28184509 -0.13708687 -0.37968731 0
-0.15251541 -0.15307808 -0.37665296 0
-0.04196167 -0.20635414 -0.36014342 0
0.11777115 -0.20842171 -0.3627789 0
0.3027916 -0.17109489 -0.37804174 0
0.48335266 -0.18433762 -0.36860681 0
0.68096161 -0.14377403 -0.38137293 0
0.91994095 -0.14546204 -0.37539387 0
-0.91296387 -0.084980011 -0.37685609 0
-0.80689621 -0.085321426 -0.37596941 0
-0.72001266 -0.059831619 -0.37593412 0
-0.61771393 -0.077192307 -0.37696314 0
-0.52355957 -0.077253342 -0.37909102 0
-0.40597916 -0.099946976 -0.37960196 0
-0.28094482 -0.071516037 -0.38546705 0
-0.14860153 -0.062828064 -0.38477945 0
-0.013973236 -0.080368042 -0.3833034 0
0.14857864 -0.084968567 -0.38855624 0
0.32252884 -0.083337784 -0.39062977 0
0.51137161 -0.07178688 -0.38894796 0
0.70029831 -0.048284531 -0.3879683 0
-0.90671921 0.02845192 -0.38420987 0
-0.81122208 0.021184921 -0.38760519 0
-0.72647476 0.046669006 -0.38729239 0
-0.61214447 0.036794662 -0.39676857 0
-0.51880264 0.025665283 -0.39508843 0
-0.39924622 0.033994675 -0.39870119 0
-0.27828598 0.011684418 -0.39597344 0
-0.15357971 -0.0012512207 -0.38733482 0
0.002910614 0.063560486 -0.40452027 0
0.16415787 0.012836456 -0.39857674 0
0.34649658 0.036783218 -0.40806746 0
0.52728271 0.026691437 -0.39689326 0
0.53276825 0.041631699 -0.40236044 0
0.72068405 0.052604675 -0.40120292 0
0.96522522 0.039892197 -0.40391707 0
-0.91031647 0.1482811 -0.40237665 0
-0.81985092 0.12589264 -0.39909673 0
-0.72312927 0.14570427 -0.40553594 0
-0.62866592 0.1016674 -0.39665008 0
-0.54309845 0.13726616 -0.3988378 0
-0.41932678 0.14324188 -0.38151956 0
-0.3096962 0.093984604 -0.38354492 0
-0.11872101 0.11649132 -0.40187645 0
-0.05563736 0.14954758 -0.37438393 0
0.17989349 0.10246849 -0.4131918 0
0.35403824 0.12032318 -0.4113946 0
0.54846573 0.14846611 -0.41384697 0
0.74581528 0.15816689 -0.42470431 0
0.98382568 0.13423729 -0.41529465 0
-0.94976044 0.21166039 -0.39599562 0
-0.84184265 0.21132088 -0.40299225 0
-0.73818588 0.21201324 -0.40879583 0
-0.62694931 0.22534752 -0.40965295 0
-0.50960541 0.22683716 -0.3854692 0
-0.43741989 0.25967216 -0.36590624 0
-0.01581955 0.26491165 -0.39201808 0
0.7510643 0.20414734 -0.42752719 0
-0.91503525 0.31184196 -0.39415407 0
-0.81351852 0.31685257 -0.41698241 0
-0.73137283 0.29533005 -0.40715933 0
-0.62663269 0.31727791 -0.39948654 0
-0.54143143 0.29330254 -0.37810969 0
-0.35208511 0.35378265 -0.3930006 0
-0.1186676 0.35635757 -0.41829705 0
-0.0082778931 0.32128906 -0.41613507 0
-0.91202164 0.42874908 -0.40186977 0
-0.81899643 0.39953423 -0.40550995 0
-0.72494507 0.40993118 -0.40770221 0
-0.64835739 0.39028168 -0.39984703 0
-0.49850464 0.41754532 -0.39547157 0
-0.35651398 0.41795158 -0.3999095 0
-0.13996506 0.40875053 -0.41654992 0
0.070098877 0.43106651 -0.41914296 0
-0.42181396 0.16687965 -0.34807563 0
-0.32083893 0.15835953 -0.33383155 0
-0.38450241 0.21178627 -0.34443188 0
-0.00090408325 0.22995949 -0.36344528 0
0.051544189 0.25444412 -0.33132625 0
0.15162659 0.23972702 -0.33350754 0
-0.46961212 0.30581284 -0.36624122 0
0.026607513 0.29787445 -0.37536263 0
0.074970245 0.33841515 -0.33728313 0
0.14024353 0.43390656 -0.34250379 0
0.12966919 0.32793045 -0.27741337 0
-0.99088669 -0.48984146 -0.32570815 0
-0.65695953 -0.45620346 -0.33543706 0
-0.53842926 -0.47452354 -0.33325076 0
-0.41042328 -0.48073006 -0.33552504 0
-0.26568604 -0.4326458 -0.34372854 0
-0.12026978 -0.4859581 -0.33508897 0
0.063743591 -0.46046066 -0.33911204 0
0.24669266 -0.48767281 -0.33482385 0
0.45305634 -0.43772697 -0.34795785 0
0.59006119 -0.49951363 -0.31786489 0
0.70321274 -0.43104362 -0.34169245 0
0.89055252 -0.49923134 -0.32988954 0
0.96746445 -0.46439934 -0.32888865 0
-0.96517181 -0.41035652 -0.33820772 0
-0.85658264 -0.38300514 -0.34026957 0
-0.76407623 -0.40838242 -0.34165096 0
-0.63155746 -0.36927795 -0.3508029 0
-0.50207138 -0.3495903 -0.35292506 0
-0.38254929 -0.38744354 -0.34766722 0
-0.37414932 -0.35328484 -0.34935808 0
-0.25080109 -0.37722778 -0.34691811 0
-0.084934235 -0.3710022 -0.3540895 0
0.096759796 -0.34944534 -0.35367918 0
0.28061295 -0.3777256 -0.34817171 0
0.47755814 -0.35764313 -0.35541272 0
0.73009491 -0.34743881 -0.35863662 0
-0.93360901 -0.29801178 -0.35735321 0
-0.73286057 -0.29580879 -0.35895467 0
-0.61457062 -0.29139519 -0.35409427 0
-0.48209381 -0.26453781 -0.36214781 0
-0.35011673 -0.26936722 -0.36809611 0
-0.22450256 -0.27588463 -0.36094332 0
-0.062042236 -0.28111839 -0.36197519 0
0.10315323 -0.3131752 -0.34729385 0
0.31560135 -0.25244141 -0.3667469 0
0.51208878 -0.24147987 -0.37610888 0
0.75540161 -0.2587738 -0.36621308 0
-0.90877914 -0.18449974 -0.37170768 0
-0.80707169 -0.18274307 -0.37523627 0
-0.71450043 -0.21580124 -0.36881375 0
-0.59429932 -0.20578003 -0.36986351 0
-0.46658707 -0.18608665 -0.3720901 0
-0.33649826 -0.18992996 -0.37470651 0
-0.19647598 -0.1470108 -0.38396311 0
-0.037818909 -0.17505836 -0.37489462 0
0.14276123 -0.17164421 -0.37959528 0
0.33296585 -0.17805672 -0.37349272 0
0.5201683 -0.20419312 -0.37501311 0
0.5256424 -0.17434502 -0.37355328 0
0.78042221 -0.1658268 -0.37785292 0
-0.90908051 -0.085208893 -0.38060427 0
-0.80815506 -0.07068634 -0.38349748 0
-0.70161819 -0.10557556 -0.38672519 0
-0.58674622 -0.08890152 -0.38368082 0
-0.45993042 -0.11181831 -0.38327074 0
-0.33498764 -0.10558891 -0.37952328 0
-0.20151901 -0.061000824 -0.3866787 0
-0.02338028 -0.08896637 -0.38170528 0
0.16849518 -0.052684784 -0.39638162 0
0.35666656 -0.07484436 -0.38935614 0
0.54719543 -0.08921051 -0.38860035 0
0.80522537 -0.063293457 -0.39116216 0
-0.92108154 0.0033626556 -0.38449645 0
-0.82433319 0.020162582 -0.38575745 0
-0.71140289 0.021644592 -0.3970449 0
-0.59506226 -0.002161026 -0.38922858 0
-0.45486832 -0.0073261261 -0.39735484 0
-0.32915115 0.0069408417 -0.3957746 0
-0.20013428 0.049131393 -0.3998723 0
-0.011657715 0.035856247 -0.39968085 0
0.18262863 0.026683807 -0.40611792 0
0.38784409 0.056465149 -0.41585016 0
0.57416534 0.026920319 -0.40882111 0
0.83866119 0.069892883 -0.41710663 0
-0.93476868 0.11158943 -0.39531183 0
-0.83039856 0.11501694 -0.39733601 0
-0.72178268 0.13658333 -0.40876341 0
-0.60229111 0.1262207 -0.40536118 0
-0.53044128 0.11478615 -0.40771484 0
-0.46194458 0.12264061 -0.39936614 0
-0.36927414 0.099500656 -0.38142228 0
-0.27777481 0.14295578 -0.36966419 0
-0.012611389 0.1390686 -0.38373089 0
0.18796921 0.07840538 -0.40897655 0
0.40288544 0.14636803 -0.42754674 0
0.5926857 0.12699509 -0.42150736 0
0.85684967 0.15388489 -0.43051076 0
-0.9617424 0.22553635 -0.40548801 0
-0.84050369 0.22037125 -0.41239858 0
-0.73565292 0.22921944 -0.41716075 0
-0.61474228 0.22829628 -0.41630363 0
-0.52713394 0.22442436 -0.39623046 0
-0.42087555 0.20417404 -0.38081646 0
-0.32785034 0.20679283 -0.37012959 0
0.027671814 0.26543999 -0.37575102 0
0.60574341 0.19937325 -0.43267989 0
0.86010361 0.1909771 -0.4297986 0
-0.92879105 0.3601284 -0.40726352 0
-0.87966537 0.27453995 -0.40591431 0
-0.73907852 0.32404709 -0.41742802 0
-0.64382172 0.32047272 -0.4055016 0
-0.5351181 0.32241631 -0.39425516 0
-0.42526245 0.36232185 -0.3923831 0
-0.16728973 0.35117149 -0.41238213 0
0.040473938 0.32507896 -0.40178871 0
0.87896347 0.28632736 -0.44661212 0
-0.93425751 0.43630219 -0.4080205 0
-0.85138702 0.38755417 -0.41604376 0
-0.71592331 0.44792747 -0.41500521 0
-0.61909103 0.40976524 -0.39148211 0
-0.57533264 0.38898849 -0.38401866 0
-0.41921234 0.45829582 -0.41026855 0
-0.17417526 0.44212151 -0.42465258 0
0.07698822 0.41197968 -0.42462707 0
0.14638901 0.45582581 -0.41842747 0
0.13847733 0.49652672 -0.41943789 0
-0.33664703 0.24311256 -0.35598397 0
-0.26008224 0.21307755 -0.35433292 0
0.0034866333 0.18182945 -0.35714245 0
0.1024437 0.24963188 -0.3177793 0
0.15576172 0.20216942 -0.35583949 0
-0.41462708 0.28420258 -0.35975003 0
0.080791473 0.32158279 -0.35148787 0
0.15947723 0.31957626 -0.30964279 0
0.14437485 0.41916656 -0.35972714 0
-0.92927551 -0.49933529 -0.32691741 0
-0.90748978 -0.40487194 -0.34192228 0
-0.987957 -0.28456497 -0.35491467 0
-0.89805222 -0.35198212 -0.34522152 0
-0.87906265 -0.27354431 -0.35953164 0
-0.9681778 -0.19649124 -0.36913109 0
