# .PCD v0.7 - Point Cloud Data file format
VERSION 0.7
FIELDS x y z intensity
SIZE 4 4 4 4
TYPE F F F F
COUNT 1 1 1 1
WIDTH 1298
HEIGHT 1
VIEWPOINT 0 0 0 1 0 0 0
POINTS 1298
DATA ascii
0.46829128 0.047561646 -0.34942663 0
0.089215279 0.26237106 -0.37907875 0
0.16306305 0.29766655 -0.3634758 0
0.35859489 0.18343353 -0.37563396 0
0.44749737 0.16482162 -0.35743833 0
0.20592213 0.37422943 -0.37561488 0
0.28150654 0.33370209 -0.33404636 0
0.40105247 0.24535751 -0.36369228 0
0.47519779 0.24802208 -0.35908413 0
0.17267895 0.45979309 -0.42032957 0
0.2518549 0.46660614 -0.40066123 0
0.33101463 0.42682266 -0.36923242 0
0.44190025 0.47618675 -0.38803589 0
0.51998806 -0.42741585 -0.30338168 0
0.62044525 -0.43580437 -0.28698301 0
0.72227764 -0.4603138 -0.26437235 0
0.5556221 -0.33731461 -0.3027457 0
0.66233253 -0.35102654 -0.28360677 0
0.72352886 -0.38183022 -0.26808381 0
0.54858208 -0.18791962 -0.30787945 0
0.60856533 -0.23469353 -0.29808462 0
0.69480038 -0.25568771 -0.27737534 0
0.76856327 -0.32434845 -0.26048648 0
0.57084274 -0.084152222 -0.31202888 0
0.67204762 -0.13393593 -0.28072119 0
0.51746655 0.039262772 -0.32094586 0
0.59690666 -0.0047645569 -0.30344033 0
0.68703651 -0.045379639 -0.28431547 0
0.47671795 0.17562103 -0.33854067 0
0.56193161 0.13652802 -0.32825577 0
0.63041115 0.093257904 -0.29919147 0
0.70902061 0.069412231 -0.2837857 0
0.30889416 0.34460831 -0.32930696 0
0.4244442 0.34098434 -0.33233118 0
0.49160004 0.2661438 -0.34871149 0
0.57683182 0.22183228 -0.31874478 0
0.68813705 0.21793747 -0.30314052 0
0.37809753 0.40771103 -0.35222781 0
0.44827938 0.38706017 -0.34658349 0
0.53287411 0.36946106 -0.33665383 0
0.61032391 0.32999802 -0.31113327 0
0.50113964 0.47716522 -0.35461557 0
0.57599068 0.45396042 -0.321679 0
0.61287975 0.39370918 -0.3206991 0
0.76828575 -0.38062477 -0.23869717 0
0.83875656 -0.43443108 -0.24465108 0
0.79394436 -0.264534 -0.25162828 0
0.8786068 -0.32762909 -0.23499441 0
0.75784111 -0.1748333 -0.25214982 0
0.85809994 -0.21088982 -0.22857463 0
0.94203281 -0.26880836 -0.21309447 0
0.72166443 -0.040647507 -0.25489521 0
0.79747581 -0.060102463 -0.2542578 0
0.86706638 -0.098121643 -0.2309196 0
0.95351124 -0.18110275 -0.21036005 0
0.76417828 0.056163788 -0.26216197 0
0.86719894 0.028747559 -0.23829651 0
0.94567776 -0.059656143 -0.21744287 0
0.69813347 0.13862991 -0.28206086 0
0.78404999 0.16217613 -0.25449193 0
0.86221504 0.10995293 -0.23400784 0
0.94927788 0.089851379 -0.2264415 0
0.65682983 0.30995178 -0.26951277 0
0.73103142 0.26616859 -0.26589215 0
0.83393288 0.23278046 -0.25384617 0
0.96061802 0.20273972 -0.24757445 0
0.60853863 0.41918373 -0.29274464 0
0.67877674 0.41513062 -0.27677619 0
0.75658894 0.38360786 -0.25584614 0
0.83562374 0.44049072 -0.2546531 0
0.99199963 -0.21805382 -0.18283057 0
0.93035984 -0.11546707 -0.18596721 0
0.96912861 -0.15732956 -0.17978799 0
0.9533205 -0.0072669983 -0.2023586 0
0.99441051 0.14534378 -0.22305119 0
0.71907806 -0.45770264 0.76738894 0
0.79063606 -0.4329071 0.81165063 0
0.83526802 -0.41675949 0.86960149 0
0.9124651 -0.38458443 0.87646806 0
-0.68944359 -0.4551239 -0.2383045 0
-0.59901333 -0.36838913 -0.26401794 0
-0.53659534 -0.40964317 -0.27197266 0
-0.43300152 -0.41339684 -0.29337585 0
-0.36042976 -0.49162483 -0.29893959 0
-0.48859406 -0.326828 -0.29061615 0
-0.41175652 -0.31526375 -0.30674303 0
-0.30677032 -0.39778328 -0.32264519 0
-0.24681854 -0.4388504 -0.3283174 0
-0.15443993 -0.45948219 -0.34002435 0
-0.45268917 -0.22365761 -0.31254327 0
-0.3647089 -0.26228714 -0.32237625 0
-0.28070545 -0.30023575 -0.33897841 0
-0.16413116 -0.32798767 -0.35938847 0
-0.084810257 -0.38445854 -0.36437666 0
0.019122124 -0.43212128 -0.36984634 0
0.081583023 -0.4372139 -0.34585261 0
0.15650463 -0.46432495 -0.33657002 0
-0.37922955 -0.12650108 -0.33629858 0
-0.31492424 -0.17072296 -0.34572232 0
-0.24564934 -0.20383453 -0.35586548 0
-0.16129017 -0.24708557 -0.3664546 0
-0.070524216 -0.2857132 -0.37679267 0
0.041316986 -0.33137131 -0.39396811 0
0.11207676 -0.36685562 -0.38493836 0
0.23281097 -0.40592194 -0.390854 0
0.30433273 -0.43967438 -0.3695575 0
-0.28884888 -0.067750931 -0.35952449 0
-0.19653225 -0.11365509 -0.37898576 0
-0.12036324 -0.13869286 -0.37775791 0
-0.044940948 -0.19136238 -0.39777863 0
0.068782806 -0.24342918 -0.40957129 0
0.19197559 -0.28822136 -0.42373657 0
0.24578476 -0.3111248 -0.40833354 0
0.32184887 -0.37392807 -0.39125526 0
-0.26376343 0.011880875 -0.37553442 0
-0.14303112 -0.026807785 -0.3776027 0
-0.046719551 -0.041347504 -0.37075996 0
0.092261314 -0.18009186 -0.41806912 0
0.22641754 -0.20299149 -0.43734372 0
0.2931881 -0.22677231 -0.41380942 0
-0.29869747 0.15918922 -0.35826635 0
-0.24952507 0.08687973 -0.38464832 0
-0.12523174 0.070205688 -0.38564396 0
-0.034946442 0.02338028 -0.36497605 0
0.33284855 -0.15999222 -0.41108906 0
-0.32464123 0.22830391 -0.34366596 0
-0.26412773 0.24415016 -0.3598628 0
-0.16166878 0.2148571 -0.37854886 0
-0.073531151 0.160326 -0.38734126 0
0.0012292862 0.089788437 -0.36711895 0
-0.2315712 0.32527733 -0.3880955 0
-0.13499355 0.3036747 -0.38876724 0
-0.030665398 0.26105309 -0.38897085 0
0.050808907 0.2198658 -0.38854241 0
-0.17236042 0.41281891 -0.41766095 0
-0.096123695 0.36589622 -0.41378856 0
-0.0014715195 0.35467148 -0.41634572 0
0.076947212 0.32705498 -0.41047549 0
-0.047570229 0.46401787 -0.44432616 0
0.03329277 0.42190933 -0.44003093 0
0.13218212 0.39730072 -0.42775822 0
0.18195724 0.368433 -0.42579031 0
0.16707039 0.48655891 -0.45280588 0
0.23272705 -0.44956017 -0.33655012 0
0.36179543 -0.43089104 -0.34562242 0
0.39766788 -0.49032402 -0.34619105 0
0.24925232 -0.32587814 -0.36526251 0
0.34898853 -0.34976578 -0.36530256 0
0.4528141 -0.36922836 -0.34048045 0
0.54161072 -0.42178917 -0.32893622 0
0.32280827 -0.25080109 -0.3690666 0
0.39939499 -0.27508163 -0.35380614 0
0.4811182 -0.28968048 -0.33202958 0
0.55695915 -0.33376122 -0.32421553 0
-0.0097131729 -0.009557724 -0.33758831 0
0.075969696 0.0094337463 -0.33408999 0
0.37409687 -0.12259865 -0.38392723 0
0.45131779 -0.1699295 -0.36998177 0
0.52807999 -0.1883316 -0.3538872 0
-0.035447121 0.12713623 -0.3489542 0
0.0268116 0.11446381 -0.34961343 0
0.10965443 0.085191727 -0.34874249 0
0.21668434 0.041267395 -0.3456763 0
0.33605671 0.0071544647 -0.35958493 0
0.43539715 -0.0046920776 -0.36993337 0
0.49266529 -0.073436737 -0.35463989 0
0.076609612 0.22642326 -0.36659563 0
0.15633583 0.16120529 -0.37274384 0
0.21058846 0.15020943 -0.36048043 0
0.33054256 0.11391258 -0.37738478 0
0.42644501 0.060560226 -0.3632735 0
0.52609253 0.018417358 -0.35327744 0
0.1250515 0.28631592 -0.38563406 0
0.18359661 0.2941227 -0.35680377 0
0.32163143 0.18749809 -0.38009918 0
0.40810013 0.19623375 -0.37261105 0
0.43297291 0.13141441 -0.36072755 0
0.14415455 0.39633369 -0.38841069 0
0.22630501 0.364254 -0.37319207 0
0.47712517 0.26875305 -0.37295842 0
0.18670654 0.45719147 -0.41727483 0
0.26913071 0.44949532 -0.39031816 0
0.3587904 0.41269302 -0.36966193 0
0.59570789 -0.45760727 -0.30151474 0
0.66124249 -0.45031738 -0.28394568 0
0.72241592 -0.45936203 -0.25421345 0
0.60011387 -0.33926773 -0.29452884 0
0.69159412 -0.36833954 -0.26755774 0
0.5535717 -0.22667694 -0.32687974 0
0.64080811 -0.23832321 -0.29758465 0
0.70951462 -0.30336761 -0.25842381 0
0.55133724 -0.066879272 -0.30007887 0
0.58556271 -0.13123322 -0.3184284 0
0.68312359 -0.1701622 -0.2877593 0
0.72251701 -0.20812607 -0.2710067 0
0.48642254 0.065010071 -0.33781576 0
0.52473164 0.029560089 -0.31520331 0
0.61878109 -0.020795822 -0.30499291 0
0.69117165 -0.065887451 -0.28252971 0
0.41619587 0.15955162 -0.33935678 0
0.47837257 0.15414619 -0.33848548 0
0.56670666 0.1264019 -0.32651591 0
0.65963745 0.092224121 -0.30442321 0
0.71233273 0.015062332 -0.28219759 0
0.31330109 0.33786583 -0.32974589 0
0.51920891 0.25523949 -0.33957314 0
0.61713886 0.19030571 -0.3132478 0
0.39277744 0.38349342 -0.34560573 0
0.47559166 0.36741257 -0.33880556 0
0.5874033 0.34391403 -0.32324445 0
0.6318388 0.29878998 -0.31248307 0
0.43684673 0.47901917 -0.3674382 0
0.51627445 0.45919037 -0.3524909 0
0.61169529 0.43986702 -0.33036077 0
0.78430843 -0.39336014 -0.2479322 0
0.77982998 -0.26636696 -0.24355805 0
0.86621475 -0.30746269 -0.23309839 0
0.86281967 -0.38170433 -0.24323213 0
0.69628048 -0.10396767 -0.26655924 0
0.7870388 -0.18726921 -0.24686873 0
0.89275455 -0.22976494 -0.21572781 0
0.94841957 -0.29679298 -0.21385312 0
0.76193523 -0.085041046 -0.26215899 0
0.82648849 -0.099836349 -0.24149573 0
0.89223862 -0.13954353 -0.21971357 0
0.71719265 0.087347031 -0.27702963 0
0.78225231 0.039869308 -0.250898 0
0.86701679 -0.015153885 -0.23500586 0
0.74120903 0.16973305 -0.27019465 0
0.82214642 0.13687706 -0.24429786 0
0.89336967 0.084810257 -0.22534811 0
0.69072533 0.31055832 -0.28739691 0
0.739645 0.25408745 -0.27143013 0
0.86825085 0.20463371 -0.2511946 0
0.92241192 0.18576622 -0.24284136 0
0.63012409 0.44478416 -0.29236948 0
0.69710541 0.37147713 -0.25883424 0
0.79620552 0.40272522 -0.25391555 0
0.85096359 0.28705978 -0.26111913 0
0.74082375 0.46803474 -0.27988064 0
0.83317947 0.41534233 -0.25268531 0
0.98596287 -0.2670784 -0.19163549 0
0.97953415 -0.12215614 -0.20723248 0
0.95233917 -0.049333572 -0.20025206 0
0.99340343 0.050189972 -0.20420074 0
0.97346306 0.17355728 -0.22626698 0
0.82735348 0.43798828 -0.23599267 0
0.74114037 -0.45755768 0.76052999 0
0.80197239 -0.43789291 0.83346653 0
0.84090137 -0.43206406 0.91977644 0
0.87859917 -0.40216064 0.85898972 0
0.94255161 -0.37876701 0.90285444 0
-0.94614029 -0.45794678 -0.1957494 0
-0.89368534 -0.45325661 -0.20127988 0
-0.84444141 -0.36567307 -0.22326231 0
-0.76823044 -0.41060448 -0.23128057 0
-0.67210579 -0.45364761 -0.24574447 0
-0.57112408 -0.48348236 -0.26057124 0
-0.77713394 -0.28277588 -0.23903584 0
-0.72206879 -0.32720947 -0.24341631 0
-0.64355278 -0.36146927 -0.2586726 0
-0.54732418 -0.40425301 -0.2693795 0
-0.43053627 -0.45031929 -0.29204512 0
-0.3548336 -0.49474525 -0.30521476 0
-0.29107571 -0.48218155 -0.31626379 0
-0.68407726 -0.22182083 -0.26389933 0
-0.57502174 -0.2654438 -0.28449202 0
-0.4913578 -0.31405258 -0.29726434 0
-0.42097664 -0.34629059 -0.30622375 0
-0.32257843 -0.38596535 -0.32496333 0
-0.22234821 -0.41492081 -0.34225082 0
-0.15338326 -0.46730804 -0.3437047 0
-0.63309097 -0.1193943 -0.2873162 0
-0.56216621 -0.16244507 -0.3004446 0
-0.45693016 -0.22464943 -0.3146801 0
-0.38324165 -0.27090645 -0.32294965 0
-0.26247406 -0.30148697 -0.34407413 0
-0.17315865 -0.3423481 -0.35751641 0
-0.087650299 -0.39639664 -0.36845076 0
0.019981384 -0.43771553 -0.37067175 0
0.081961632 -0.4403553 -0.34459949 0
0.195014 -0.45863152 -0.34838259 0
-0.56961823 -0.036569595 -0.31060553 0
-0.49017811 -0.075620651 -0.32731795 0
-0.42519283 -0.13517761 -0.33068216 0
-0.31402969 -0.18138313 -0.34811401 0
-0.23832607 -0.23769569 -0.34892476 0
-0.12422562 -0.26407623 -0.37387955 0
-0.023347855 -0.32622528 -0.39373136 0
0.035165787 -0.34081841 -0.40019882 0
0.096270561 -0.38166809 -0.3879087 0
0.2282362 -0.41614532 -0.38211584 0
0.27159882 -0.42486572 -0.37258554 0
-0.53679562 0.042539597 -0.32038414 0
-0.44766808 0.0083446503 -0.34164035 0
-0.40298176 -0.045009613 -0.34108603 0
-0.29707623 -0.077325821 -0.36229897 0
-0.20210552 -0.10169411 -0.36883402 0
-0.12015057 -0.16510773 -0.39125311 0
0.06855011 -0.23484421 -0.41595006 0
0.16258717 -0.31087494 -0.42294848 0
0.25820541 -0.31448555 -0.40831518 0
0.31224251 -0.3228035 -0.39022207 0
-0.47794056 0.14448166 -0.33695233 0
-0.43639374 0.1002655 -0.34311652 0
-0.3701334 0.075435638 -0.35256243 0
-0.26839924 0.01282692 -0.37814116 0
-0.16363144 -0.0097846985 -0.38309634 0
-0.074113846 -0.052307129 -0.36977351 0
0.10899448 -0.18994141 -0.41928422 0
0.2272892 -0.18762207 -0.43947327 0
0.28288364 -0.22765923 -0.41666949 0
-0.46399689 0.23049736 -0.34847665 0
-0.39456844 0.20627022 -0.34261394 0
-0.25334072 0.088029861 -0.38249338 0
-0.12564754 0.070453644 -0.38701117 0
-0.048550606 0.022287369 -0.36548841 0
-0.41890812 0.33011818 -0.36883163 0
-0.35778809 0.27588272 -0.36731672 0
-0.25063324 0.25252342 -0.37385535 0
-0.19328117 0.24435043 -0.36595869 0
-0.075388908 0.15712357 -0.38630712 0
-0.015724182 0.10171509 -0.3741312 0
-0.38102818 0.40815163 -0.38785648 0
-0.31001186 0.36406898 -0.39086688 0
-0.22369385 0.32049751 -0.39337182 0
-0.13777733 0.29030037 -0.38533878 0
-0.048172951 0.26056671 -0.39150548 0
0.014508247 0.21005821 -0.38823724 0
-0.35130882 0.46417999 -0.40356398 0
-0.2767849 0.45714951 -0.41308141 0
-0.1923399 0.40679169 -0.41838324 0
-0.11034679 0.37963676 -0.42139363 0
-0.023496628 0.34707069 -0.41213524 0
0.070337296 0.34448051 -0.41527021 0
-0.043375015 0.46318436 -0.44846249 0
0.050106049 0.42606926 -0.43603146 0
0.10007858 0.40133858 -0.43731415 0
0.17841339 0.36933708 -0.43656766 0
0.10377407 -0.49285507 -0.31158626 0
0.22345257 -0.46477699 -0.3238076 0
0.20840263 -0.44984818 -0.34859073 0
0.28800488 -0.44042397 -0.34835303 0
0.41487503 -0.46889877 -0.35039592 0
0.35626984 -0.35616684 -0.3681258 0
0.44228363 -0.37360764 -0.33320749 0
0.52327156 -0.4278698 -0.32563758 0
0.013616562 -0.051534653 -0.32877469 0
0.32671165 -0.21362495 -0.39529407 0
0.4085865 -0.26362991 -0.36846852 0
0.47037506 -0.27955437 -0.34954703 0
0.55771923 -0.31694031 -0.33344138 0
0.0055704117 0.031391144 -0.34073293 0
0.068892479 -0.0008354187 -0.34244287 0
0.3656702 -0.12184715 -0.41566229 0
0.44645977 -0.17363358 -0.37148726 0
0.49365044 -0.23655701 -0.34487593 0
-0.055327415 0.12716103 -0.35537267 0
0.019738197 0.11420631 -0.35524631 0
0.10625553 0.079357147 -0.35307086 0
0.22374153 0.059837341 -0.35425866 0
0.4159441 -0.036428452 -0.37974656 0
0.49562359 -0.089578629 -0.36321402 0
0.0097885132 0.26990891 -0.38624227 0
0.058422089 0.21580505 -0.35793412 0
0.15239334 0.14239311 -0.36601985 0
0.20515251 0.14959145 -0.36277103 0
0.35324287 0.09954071 -0.37666833 0
0.41373348 0.06678009 -0.36449587 0
0.49902344 -0.0093002319 -0.35902441 0
0.01307106 0.30533981 -0.38834608 0
0.12520504 0.29732132 -0.40226173 0
0.17027569 0.2762146 -0.3566277 0
0.39017773 0.17827225 -0.38709295 0
0.43636227 0.15352631 -0.36985803 0
0.15888596 0.39888 -0.41631925 0
0.21630955 0.35534668 -0.3867805 0
0.41914368 0.24297523 -0.36707067 0
0.17662811 0.44200325 -0.41389501 0
0.26250076 0.45834732 -0.40511644 0
0.33581924 0.41674423 -0.37618244 0
0.57477665 -0.42550659 -0.29784858 0
0.652318 -0.46718407 -0.29368353 0
0.60652924 -0.31632614 -0.30694747 0
0.68834114 -0.36426544 -0.28063178 0
0.73320961 -0.41564751 -0.25909984 0
0.56716442 -0.20555305 -0.31717944 0
0.63506222 -0.23951149 -0.30185556 0
0.71160889 -0.29197502 -0.2790935 0
0.52601433 -0.083675385 -0.32938731 0
0.5883007 -0.098939896 -0.31791508 0
0.67994499 -0.1563015 -0.2948935 0
0.45964909 0.05919838 -0.34625709 0
0.55430603 0.042072296 -0.32692361 0
0.63095093 -0.013702393 -0.30059731 0
0.65809631 -0.080127716 -0.29131973 0
0.23038292 0.31014252 -0.33074689 0
0.48739338 0.15760994 -0.33833826 0
0.58792973 0.13838196 -0.32547593 0
0.64441586 0.078435898 -0.30822515 0
0.25198174 0.34098244 -0.339499 0
0.34422207 0.34012794 -0.34062815 0
0.45133305 0.24283791 -0.35407138 0
0.5290823 0.25170135 -0.34051585 0
0.6009388 0.21739769 -0.31016529 0
0.65648651 0.15131378 -0.30902517 0
0.38827133 0.42567062 -0.37009561 0
0.45005703 0.37599182 -0.35079622 0
0.56010342 0.33337402 -0.32740498 0
0.65110588 0.26759529 -0.31721509 0
0.43685913 0.49550819 -0.37942159 0
0.51249599 0.46897507 -0.35219216 0
0.58020687 0.43603897 -0.33058238 0
0.81256008 -0.36514091 -0.25897944 0
0.67086697 -0.24047279 -0.24549639 0
0.76934624 -0.28020668 -0.24742424 0
0.83438492 -0.30110741 -0.23366559 0
0.69526005 -0.1262188 -0.26665473 0
0.80140305 -0.16941833 -0.24610257 0
0.88920403 -0.23037529 -0.2288487 0
0.95486355 -0.24080849 -0.21213269 0
0.74862385 -0.048667908 -0.25240517 0
0.84763241 -0.06788063 -0.24631226 0
0.88049698 -0.13124657 -0.23684788 0
0.70824432 0.08937645 -0.27146316 0
0.75963497 0.045885086 -0.27221394 0
0.83712769 0.01709938 -0.24888515 0
0.71928406 0.18050957 -0.28467762 0
0.81334496 0.11528397 -0.25252914 0
0.6085453 0.33276558 -0.30463016 0
0.66531563 0.30440903 -0.28029943 0
0.78196716 0.25168419 -0.25518441 0
0.86956024 0.18817902 -0.26013625 0
0.61170673 0.44969368 -0.30734253 0
0.72565556 0.39383698 -0.27631998 0
0.75841045 0.34475136 -0.24179041 0
0.75487995 0.47042084 -0.2937144 0
0.79635525 0.44317436 -0.26061165 0
0.90297222 -0.13738632 -0.20346725 0
0.89853573 0.012886047 -0.21534228 0
0.96537399 -0.035768509 -0.2111131 0
0.9055109 0.099187851 -0.22582364 0
0.97666073 0.07890892 -0.21142352 0
0.96874523 0.18453598 -0.23965418 0
0.82140732 0.42049408 -0.23255897 0
0.71504211 -0.47161293 0.76841664 0
0.79982471 -0.43968964 0.82964885 0
0.87867737 -0.40552139 0.80215085 0
0.84524441 -0.43795013 0.91792762 0
0.89824963 -0.39592743 0.86807406 0
0.95249939 -0.37832642 0.88446224 0
0.87910366 -0.42807388 0.97431207 0
0.97741127 -0.36977768 0.95670235 0
-0.92994499 -0.42613411 -0.19956279 0
-0.86056423 -0.46409035 -0.207883 0
-0.91503716 -0.32009888 -0.20816922 0
-0.82777119 -0.3742466 -0.22270119 0
-0.72990227 -0.43635368 -0.23397541 0
-0.62816048 -0.46184349 -0.2507298 0
-0.93376446 -0.21032143 -0.21807146 0
-0.83839893 -0.23157883 -0.24040437 0
-0.78261662 -0.26656342 -0.24290693 0
-0.70781612 -0.33024979 -0.25177479 0
-0.62639523 -0.33633232 -0.27122748 0
-0.53819847 -0.37652779 -0.28419173 0
-0.46138382 -0.4289856 -0.29174817 0
-0.33625698 -0.45796204 -0.31895983 0
-0.84085178 -0.14802742 -0.2432096 0
-0.74601269 -0.18489647 -0.25935197 0
-0.65867805 -0.23526382 -0.27042687 0
-0.57610703 -0.26066589 -0.28537464 0
-0.48989582 -0.3064003 -0.29849243 0
-0.40383816 -0.34245682 -0.308411 0
-0.30406952 -0.39785957 -0.32723725 0
-0.22537518 -0.43651009 -0.33352029 0
-0.073478699 -0.48657608 -0.33653843 0
-0.80006599 -0.047472 -0.26228583 0
-0.6956234 -0.099639893 -0.27897549 0
-0.61039448 -0.14146423 -0.29051757 0
-0.51570129 -0.1862793 -0.30691481 0
-0.43849945 -0.23270035 -0.31534421 0
-0.31614017 -0.2392025 -0.34173346 0
-0.25953102 -0.321661 -0.3401854 0
-0.18483067 -0.38456154 -0.34792793 0
-0.045245171 -0.41204453 -0.3638953 0
0.0069293976 -0.42825127 -0.3420409 0
-0.74428368 0.033496857 -0.28195381 0
-0.65820312 0.0098419189 -0.30094349 0
-0.58604145 -0.051994324 -0.30580795 0
-0.47888947 -0.075847626 -0.3262881 0
-0.37897873 -0.15141106 -0.33758056 0
-0.20427895 -0.21551323 -0.36784756 0
-0.093318939 -0.26982307 -0.38346314 0
-0.046757698 -0.30103493 -0.38782239 0
0.046608925 -0.33468246 -0.38658261 0
0.14276218 -0.36780548 -0.38937688 0
0.23412132 -0.37785149 -0.38967443 0
-0.69412994 0.10681343 -0.30137587 0
-0.62951851 0.078041077 -0.30991995 0
-0.53677368 0.023406982 -0.32494462 0
-0.43989468 -0.0014362335 -0.33886957 0
-0.33877563 -0.087680817 -0.35279715 0
-0.26663685 -0.076398849 -0.37136245 0
-0.19314003 -0.15103912 -0.37766206 0
-0.073564529 -0.16473961 -0.39755917 0
0.028274536 -0.20427322 -0.39924085 0
0.18153 -0.26231194 -0.41087937 0
0.27574062 -0.30206299 -0.40008271 0
-0.64628696 0.1821804 -0.32075119 0
-0.58183956 0.18120575 -0.32472074 0
-0.50288296 0.13171577 -0.33607459 0
-0.41875553 0.092811584 -0.346789 0
-0.31245708 0.043130875 -0.3707366 0
-0.21146584 0.011159897 -0.38147163 0
-0.14519215 -0.0293293 -0.37097013 0
0.22862625 -0.18947411 -0.41931915 0
-0.61712837 0.29292297 -0.33128893 0
-0.54277229 0.2771225 -0.34485686 0
-0.46226501 0.23795319 -0.34319186 0
-0.37654495 0.24136543 -0.35930991 0
-0.26002121 0.088975906 -0.38453197 0
-0.17400074 0.10691452 -0.38808906 0
-0.10408211 0.071439743 -0.37474549 0
-0.57543182 0.40768623 -0.35028696 0
-0.50230312 0.3564682 -0.36011612 0
-0.4133749 0.32719421 -0.36223948 0
-0.32969189 0.27585983 -0.36013448 0
-0.26531696 0.27214241 -0.36057591 0
-0.12429523 0.19392967 -0.39669359 0
-0.08808136 0.17416763 -0.38194311 0
-0.55609417 0.49611855 -0.36057448 0
-0.4689045 0.46458817 -0.38074005 0
-0.37850475 0.41749382 -0.39059103 0
-0.28382683 0.37369347 -0.39213479 0
-0.20474625 0.31858444 -0.3822428 0
-0.12240314 0.31023598 -0.38944674 0
-0.017354012 0.29668427 -0.3975513 0
-0.34184933 0.49007416 -0.4098419 0
-0.24067593 0.45590591 -0.41583169 0
-0.16548634 0.41075706 -0.41609144 0
-0.068232536 0.37977982 -0.41524625 0
-0.0078334808 0.35412979 -0.40184236 0
-0.032700539 0.45887375 -0.44537318 0
0.041192055 0.43515396 -0.43682325 0
0.13565159 0.40740967 -0.43848658 0
-0.019800186 -0.48854256 -0.28821683 0
0.059753418 -0.46929359 -0.30279291 0
0.12683296 -0.4503231 -0.32449567 0
0.25592804 -0.41818428 -0.33949983 0
0.3810358 -0.42654228 -0.34184325 0
0.42516041 -0.49266624 -0.33936572 0
0.29290676 -0.30123901 -0.36738813 0
0.38887787 -0.34228325 -0.33791423 0
0.48739433 -0.41411972 -0.3324697 0
-0.055768013 -0.0063076019 -0.34457827 0
0.33292103 -0.21302032 -0.37495708 0
0.40270519 -0.27772141 -0.32301974 0
-0.070028305 0.081129074 -0.34950149 0
0.023947716 0.051092148 -0.34133399 0
0.092416763 0.047405243 -0.32763529 0
0.36310005 -0.1207943 -0.38366556 0
0.46319771 -0.16320992 -0.35234988 0
-0.035562515 0.1613636 -0.3580693 0
0.028759003 0.12586021 -0.34850693 0
0.12588787 0.10163689 -0.34211922 0
0.22851181 0.06014061 -0.35045493 0
0.36268425 0.024766922 -0.36818981 0
0.3896513 -0.01766777 -0.35692072 0
0.49148083 -0.070198059 -0.35019374 0
-0.081436157 0.23332596 -0.36600471 0
0.02188015 0.2365818 -0.37149894 0
0.094305038 0.221838 -0.36379635 0
0.1649313 0.17792892 -0.37102437 0
0.29537392 0.13970947 -0.37883949 0
0.36628246 0.10304451 -0.36542988 0
-0.04053688 0.31930923 -0.3867805 0
0.05946064 0.30569839 -0.40153337 0
0.11789417 0.31152916 -0.37240291 0
0.31147861 0.21939659 -0.37340045 0
0.38655376 0.17963409 -0.37022102 0
0.098980904 0.42026138 -0.41461897 0
0.16951942 0.39412689 -0.38293815 0
0.24415684 0.37490845 -0.35132623 0
0.40570736 0.25944519 -0.37458146 0
0.11444569 0.48824883 -0.43286192 0
0.21422291 0.48875237 -0.41241622 0
0.30938911 0.46234322 -0.37883127 0
0.52612972 -0.37942696 -0.31378543 0
0.57900333 -0.42769051 -0.29711664 0
0.66096306 -0.46529961 -0.29125273 0
0.56147575 -0.29484558 -0.29870749 0
0.63292027 -0.33280945 -0.29049313 0
0.69301319 -0.36891556 -0.27577424 0
0.51576042 -0.17671776 -0.30439472 0
0.56465149 -0.2273674 -0.30527616 0
0.6878109 -0.2315464 -0.28552508 0
0.45399475 0.0038700104 -0.34265089 0
0.53554249 -0.072015762 -0.31716168 0
0.61237526 -0.12566566 -0.28711975 0
0.67758083 -0.17256927 -0.28625035 0
0.50072098 0.07462883 -0.33496118 0
0.55138302 0.010295868 -0.30644834 0
0.45976257 0.20067406 -0.34346676 0
0.48555851 0.13670349 -0.33286631 0
0.59485531 0.117239 -0.31314194 0
0.26651382 0.37688065 -0.3400948 0
0.33176136 0.35182381 -0.32301128 0
0.43564415 0.25735474 -0.34228802 0
0.55781364 0.23413467 -0.32256365 0
0.33149719 0.4406414 -0.36036515 0
0.41706276 0.4252739 -0.35059714 0
0.49882698 0.3578949 -0.33208442 0
0.54538345 0.30942345 -0.32298052 0
0.52528954 0.46808815 -0.3364619 0
0.58482361 0.42414665 -0.3366164 0
0.72474289 -0.37473488 -0.24779737 0
0.82976723 -0.36442947 -0.25103462 0
0.77970791 -0.25431252 -0.24386156 0
0.87503719 -0.29619789 -0.2173959 0
0.60891151 -0.062488556 -0.26556718 0
0.72943687 -0.16290474 -0.25716126 0
0.80834579 -0.16285706 -0.22858322 0
0.9037056 -0.18711281 -0.22263443 0
0.59983349 0.00055885315 -0.26735318 0
0.68595791 -0.041732788 -0.26322174 0
0.76605892 -0.064535141 -0.23873127 0
0.86460876 -0.081142426 -0.21988642 0
0.63799191 0.097766876 -0.29268897 0
0.69630241 0.080696106 -0.26548028 0
0.7771883 0.049779892 -0.2485112 0
0.6225872 0.27452087 -0.26700091 0
0.63854218 0.21371651 -0.29071808 0
0.7409029 0.17159843 -0.26110637 0
0.61634064 0.3384304 -0.29616797 0
0.68842602 0.33931541 -0.25442553 0
0.752141 0.28034019 -0.26959956 0
0.57726765 0.46474648 -0.30408275 0
0.62881756 0.41782379 -0.27993679 0
0.70029736 0.41458893 -0.24849188 0
0.74101257 0.49402618 -0.2692064 0
0.94946289 -0.24200058 -0.18867242 0
0.95896053 -0.11626053 -0.19524181 0
0.8377037 0.028865814 -0.21847296 0
0.91874599 0.0074005127 -0.20662236 0
0.8319912 0.14453697 -0.22633588 0
0.93578053 0.10963249 -0.22402179 0
0.88775826 0.22080231 -0.23278069 0
0.98665428 0.17471886 -0.22133934 0
0.80042267 0.37961388 -0.24727535 0
0.80217743 0.4450798 -0.25692689 0
0.69332504 -0.43796539 0.77470803 0
0.72253609 -0.43219757 0.8359673 0
0.76576996 -0.41506577 0.8247925 0
0.82710075 -0.38494492 0.84365952 0
0.80883694 -0.4198761 0.9193902 0
0.83764839 -0.38793373 0.89971352 0
0.88947964 -0.36296272 0.88160837 0
0.97863483 -0.33065987 0.9096843 0
0.8010397 -0.41697121 0.97849643 0
0.88696861 -0.39013481 1.0000333 0
0.89080811 -0.35988617 0.95248425 0
0.98992729 -0.3229351 0.97393179 0
0.88464832 -0.38414574 1.0454946 0
-0.95448685 -0.41263008 -0.19445956 0
-0.79871273 -0.48092651 -0.21707547 0
-0.99014568 -0.29892349 -0.19815361 0
-0.91284561 -0.32425499 -0.20716643 0
-0.8411293 -0.37951469 -0.21967733 0
-0.74780941 -0.41979408 -0.23234224 0
-0.64928913 -0.46410561 -0.24746907 0
-0.87511253 -0.23160553 -0.22896183 0
-0.76714611 -0.29144096 -0.2434417 0
-0.68986893 -0.34419441 -0.25050831 0
-0.60930824 -0.41056061 -0.25992477 0
-0.50288963 -0.40831184 -0.28167951 0
-0.38747978 -0.47552299 -0.29632163 0
-0.3787756 -0.4690609 -0.30075359 0
-0.95299149 -0.12783432 -0.22155285 0
-0.85834885 -0.14688492 -0.24187958 0
-0.75981236 -0.19210815 -0.25323415 0
-0.64874649 -0.24474335 -0.27193642 0
-0.55839157 -0.34310913 -0.27727962 0
-0.50692177 -0.28825188 -0.29711378 0
-0.41211033 -0.34484291 -0.30958009 0
-0.31162739 -0.38323784 -0.32431948 0
-0.20312595 -0.45882225 -0.33734596 0
-0.95755005 -0.0084037781 -0.23433113 0
-0.89196873 -0.026748657 -0.24775958 0
-0.81597137 -0.064546585 -0.25331903 0
-0.70741463 -0.089429855 -0.28131664 0
-0.64880753 -0.13393593 -0.28462434 0
-0.57100677 -0.1836853 -0.29184735 0
-0.46032524 -0.22408104 -0.31379938 0
-0.37337017 -0.29104042 -0.32347846 0
-0.25476933 -0.30739021 -0.34544253 0
-0.14509106 -0.39475822 -0.36018384 0
-0.11363029 -0.35496521 -0.37239325 0
0.035855293 -0.43466568 -0.36240542 0
0.08228302 -0.48440933 -0.32003379 0
-0.89919662 0.08921051 -0.25380492 0
-0.84973049 0.049497604 -0.26143408 0
-0.7618475 0.011104584 -0.27381182 0
-0.69129848 -0.021007538 -0.2830267 0
-0.59993839 -0.055324554 -0.30239224 0
-0.51042747 -0.098154068 -0.31490993 0
-0.41667461 -0.15658951 -0.32975185 0
-0.30718613 -0.19813156 -0.34878886 0
-0.22754955 -0.24026489 -0.35342884 0
-0.11227226 -0.30921936 -0.36866486 0
0.038068771 -0.36766434 -0.38895583 0
0.12234402 -0.38300323 -0.3828522 0
0.23982143 -0.42650986 -0.3801676 0
0.28964996 -0.43173218 -0.36392307 0
-0.88040829 0.16444016 -0.25758481 0
-0.82850361 0.12700653 -0.27294862 0
-0.71695232 0.1127739 -0.29627609 0
-0.64116192 0.06054306 -0.30275452 0
-0.55964088 0.030179977 -0.31718099 0
-0.45889282 -0.0065231323 -0.33550131 0
-0.36577129 -0.062236786 -0.3494221 0
-0.25577736 -0.1056118 -0.36863363 0
-0.17602158 -0.11777687 -0.36766076 0
-0.036470413 -0.22033119 -0.40092671 0
0.059215546 -0.24558258 -0.40447617 0
0.19765854 -0.29710007 -0.41772139 0
0.2680769 -0.33093834 -0.39138877 0
0.3196764 -0.38461494 -0.37651849 0
-0.78329563 0.226017 -0.29273891 0
-0.66042423 0.18804741 -0.3142637 0
-0.60120773 0.14289665 -0.31879127 0
-0.51143932 0.12595558 -0.33083367 0
-0.42724419 0.088609695 -0.34944665 0
-0.33537006 0.045099258 -0.36235845 0
-0.2208252 -0.023759842 -0.38307416 0
-0.1345377 -0.021009445 -0.36434782 0
-0.051013947 -0.050790787 -0.3555485 0
0.22058678 -0.23024559 -0.42320955 0
0.2991581 -0.24162483 -0.39446747 0
-0.74819946 0.34763145 -0.31171894 0
-0.64877415 0.28657722 -0.32745075 0
-0.5483675 0.2477169 -0.34214926 0
-0.4670763 0.21314812 -0.34459698 0
-0.38616085 0.20314026 -0.34201109 0
-0.34124947 0.1064415 -0.35955 0
-0.16610432 0.065942764 -0.40819943 0
-0.11040878 0.062648773 -0.37687421 0
-0.0097265244 0.01440239 -0.35152936 0
0.36767387 -0.18361664 -0.40206933 0
-0.75115108 0.46274185 -0.3143183 0
-0.68952465 0.42329979 -0.3257817 0
-0.60010242 0.39649391 -0.34126723 0
-0.53425884 0.34059715 -0.34881687 0
-0.43038273 0.29224968 -0.35657358 0
-0.32457066 0.24561501 -0.35643399 0
-0.27957726 0.23661613 -0.36410189 0
-0.11180592 0.16967201 -0.39290977 0
-0.090036392 0.14276314 -0.38032389 0
0.019839287 0.12257767 -0.3689338 0
-0.58643723 0.48191833 -0.34902966 0
-0.49893856 0.41838074 -0.36658192 0
-0.41315842 0.38271141 -0.38345194 0
-0.30187798 0.35438728 -0.39021862 0
-0.20027637 0.30518913 -0.38709104 0
-0.10852146 0.2960968 -0.38579607 0
-0.041796684 0.26232338 -0.38487065 0
0.035797119 0.21882248 -0.38542533 0
-0.37223625 0.49483871 -0.40532398 0
-0.27770042 0.43469238 -0.4101274 0
-0.18439484 0.42663193 -0.41821969 0
-0.054401398 0.37752724 -0.42578101 0
0.012688637 0.3338604 -0.4100281 0
0.080646515 0.30539322 -0.40809035 0
-0.11097145 0.49550056 -0.44550681 0
-0.044657707 0.4662571 -0.44858098 0
0.061172485 0.41334915 -0.44197309 0
0.11421299 0.38596344 -0.42465508 0
0.095827103 0.49899864 -0.45689654 0
0.19508266 0.48181343 -0.44655013 0
0.34298611 -0.48420715 -0.34543324 0
0.4279213 -0.46945381 -0.33007526 0
0.37233639 -0.38275337 -0.34626341 0
0.43279934 -0.38689041 -0.31613505 0
0.55042076 -0.4641552 -0.31894064 0
0.36487007 -0.24628067 -0.36286664 0
0.41011715 -0.27063751 -0.34943581 0
0.51525116 -0.31752014 -0.32862663 0
0.012063026 0.0036811829 -0.34184682 0
0.095547676 -0.0027256012 -0.32861555 0
0.38693905 -0.19176102 -0.37395573 0
0.43443203 -0.18244934 -0.34965217 0
0.50818062 -0.23229408 -0.31641161 0
0.046548843 0.11686516 -0.35010588 0
0.12990284 0.061157227 -0.33898187 0
0.30501938 0.020915985 -0.36097527 0
0.43002224 -0.053070068 -0.36983085 0
0.51258564 -0.10996246 -0.35019028 0
0.53902054 -0.15314674 -0.33519351 0
0.078180313 0.22696686 -0.36818349 0
0.15742683 0.14103699 -0.36327112 0
0.37689972 0.1050396 -0.38223469 0
0.41277885 0.034317017 -0.35288489 0
0.53365326 -0.014253616 -0.34576273 0
0.14045811 0.29002953 -0.38145149 0
0.18842983 0.29923248 -0.35109913 0
0.2866354 0.18491554 -0.37761045 0
0.40858459 0.18095398 -0.36251688 0
0.44770908 0.12458611 -0.35722196 0
0.16979885 0.37794876 -0.39816368 0
0.23640442 0.34978676 -0.35394657 0
0.21742249 0.44436836 -0.40676248 0
0.30036449 0.4377594 -0.38166308 0
0.40765858 0.42649078 -0.36931729 0
0.3932724 0.49035072 -0.3971374 0
0.60162544 -0.45260811 -0.30153668 0
0.67574978 -0.47843742 -0.27194893 0
0.61937428 -0.33496857 -0.30658722 0
0.684268 -0.38959122 -0.27670681 0
0.57387924 -0.21054268 -0.30894101 0
0.65208626 -0.24717331 -0.27564383 0
0.72934341 -0.26989746 -0.25036383 0
0.80529308 -0.35357475 -0.27558386 0
0.61234665 -0.13802719 -0.29491031 0
0.49260139 0.040689468 -0.33306372 0
0.57500172 -0.00097846985 -0.31594718 0
0.63468552 -0.042188644 -0.28809214 0
0.50184059 0.13532639 -0.34498549 0
0.58112621 0.11201668 -0.31155002 0
0.6460619 0.057695389 -0.28848886 0
0.31454563 0.31903458 -0.32518017 0
0.47564125 0.27159119 -0.34408617 0
0.52921772 0.21883392 -0.32752025 0
0.62757206 0.17317772 -0.29166818 0
0.37026119 0.36520004 -0.34966838 0
0.4845562 0.36060143 -0.3409121 0
0.61016273 0.31783676 -0.31933701 0
0.64598846 0.24724197 -0.30762994 0
0.44148922 0.44841766 -0.36342466 0
0.53422546 0.46853828 -0.34612799 0
0.59246922 0.40071869 -0.32050848 0
0.87730503 -0.41833496 -0.2493242 0
0.82906246 -0.31079102 -0.22458422 0
0.69781494 -0.14078903 -0.25009322 0
0.82457352 -0.20919228 -0.24218106 0
0.92028618 -0.23703957 -0.20459533 0
0.7530899 -0.033029556 -0.26468444 0
0.83376217 -0.09198761 -0.2316308 0
0.89169598 -0.14487457 -0.20660412 0
0.70621586 0.069761276 -0.27474499 0
0.79608536 0.038919449 -0.25618291 0
0.91069984 0.0012645721 -0.23038709 0
0.71132851 0.14882851 -0.26360416 0
0.84953499 0.11516953 -0.24593294 0
0.89447689 0.044473648 -0.22730863 0
0.70039463 0.2901001 -0.27114892 0
0.75738335 0.24420547 -0.25933552 0
0.84566498 0.1889801 -0.24318862 0
0.56006908 0.47301865 -0.29658568 0
0.6411438 0.41333771 -0.27951241 0
0.6792841 0.34999275 -0.26065886 0
0.75107002 0.46288109 -0.27890813 0
0.83068085 0.45219421 -0.25311244 0
0.95458126 -0.20054817 -0.17625058 0
0.97002602 -0.10653687 -0.19518721 0
0.99740314 -0.027421951 -0.18924856 0
0.9496727 0.055984497 -0.20322108 0
0.98539829 0.17075539 -0.23120701 0
0.76686001 0.38472748 -0.22126186 0
0.70250607 -0.47585106 0.78463137 0
0.73149776 -0.47384644 0.81184971 0
0.77796173 -0.46714401 0.87711406 0
0.77515888 -0.448452 0.81203437 0
0.82828712 -0.42842484 0.86169851 0
0.87238312 -0.4239502 0.92968321 0
0.95899868 -0.37929344 0.92010987 0
0.90205765 -0.4311924 1.0131129 0
0.9525919 -0.40347862 1.0479642 0
0.98563194 -0.37002945 1.0020304 0
-0.95027542 -0.39828873 -0.19380248 0
-0.86711788 -0.45010948 -0.20075512 0
-0.99517536 -0.29783058 -0.19536769 0
-0.88757229 -0.32445908 -0.21322429 0
-0.77847004 -0.37405968 -0.23500073 0
-0.671525 -0.41337395 -0.25053847 0
-0.57717896 -0.45927429 -0.26209223 0
-0.92825794 -0.19873238 -0.22110868 0
-0.83122158 -0.24931908 -0.23081565 0
-0.73121452 -0.30590439 -0.24906218 0
-0.64864731 -0.35699463 -0.25388193 0
-0.52897739 -0.38721657 -0.27734709 0
-0.39798164 -0.44113541 -0.29710174 0
-0.24274921 -0.48687363 -0.32579625 0
-0.91351032 -0.11031151 -0.23484409 0
-0.84531689 -0.12531853 -0.24737489 0
-0.71829605 -0.20027924 -0.26277936 0
-0.653615 -0.21542358 -0.27799296 0
-0.57089806 -0.25925255 -0.28239787 0
-0.49377251 -0.33589172 -0.28916061 0
-0.31978321 -0.34174538 -0.32573259 0
-0.18990993 -0.41775513 -0.34605432 0
-0.075531006 -0.48954582 -0.35412848 0
-0.94484615 0.026309967 -0.24193025 0
-0.87603569 -0.010698318 -0.25027013 0
-0.76996899 -0.062259674 -0.26621878 0
-0.68318653 -0.14027596 -0.2739377 0
-0.6260376 -0.1318264 -0.28245533 0
-0.51159191 -0.17457199 -0.30373263 0
-0.40954876 -0.2370491 -0.32183409 0
-0.29146004 -0.28877068 -0.33486366 0
-0.14928436 -0.34750175 -0.35947037 0
-0.019846916 -0.40596008 -0.37478709 0
0.036148071 -0.43074608 -0.34803069 0
0.12920284 -0.46067047 -0.33052039 0
-0.98419857 0.14068222 -0.24728477 0
-0.87734222 0.11071587 -0.26855516 0
-0.83926964 0.060079575 -0.26229286 0
-0.76507282 0.028356552 -0.27295041 0
-0.65299225 -0.0050392151 -0.29684043 0
-0.5611248 -0.051179886 -0.30918455 0
-0.4614954 -0.098081589 -0.32289112 0
-0.34651852 -0.1574173 -0.34695315 0
-0.22656727 -0.20321655 -0.36119115 0
-0.089118004 -0.25772858 -0.38262045 0
0.062685013 -0.3424015 -0.39304757 0
0.17100334 -0.37944412 -0.398157 0
0.2847805 -0.41061974 -0.36584365 0
-0.96075153 0.22966576 -0.25922608 0
-0.84973431 0.17928886 -0.27748644 0
-0.77405167 0.14068222 -0.28977561 0
-0.69003105 0.12430382 -0.30460978 0
-0.60133648 0.10132408 -0.31646597 0
-0.50881386 0.045345306 -0.33015513 0
-0.39045525 -0.0087299347 -0.35395432 0
-0.31515789 -0.066724777 -0.35717583 0
-0.30485725 -0.11044693 -0.36469936 0
-0.16179371 -0.11474419 -0.38835287 0
-0.029949188 -0.18820763 -0.40800238 0
0.09876442 -0.22535133 -0.4252069 0
0.22604084 -0.30923843 -0.41609442 0
0.30806351 -0.3259201 -0.38896823 0
-0.92364597 0.32858849 -0.27548039 0
-0.82422543 0.2770195 -0.29196107 0
-0.7372427 0.23270798 -0.30358362 0
-0.65965557 0.20422935 -0.31619394 0
-0.55487442 0.17854691 -0.32672 0
-0.47080612 0.12968445 -0.33751249 0
-0.36744022 0.059803009 -0.36386573 0
-0.25622749 0.027177811 -0.3834244 0
-0.1506691 0.024026871 -0.37882733 0
-0.11545849 -0.038209915 -0.36916959 0
0.18483448 -0.20171356 -0.42474639 0
0.26503849 -0.20593643 -0.43545198 0
0.32069397 -0.22966957 -0.39671481 0
-0.93433094 0.46562576 -0.27691519 0
-0.88710976 0.42137337 -0.28874314 0
-0.79103661 0.38324547 -0.30590892 0
-0.71025467 0.31927872 -0.31477547 0
-0.64135933 0.28908157 -0.3232094 0
-0.55416489 0.24371338 -0.33540165 0
-0.45103359 0.23248863 -0.34302139 0
-0.37954044 0.20066071 -0.33574772 0
-0.22918606 0.094478607 -0.3954159 0
-0.13125515 0.10368538 -0.39361739 0
-0.049420357 0.075120926 -0.37273932 0
0.026357651 0.018686295 -0.34683728 0
0.3781805 -0.15358543 -0.39783347 0
-0.76386738 0.48262405 -0.31308842 0
-0.6782608 0.43299866 -0.3302232 0
-0.60114765 0.39409828 -0.34287107 0
-0.49819946 0.35534859 -0.36281312 0
-0.38645649 0.3123436 -0.36980891 0
-0.31369781 0.26746178 -0.36447978 0
-0.25342846 0.24684715 -0.36111104 0
-0.077651024 0.18120575 -0.38477123 0
-0.054465294 0.13900566 -0.36962962 0
-0.53688526 0.47854042 -0.36032748 0
-0.4520607 0.45592308 -0.38603568 0
-0.35929012 0.38855171 -0.38494384 0
-0.24831295 0.35921288 -0.39441419 0
-0.1712923 0.30962181 -0.3888731 0
-0.059790611 0.28224564 -0.39761806 0
0.028749466 0.23921776 -0.38861668 0
-0.34331989 0.49300385 -0.40851653 0
-0.24063301 0.45849419 -0.41991413 0
-0.12578297 0.4267292 -0.42920649 0
-0.026744843 0.371521 -0.41898 0
0.046534538 0.35603714 -0.4145323 0
0.13609314 0.30813217 -0.40320826 0
-0.065314293 0.48479843 -0.44708538 0
0.014730453 0.47047043 -0.4485451 0
0.092370033 0.41683769 -0.43512034 0
0.19146156 0.36154747 -0.42835677 0
0.19614887 0.49734497 -0.44432425 0
0.38921833 -0.46841621 -0.35805094 0
0.43855381 -0.46601105 -0.33753061 0
0.40192699 -0.36244392 -0.35485756 0
0.53229046 -0.37040329 -0.32425487 0
0.56955719 -0.44418335 -0.30654097 0
0.367383 -0.23355293 -0.36858249 0
0.45739937 -0.26173592 -0.34291589 0
0.57903004 -0.28935242 -0.32353032 0
0.039642334 0.062547684 -0.33712661 0
0.12907982 0.014167786 -0.33981085 0
0.41262722 -0.15062714 -0.35803628 0
0.49354458 -0.18745422 -0.35280061 0
0.5561142 -0.21704102 -0.31930232 0
0.036862373 0.12232971 -0.35465884 0
0.16722393 0.094825745 -0.3512392 0
0.32872963 0.026628494 -0.36541605 0
0.41685581 -0.070539474 -0.36823177 0
0.52023125 -0.10797119 -0.34832525 0
0.040670395 0.1980114 -0.34513521 0
0.082539558 0.24907112 -0.37964559 0
0.19697189 0.15193939 -0.37027478 0
0.36653042 0.088991165 -0.38074112 0
0.46207619 0.040103912 -0.35267568 0
0.15994549 0.29638481 -0.35928154 0
0.35414791 0.18232918 -0.38145554 0
0.41758633 0.18920708 -0.35850906 0
0.47660637 0.13526726 -0.37450862 0
0.21045399 0.40331078 -0.38049042 0
0.27730083 0.35468102 -0.34935594 0
0.45459557 0.25806618 -0.35462892 0
0.23481274 0.46839333 -0.40874648 0
0.34693813 0.45505524 -0.38599861 0
0.45148277 0.4942646 -0.39804888 0
0.61113548 -0.45969582 -0.28397429 0
0.59564495 -0.30633926 -0.29048395 0
0.67883492 -0.33918762 -0.30230486 0
0.73829842 -0.39408493 -0.26962769 0
0.55329418 -0.1463604 -0.3238579 0
0.57079792 -0.23301888 -0.28596461 0
0.67443657 -0.23087502 -0.26547265 0
0.74004841 -0.27708817 -0.26717663 0
0.57462788 -0.080097198 -0.32004189 0
0.63034534 -0.12805557 -0.30064392 0
0.69933891 -0.15105629 -0.28488445 0
0.5235815 0.057291031 -0.32931376 0
0.57800007 0.012203217 -0.31033826 0
0.69013405 -0.023666382 -0.28675842 0
0.53162289 0.13799477 -0.3276757 0
0.62018967 0.12511063 -0.29904389 0
0.67159271 0.067991257 -0.2724638 0
0.49839115 0.2397728 -0.33392739 0
0.58023453 0.21759224 -0.31862438 0
0.69152069 0.17693901 -0.29245484 0
0.42436981 0.37308884 -0.34453583 0
0.53133488 0.35923195 -0.3352176 0
0.61630535 0.32680321 -0.31852472 0
0.68625355 0.29074097 -0.30528569 0
0.54792786 0.45912552 -0.3398174 0
0.82282543 -0.39745522 -0.24100304 0
0.80680847 -0.26392555 -0.23793221 0
0.88410378 -0.3345356 -0.23170388 0
0.75360203 -0.16853142 -0.2393018 0
0.84989548 -0.15575218 -0.24189568 0
0.91287899 -0.19414902 -0.21424699 0
0.99083805 -0.26333046 -0.21111357 0
0.79464054 -0.048168182 -0.2504915 0
0.8798418 -0.1144352 -0.21201193 0
0.99093819 -0.1494751 -0.20385253 0
0.74780655 0.059276581 -0.26101863 0
0.83554077 0.057888031 -0.25906467 0
0.90611935 -0.00061416626 -0.23590684 0
0.75746536 0.15729141 -0.26165628 0
0.85866165 0.12311554 -0.24334955 0
0.71183205 0.31071281 -0.26657343 0
0.82411861 0.27608109 -0.28140008 0
0.88755417 0.21413422 -0.24537766 0
0.64739227 0.42805672 -0.28426063 0
0.75499153 0.39091682 -0.24832022 0
0.78274536 0.4701004 -0.2707814 0
0.94486713 -0.086082458 -0.19160008 0
0.95486641 -0.0062065125 -0.20447648 0
0.96287537 0.099805832 -0.21916914 0
0.9979105 0.18844414 -0.21704888 0
0.73191643 -0.45204163 0.77125669 0
0.79398727 -0.42965889 0.84251428 0
0.86802864 -0.39546776 0.85133803 0
0.82529449 -0.43128014 0.91594315 0
0.8807621 -0.40106392 0.93182182 0
0.99561214 -0.34742546 0.90892422 0
0.92380619 -0.403862 1.0077646 0
0.97813511 -0.36089325 1.0159305 0
0.96893501 -0.41287422 1.14887 0
-0.75230885 -0.17251587 -0.26987934 0
-0.2939024 -0.4044838 -0.33026314 0
-0.39160824 -0.28064346 -0.32511163 0
-0.31834602 -0.17658424 -0.35314107 0
-0.17093468 -0.22155952 -0.3755579 0
-0.037864685 -0.2863884 -0.39068091 0
0.082694054 -0.35975838 -0.40469277 0
-0.1317997 -0.15807724 -0.39126146 0
0.022824287 -0.18463898 -0.41661596 0
0.12729073 -0.29757309 -0.42111409 0
-0.24174786 -0.023498535 -0.3837148 0
-0.95506382 -0.40323257 -0.19891131 0
-0.85551262 -0.45339012 -0.20966363 0
-0.73738289 -0.48418045 -0.22891986 0
-0.91748047 -0.34404755 -0.20736372 0
-0.83737469 -0.41048622 -0.21104264 0
-0.76553726 -0.35980797 -0.24182343 0
-0.69016075 -0.42643166 -0.2446034 0
-0.55862999 -0.47409439 -0.26131022 0
-0.93610668 -0.21318817 -0.22243583 0
-0.85947132 -0.2746048 -0.22692513 0
-0.74473763 -0.31270027 -0.24553001 0
-0.65222454 -0.37173271 -0.25675595 0
-0.49628448 -0.40521049 -0.28533685 0
-0.36220455 -0.48045921 -0.30330229 0
-0.97062874 -0.072423935 -0.22635841 0
-0.88056469 -0.1350441 -0.24042392 0
-0.78073025 -0.18267059 -0.25612247 0
-0.67744637 -0.22256088 -0.26959109 0
-0.58441162 -0.2773819 -0.28065109 0
-0.4471426 -0.34368706 -0.30341184 0
-0.29076385 -0.37893295 -0.32855189 0
-0.16615391 -0.45254898 -0.34008062 0
-0.015082359 -0.48449898 -0.3308419 0
-0.98861599 0.037368774 -0.23753524 0
-0.93202782 0.0024356842 -0.23788321 0
-0.82925987 -0.049434662 -0.25736296 0
-0.7210989 -0.079723358 -0.27583873 0
-0.61338234 -0.13003159 -0.29270458 0
-0.50782967 -0.16571808 -0.30818295 0
-0.51787472 -0.19946098 -0.30649722 0
-0.37756062 -0.2434864 -0.32844877 0
-0.24646187 -0.31620407 -0.3448205 0
-0.091582298 -0.36067581 -0.36936474 0
0.0088701248 -0.43773842 -0.35640562 0
0.098060608 -0.45348549 -0.33699691 0
0.18087578 -0.46932411 -0.33047318 0
-0.94891644 0.11242676 -0.25078583 0
-0.87260342 0.089168549 -0.26076853 0
-0.7677021 0.053668976 -0.28015101 0
-0.67806435 0.0079879761 -0.29090548 0
-0.57938385 -0.076293945 -0.3053112 0
-0.54857063 -0.029689789 -0.31802511 0
-0.46371365 -0.10570335 -0.32589173 0
-0.30359554 -0.1191082 -0.35630882 0
-0.028855324 -0.24811554 -0.39245784 0
0.14888859 -0.36050797 -0.37700748 0
0.25379562 -0.37550545 -0.42686939 0
0.28983498 -0.42222404 -0.36787021 0
-0.93212414 0.21236038 -0.26702201 0
-0.82825279 0.17580414 -0.27777624 0
-0.7289362 0.14166832 -0.29439998 0
-0.64898777 0.080680847 -0.30132651 0
-0.56093121 -1.5258789e-05 -0.3101517 0
-0.5069437 0.04929924 -0.33506727 0
-0.41810894 -0.016487122 -0.34413099 0
-0.28436565 -0.079925537 -0.36432528 0
-0.17337513 -0.096813202 -0.37474799 0
0.13007927 -0.2381897 -0.42326212 0
0.27276421 -0.30029678 -0.40073144 0
0.32292461 -0.35354233 -0.38310385 0
0.40677357 -0.40387344 -0.38067055 0
-0.99538708 0.36161995 -0.26313198 0
-0.8938694 0.31290817 -0.28158498 0
-0.80855274 0.2765255 -0.29747128 0
-0.71295547 0.21231079 -0.31096029 0
-0.57320595 0.19043159 -0.33488131 0
-0.52639484 0.16658783 -0.32864404 0
-0.47790909 0.11553192 -0.33844125 0
-0.39651394 0.045120239 -0.35303617 0
-0.2371521 0.013799667 -0.38508224 0
-0.15159988 -0.0094184875 -0.38654959 0
-0.062630653 -0.03465271 -0.38270032 0
0.01580143 -0.034423828 -0.35919249 0
0.27301407 -0.23482513 -0.41530359 0
0.38697433 -0.23366547 -0.39026654 0
-0.93582821 0.45257568 -0.28420782 0
-0.83781719 0.4055481 -0.29447472 0
-0.74056721 0.34853935 -0.31618476 0
-0.6491766 0.29720879 -0.32934368 0
-0.55548954 0.26569939 -0.34243357 0
-0.47667313 0.22986984 -0.34870064 0
-0.40035915 0.22606468 -0.34616673 0
-0.2117548 0.063863754 -0.39672339 0
-0.093997955 0.088247299 -0.39049423 0
-0.023974419 0.034440994 -0.36290801 0
0.04519558 -0.015014648 -0.33532631 0
0.40420532 -0.1562233 -0.40494442 0
-0.81619072 0.49761391 -0.30532813 0
-0.73150826 0.44445801 -0.32084179 0
-0.62436676 0.40418816 -0.34192133 0
-0.52171993 0.37773895 -0.35969973 0
-0.43190002 0.33372498 -0.36987901 0
-0.37907696 0.30983734 -0.36575282 0
-0.27427006 0.24445152 -0.36255193 0
-0.076246262 0.16328049 -0.38004088 0
0.023254395 0.13485718 -0.36938405 0
0.094004631 0.085700989 -0.36231029 0
-0.49217796 0.46167946 -0.37506545 0
-0.39677811 0.40428734 -0.38626885 0
-0.31505585 0.39097977 -0.39541912 0
-0.23729801 0.33627701 -0.39564288 0
-0.1349926 0.30853653 -0.38979757 0
-0.051000595 0.27981567 -0.3780123 0
0.055200577 0.22797775 -0.38464093 0
0.11584091 0.15407562 -0.37124276 0
-0.33792019 0.48584557 -0.4146179 0
-0.26290035 0.46939087 -0.42032111 0
-0.17009068 0.43713379 -0.42696631 0
-0.086179733 0.38131905 -0.42817903 0
-0.033008575 0.36023521 -0.41832042 0
0.052829742 0.35780716 -0.42512274 0
0.14251614 0.29728889 -0.40698802 0
-0.036397934 0.46994781 -0.45241332 0
0.038398743 0.42221642 -0.4497236 0
0.12380505 0.4030056 -0.43649852 0
0.15450096 0.49014282 -0.46104014 0
0.23170471 0.49376869 -0.43230379 0
0.41411686 -0.49222946 -0.33376157 0
0.40857983 -0.38343048 -0.33756578 0
0.51643944 -0.41346359 -0.31255639 0
0.61417675 -0.46656609 -0.30852008 0
0.41999722 -0.25622559 -0.34813797 0
0.45409775 -0.30594635 -0.33342016 0
0.5951395 -0.30732918 -0.31382751 0
0.66390419 -0.37533379 -0.31809616 0
0.13862419 0.026445389 -0.34243631 0
0.43130112 -0.19487572 -0.3544271 0
0.53950119 -0.19774818 -0.33282602 0
0.15209389 0.091489792 -0.34691846 0
0.28621006 0.052318573 -0.3617326 0
0.40108299 -0.088088989 -0.39162636 0
0.48284817 -0.07913208 -0.37040699 0
0.54881382 -0.114048 -0.3482455 0
0.087841988 0.22384834 -0.36649358 0
0.21826553 0.17392921 -0.3768419 0
0.33266163 0.12509727 -0.38002062 0
0.43287754 0.075004578 -0.36558795 0
0.51177406 0.020479202 -0.33996487 0
0.11984348 0.29380226 -0.37758386 0
0.18272686 0.28953552 -0.34959102 0
0.3619566 0.17390633 -0.3762536 0
0.44735241 0.17796326 -0.35328984 0
0.21719074 0.37189102 -0.38409352 0
0.31118011 0.3374958 -0.3424685 0
0.17163372 0.44760513 -0.4067477 0
0.27064896 0.45111465 -0.40073514 0
0.36990261 0.40433693 -0.35933149 0
0.3861618 0.49755096 -0.40592957 0
0.4540081 0.48611259 -0.38186812 0
0.687747 -0.35165596 -0.28285003 0
0.74256611 -0.3949604 -0.27873349 0
0.86864758 -0.4359951 -0.24850333 0
0.63475513 -0.23549271 -0.2864573 0
0.72830391 -0.25833321 -0.26252532 0
0.80809689 -0.33254051 -0.24055922 0
0.59054279 -0.12547874 -0.30856121 0
0.68169212 -0.12569427 -0.27967155 0
0.78842926 -0.16059875 -0.25208473 0
0.81849957 -0.23400116 -0.25684476 0
0.57725906 0.057281494 -0.32049 0
0.64438057 -0.00092124939 -0.29904783 0
0.70281792 -0.064319611 -0.27265429 0
0.50906277 0.18632126 -0.34024858 0
0.54928398 0.12661934 -0.33364928 0
0.65762901 0.084756851 -0.29034412 0
0.41650581 0.32354736 -0.3191694 0
0.53596592 0.25941658 -0.3397646 0
0.61087894 0.20483589 -0.31975222 0
0.68089676 0.17849159 -0.28743565 0
0.46920013 0.37879753 -0.34201372 0
0.57540417 0.36112404 -0.33367658 0
0.63978291 0.31843185 -0.30237639 0
0.49219322 0.47489548 -0.35932589 0
0.57498455 0.43876648 -0.335132 0
0.66801643 0.44626617 -0.31668937 0
0.85391903 -0.25526428 -0.22486639 0
0.94919586 -0.30097008 -0.20446646 0
0.894454 -0.18967056 -0.22460616 0
0.80894089 -0.067266464 -0.24308848 0
0.91340733 -0.11649323 -0.21833909 0
0.99449635 -0.15805626 -0.19290364 0
0.781991 0.028661728 -0.25556087 0
0.88933182 0.017030716 -0.22127378 0
0.95113087 -0.023332596 -0.21699297 0
0.79157066 0.15280914 -0.27266467 0
0.87531281 0.085731506 -0.22189617 0
0.98303223 0.068347931 -0.21307027 0
0.67876816 0.31343079 -0.2631191 0
0.77200794 0.28555679 -0.25876105 0
0.83599949 0.19761658 -0.26863205 0
0.93621159 0.19361496 -0.25405431 0
0.67211342 0.4155407 -0.27385128 0
0.77787399 0.39564514 -0.26083982 0
0.73807716 0.48861885 -0.28789878 0
0.8531208 0.46656036 -0.26504683 0
0.97148895 0.12936211 -0.21440804 0
0.74013996 -0.45537186 0.79093826 0
0.79140568 -0.45961571 0.90165722 0
0.81801701 -0.42816734 0.85061622 0
0.8988781 -0.39267349 0.83123481 0
0.91611862 -0.39776611 0.93256783 0
0.95764446 -0.36988449 0.91304779 0
0.94662476 -0.4134903 1.0358685 0
