# .PCD v0.7 - Point Cloud Data file format
VERSION 0.7
FIELDS x y z intensity
SIZE 4 4 4 4
TYPE F F F F
COUNT 1 1 1 1
WIDTH 1301
HEIGHT 1
VIEWPOINT 0 0 0 1 0 0 0
POINTS 1301
DATA ascii
0.82739639 -0.1587677 -0.4954226 0
0.87984657 -0.15114212 -0.50336885 0
0.97727394 -0.14488602 -0.50732851 0
0.80398941 -0.053262711 -0.48165941 0
0.90736389 -0.062896729 -0.49696898 0
0.98569679 -0.091068268 -0.50247407 0
0.79358101 0.053812027 -0.4714644 0
0.88627625 0.030017853 -0.48507333 0
0.99237823 0.037605286 -0.49387693 0
0.79009438 0.13783455 -0.46197367 0
0.89299202 0.15046883 -0.47344327 0
0.9773941 0.15138626 -0.48696828 0
0.73745346 0.2686615 -0.45780873 0
0.78472519 0.21650887 -0.46366262 0
0.90658188 0.25346947 -0.47197533 0
0.9835701 0.21182251 -0.47672606 0
0.72501945 0.3337822 -0.45565677 0
0.80153084 0.33374786 -0.46327591 0
0.87890625 0.31918907 -0.47190976 0
0.99762154 0.33530045 -0.47351742 0
0.69538689 0.44495201 -0.43968773 0
0.80548096 0.42239761 -0.45685625 0
0.8972187 0.42222214 -0.46130562 0
0.99468422 0.41542435 -0.46767783 0
0.92483521 0.45359612 -0.44179749 0
0.99291611 0.46494293 -0.43613195 0
0.031847 0.45896339 -0.16279244 0
0.62543488 -0.43779755 -0.46382189 0
0.72408485 -0.46028137 -0.47652078 0
0.83879089 -0.47735786 -0.48936749 0
0.9200058 -0.48589706 -0.50327516 0
0.65493393 -0.33955765 -0.47206116 0
0.72545433 -0.40034294 -0.47251654 0
0.84704971 -0.36310959 -0.49247861 0
0.94400978 -0.36022568 -0.5052433 0
0.66268158 -0.26869202 -0.47061372 0
0.72856903 -0.29146385 -0.47733378 0
0.83532333 -0.27585793 -0.49037337 0
0.95210075 -0.27387047 -0.50370121 0
0.67536736 -0.14418793 -0.47121072 0
0.73129082 -0.18172836 -0.48079586 0
0.82743073 -0.16765976 -0.48678565 0
0.94140625 -0.17780113 -0.50516105 0
0.65740585 -0.082633972 -0.46020436 0
0.75625038 -0.060974121 -0.47510219 0
0.85360146 -0.083068848 -0.48811984 0
0.9374733 -0.094287872 -0.49428058 0
0.64675331 0.032941818 -0.4560585 0
0.72688484 0.030670166 -0.46157479 0
0.84047508 0.032037735 -0.47477436 0
0.93437767 0.036315918 -0.48719573 0
0.64081764 0.13962173 -0.44920278 0
0.73397064 0.12413597 -0.46079898 0
0.82756233 0.14159012 -0.46198583 0
0.96100998 0.14187431 -0.47409034 0
0.65320969 0.24560165 -0.45102835 0
0.74482155 0.23903084 -0.45237231 0
0.83209801 0.22877121 -0.4591248 0
0.93507767 0.23700714 -0.4663496 0
0.58095169 0.31745338 -0.43465185 0
0.63848114 0.33430099 -0.44452286 0
0.7429142 0.33594322 -0.44556451 0
0.84305 0.3393364 -0.45663214 0
0.94719505 0.30810165 -0.46152592 0
0.64555168 0.45032501 -0.44075942 0
0.74318123 0.43181229 -0.44184518 0
0.85920906 0.43078995 -0.44517946 0
0.9595108 0.40451241 -0.45446491 0
0.88262749 0.40069389 -0.43476963 0
0.96105385 0.4515686 -0.43217087 0
0.055355072 0.28586006 -0.20210552 0
-0.012508392 0.35484505 -0.16838264 0
0.037244797 0.3050766 -0.1955235 0
-0.074714661 0.43058968 -0.16030788 0
-0.037172318 0.44875526 -0.15698051 0
0.46096802 -0.44588089 -0.44787264 0
0.56962013 -0.46786499 -0.45873117 0
0.68013763 -0.46680832 -0.47447157 0
0.74513626 -0.46398926 -0.47532797 0
0.9455719 -0.48033142 -0.50858307 0
0.48409081 -0.35780334 -0.45290971 0
0.55468559 -0.37508774 -0.4621563 0
0.6587925 -0.37080956 -0.47039914 0
0.77300453 -0.37693787 -0.48525643 0
0.87491798 -0.36909294 -0.50224304 0
0.96692657 -0.37432289 -0.51240492 0
0.48069763 -0.30299187 -0.44542789 0
0.56466293 -0.28515244 -0.46038795 0
0.63544655 -0.27489471 -0.46733403 0
0.75445747 -0.26325226 -0.48432016 0
0.88264275 -0.26267052 -0.49969959 0
0.9781723 -0.27500725 -0.51275373 0
0.57740402 -0.16602707 -0.46149373 0
0.66464996 -0.15413857 -0.47018433 0
0.7349205 -0.17674065 -0.47758436 0
0.8703537 -0.14830208 -0.50193834 0
0.97765541 -0.1753006 -0.49901748 0
0.59401512 -0.048124313 -0.45864582 0
0.67755318 -0.053274155 -0.47145987 0
0.80255508 -0.058492661 -0.49020457 0
0.85844612 -0.073522568 -0.4855895 0
0.95900345 -0.084789276 -0.50211239 0
0.61073112 0.075244904 -0.45159864 0
0.66931152 0.038805008 -0.45988393 0
0.77088356 8.392334e-05 -0.47582626 0
0.8344593 0.0337677 -0.47678161 0
0.9627018 0.033233643 -0.49084854 0
0.67343712 0.1375103 -0.45821905 0
0.75374985 0.11969376 -0.46529055 0
0.86614418 0.11952972 -0.47234702 0
0.98914337 0.14793587 -0.47768164 0
0.68997383 0.23644447 -0.45335841 0
0.80025101 0.22262955 -0.4676137 0
0.85709 0.22542763 -0.46522188 0
0.95500946 0.23252869 -0.48053598 0
0.68652725 0.33462334 -0.44864321 0
0.7800808 0.31906128 -0.45563722 0
0.85164642 0.3113575 -0.46649694 0
0.96890259 0.32224846 -0.47422218 0
0.36715698 0.47259331 -0.40782881 0
0.72180557 0.47972298 -0.42382145 0
0.75608635 0.41882896 -0.44503856 0
0.87544823 0.43578529 -0.45817685 0
0.9665451 0.4089756 -0.46749043 0
0.82398224 0.49851418 -0.44216228 0
0.25505257 -0.16470909 -0.34121561 0
0.19194031 -0.046382904 -0.30664062 0
0.12472343 0.061666489 -0.26266551 0
0.1626339 0.038192749 -0.28676772 0
0.10223007 0.13737106 -0.25943995 0
0.14431381 0.14032745 -0.26600361 0
0.022481918 0.26457214 -0.23692036 0
0.068622589 0.22445869 -0.24816942 0
0.028486252 0.33874321 -0.24192023 0
0.056991577 0.35511398 -0.26349688 0
-0.058191299 0.4824791 -0.2258122 0
0.023162842 0.43009758 -0.23819852 0
0.89934921 0.45070648 -0.43186283 0
0.99905014 0.43735886 -0.44222355 0
0.061243057 0.14143372 -0.22031355 0
0.030647278 0.27490997 -0.2147913 0
0.075662613 0.2338028 -0.21875978 0
0.018728256 0.34865761 -0.19690704 0
0.055683136 0.31655121 -0.20975089 0
-0.058015823 0.46608353 -0.16973042 0
-0.010036469 0.43345261 -0.18123007 0
0.30267525 -0.44611549 -0.42359996 0
0.40239143 -0.47084618 -0.43644261 0
0.5109539 -0.45504189 -0.45128727 0
0.59913826 -0.47722244 -0.4602015 0
0.6959095 -0.47634315 -0.47403336 0
0.78599548 -0.472229 -0.48122787 0
0.9201355 -0.43286324 -0.51133013 0
0.99853897 -0.48280525 -0.5150938 0
0.30668068 -0.3322525 -0.40679646 0
0.3996563 -0.36498833 -0.42741561 0
0.52240562 -0.37510109 -0.45381808 0
0.62597084 -0.35714149 -0.46544647 0
0.71497726 -0.37641335 -0.47646022 0
0.8126049 -0.36017036 -0.48836517 0
0.9213295 -0.3656044 -0.50606823 0
0.30597305 -0.2557869 -0.39313459 0
0.58679008 -0.26416016 -0.45958161 0
0.74029922 -0.26239586 -0.48385978 0
0.80727196 -0.30313873 -0.48109603 0
0.93740273 -0.25571442 -0.50869012 0
0.23577309 -0.15651321 -0.37020302 0
0.28426361 -0.18869591 -0.3712759 0
0.62879753 -0.17308807 -0.46794796 0
0.73860741 -0.16262436 -0.47845793 0
0.84596634 -0.17250824 -0.49787593 0
0.9449501 -0.16597748 -0.50968409 0
0.16784096 -0.038925171 -0.34573841 0
0.20454025 -0.066299438 -0.36364961 0
0.64349747 -0.085260391 -0.46300912 0
0.70494652 -0.078197479 -0.47808242 0
0.83031464 -0.081394196 -0.48925781 0
0.90854645 -0.075685501 -0.49311018 0
0.98758888 -0.064134598 -0.49928451 0
0.16820335 0.014968872 -0.34687901 0
0.6507988 0.00097465515 -0.4677999 0
0.7094574 0.019649506 -0.46548772 0
0.79620743 0.016931534 -0.47538781 0
0.90117455 0.05055809 -0.48313022 0
0.33208847 0.14414024 -0.41973114 0
0.71254539 0.12804985 -0.45500636 0
0.82696724 0.13262367 -0.47006488 0
0.91961861 0.12801743 -0.47492456 0
0.34634781 0.26257515 -0.42273331 0
0.3929348 0.26816559 -0.42852235 0
0.74387741 0.23792839 -0.45838118 0
0.83009338 0.23300743 -0.4674716 0
0.89800835 0.24455452 -0.47025108 0
0.32032013 0.33563805 -0.41465664 0
0.40157318 0.38081741 -0.41569495 0
0.82709122 0.32453537 -0.46992373 0
0.89889336 0.35677528 -0.46418571 0
0.23503494 0.45127487 -0.39256477 0
0.31904221 0.42939949 -0.4095192 0
0.40474129 0.4602108 -0.42211199 0
0.7702198 0.46315384 -0.42985606 0
0.82869148 0.41843605 -0.45790386 0
0.89597702 0.42330551 -0.44777012 0
0.96356392 0.48954773 -0.45112824 0
0.2314682 -0.13971901 -0.33520103 0
0.16220665 -0.018043518 -0.30426931 0
0.20762253 -0.042123795 -0.32304549 0
0.13846016 0.052350998 -0.30479002 0
0.18760872 0.04372406 -0.29981565 0
0.067235947 0.17226028 -0.25837207 0
0.12552643 0.13528442 -0.27581811 0
0.1925106 0.1008606 -0.32187152 0
0.068107605 0.23666573 -0.25156665 0
0.11938095 0.21562958 -0.27481937 0
0.058324814 0.36055565 -0.25299478 0
0.11475372 0.31198311 -0.29325008 0
-0.043733597 0.48484421 -0.22398138 0
0.038887024 0.43011856 -0.24141955 0
0.84177017 0.47602081 -0.43091726 0
0.97179031 0.39792824 -0.44624853 0
0.064126968 0.26528549 -0.21596742 0
0.10276222 0.24343872 -0.22236633 0
0.041023254 0.34321404 -0.19933414 0
-0.029951096 0.47113037 -0.18604612 0
0.020189285 0.44491959 -0.18107796 0
0.12952995 -0.45669937 -0.40683508 0
0.2308712 -0.44262505 -0.41567039 0
0.30004501 -0.46477509 -0.41902423 0
0.42492294 -0.44907379 -0.43827939 0
0.51889229 -0.46505356 -0.45268226 0
0.60972595 -0.47743607 -0.4627285 0
0.71320915 -0.46151924 -0.47465873 0
0.8111763 -0.45322418 -0.48592091 0
0.92876625 -0.48546982 -0.49948573 0
0.14448929 -0.36295891 -0.40418577 0
0.21362686 -0.35957527 -0.41030049 0
0.33065033 -0.35929298 -0.42141938 0
0.40489006 -0.40004158 -0.4262073 0
0.5486412 -0.35167503 -0.46071768 0
0.62992287 -0.37282181 -0.46540952 0
0.73860359 -0.3633728 -0.48227811 0
0.82388687 -0.36608696 -0.48671246 0
0.95692444 -0.35696411 -0.50698805 0
0.15954399 -0.26834869 -0.40504408 0
0.25453949 -0.25490952 -0.39913821 0
0.31235504 -0.26384163 -0.39422083 0
0.55218315 -0.27000427 -0.45663238 0
0.64575768 -0.26889801 -0.46789575 0
0.7439003 -0.26989365 -0.4790771 0
0.85160065 -0.25503922 -0.49676275 0
0.9910202 -0.22714233 -0.51995897 0
0.16730309 -0.17687225 -0.40419364 0
0.22901154 -0.15645218 -0.37814212 0
0.66258812 -0.15649796 -0.4724884 0
0.77216339 -0.15459633 -0.49042916 0
0.86414337 -0.15691566 -0.49988103 0
0.94495201 -0.19169044 -0.49516463 0
0.17669678 -0.073122025 -0.38174677 0
0.26152611 -0.066337585 -0.42224121 0
0.66643906 -0.094968796 -0.4728148 0
0.75579071 -0.089450836 -0.48058844 0
0.83179855 -0.064163208 -0.48509097 0
0.94291878 -0.06933403 -0.49723101 0
0.18002892 0.0074195862 -0.37860322 0
0.23574638 0.016031265 -0.41481471 0
0.32320976 0.070968628 -0.42513299 0
0.74414635 0.034204483 -0.47048402 0
0.80512047 0.027528763 -0.47537875 0
0.89458275 0.037887573 -0.47854471 0
0.17359734 0.13974953 -0.40540981 0
0.23754311 0.13387489 -0.41594958 0
0.33714104 0.15290642 -0.42079759 0
0.75660896 0.11887932 -0.45648932 0
0.86853218 0.17314529 -0.47296143 0
0.93175316 0.15316963 -0.48118353 0
0.14234543 0.24228477 -0.39423943 0
0.23304749 0.25159454 -0.40466475 0
0.32324219 0.24402046 -0.42009926 0
0.41562843 0.28699684 -0.42526102 0
0.75118256 0.19313431 -0.45630622 0
0.84767532 0.22463036 -0.46510959 0
0.95057106 0.23884392 -0.47479844 0
0.14648247 0.35894775 -0.39602184 0
0.23699188 0.33374596 -0.40648723 0
0.34812355 0.32811165 -0.41494179 0
0.41057014 0.37756538 -0.42766547 0
0.84992409 0.32763863 -0.45825958 0
0.9283123 0.31937599 -0.46780133 0
0.080181122 0.47144508 -0.38003373 0
0.13939095 0.43935966 -0.38878322 0
0.26421547 0.45162773 -0.4050386 0
0.36466599 0.43318367 -0.41672897 0
0.4765377 0.48049545 -0.4351809 0
0.8507843 0.45201492 -0.44597411 0
0.93083763 0.4353447 -0.44594216 0
0.90492249 0.49077034 -0.44094777 0
0.25154495 -0.21814728 -0.33419323 0
0.23948097 -0.13209915 -0.34169197 0
0.16994858 -0.030052185 -0.32134604 0
0.22055054 -0.05329895 -0.3276372 0
0.15169334 0.051437378 -0.2970469 0
0.092914581 0.15807915 -0.27860808 0
0.12443161 0.13280678 -0.2842176 0
0.078458786 0.24938393 -0.2528646 0
0.12457085 0.22801018 -0.28397655 0
0.057264328 0.32850075 -0.25048637 0
0.93738937 0.34501839 -0.44042301 0
-0.028930664 0.46901131 -0.22275233 0
0.045789719 0.44026947 -0.24871922 0
0.97075272 0.44443703 -0.43391418 0
0.097654343 0.14618492 -0.21972013 0
0.080415726 0.23151588 -0.21764278 0
0.01074791 0.36168861 -0.20204139 0
0.047180176 0.32891655 -0.1967566 0
-0.014152527 0.44375801 -0.18138862 0
0.038135529 0.43599129 -0.17739964 0
0.95788193 -0.46440315 -0.50227404 0
0.69190788 -0.44960022 -0.47234344 0
0.81838608 -0.42340088 -0.48302555 0
0.97690201 -0.34907913 -0.50761652 0
0.29880142 -0.47648811 -0.41587925 0
0.4102211 -0.44658852 -0.43371439 0
0.50481606 -0.41044617 -0.44032907 0
0.57240486 -0.401474 -0.45715261 0
0.70034599 -0.34405899 -0.47128963 0
0.84383774 -0.28120232 -0.49141622 0
0.98084259 -0.25293541 -0.5065639 0
0.016542435 -0.46934319 -0.38702011 0
0.086957932 -0.45326233 -0.39052486 0
0.19096756 -0.43688774 -0.39999437 0
0.27471542 -0.34887505 -0.39653563 0
0.37627602 -0.36176491 -0.4203825 0
0.58171082 -0.29666901 -0.45720124 0
0.69482613 -0.22533226 -0.46400332 0
0.71585083 -0.23438835 -0.47593188 0
0.84482193 -0.19192123 -0.48965478 0
0.96433449 -0.14639664 -0.50111103 0
-0.1165123 -0.42536736 -0.36348915 0
-0.060564041 -0.38270569 -0.3672049 0
0.056837082 -0.36240196 -0.38615775 0
0.17282104 -0.30395126 -0.40738964 0
0.25045776 -0.2710743 -0.39279461 0
0.30327988 -0.23098183 -0.3805275 0
0.70950127 -0.13711357 -0.47065806 0
0.83197975 -0.077529907 -0.486233 0
0.93034172 -0.072956085 -0.48855281 0
-0.12648201 -0.34732819 -0.35972261 0
-0.057853699 -0.2762928 -0.37363315 0
0.032863617 -0.25219154 -0.38096404 0
0.11858177 -0.23082733 -0.39551425 0
0.21881104 -0.1984539 -0.38434434 0
0.7823143 -0.00083732605 -0.46723366 0
0.8963356 0.035264969 -0.47897601 0
-0.098680496 -0.19565201 -0.3685267 0
-0.0070915222 -0.16871262 -0.37727714 0
0.11020851 -0.12008858 -0.39478183 0
0.19336891 -0.095541 -0.38278794 0
0.29164505 -0.021921158 -0.41716552 0
0.75575256 0.075941086 -0.45932841 0
0.83839607 0.11442566 -0.45813918 0
0.98000336 0.16913795 -0.48417735 0
-0.10239983 -0.094087601 -0.36451173 0
-0.028627396 -0.063117981 -0.37442374 0
0.05821991 -0.041315079 -0.38365197 0
0.15992355 0.010915756 -0.39981627 0
0.24849129 0.041511536 -0.41023469 0
0.37761879 0.11574173 -0.4286201 0
0.83371544 0.20528412 -0.46059489 0
0.92868423 0.25766754 -0.46694565 0
-0.07909584 0.021430969 -0.36781454 0
0.024820328 0.077310562 -0.38250375 0
0.12922859 0.08130455 -0.3831749 0
0.21832657 0.12372589 -0.40652561 0
0.35264015 0.16370773 -0.41913509 0
0.95828247 0.38713837 -0.46034098 0
-0.099430084 0.14187241 -0.36948633 0
-0.010234833 0.15087128 -0.37698412 0
0.10728836 0.19789696 -0.39351439 0
0.17010117 0.21464539 -0.39832163 0
0.26496696 0.23570061 -0.4129436 0
0.35057068 0.28236389 -0.4163084 0
0.43188095 0.28787804 -0.4293189 0
-0.11215782 0.21560097 -0.3619771 0
-0.005689621 0.2550354 -0.37546825 0
0.072874069 0.30114937 -0.38345385 0
0.12705231 0.30986023 -0.38441277 0
0.25449371 0.32593155 -0.40348864 0
0.34921837 0.40991211 -0.4110713 0
0.44070053 0.40022469 -0.41859484 0
-0.1511898 0.31876373 -0.35490489 0
-0.059976578 0.3282814 -0.36717772 0
0.014579773 0.37909317 -0.37449336 0
0.11367416 0.42401123 -0.38593316 0
0.19324493 0.43536758 -0.39374876 0
0.30763626 0.46993256 -0.40266275 0
-0.17298508 0.40454865 -0.35128093 0
-0.09330368 0.45081139 -0.3595624 0
0.016195297 0.47452164 -0.37087512 0
0.23334122 -0.19289398 -0.32777309 0
0.18727684 -0.095304489 -0.31761813 0
0.1509037 -0.0021247864 -0.3094089 0
0.064630508 0.093162537 -0.28344679 0
0.12163734 0.086801529 -0.27795267 0
0.045394897 0.18397331 -0.26409411 0
0.088485718 0.17290115 -0.26585197 0
0.89962769 0.44212723 -0.43163252 0
0.94676399 0.46346092 -0.41597199 0
0.027170181 0.24853706 -0.23838854 0
0.091587067 0.26028824 -0.28456116 0
0.034183502 0.37681961 -0.23958635 0
0.079267502 0.16950035 -0.21189046 0
0.021368027 0.25122261 -0.21492267 0
0.066099167 0.28399467 -0.20745611 0
0.00058174133 0.36018372 -0.20484781 0
0.016363144 0.36823845 -0.17966676 0
-0.042358398 0.43109512 -0.18353415 0
0.0015602112 0.49608421 -0.16029978 0
-0.6270504 0.49075317 -0.13337874 0
0.95606232 -0.47546768 -0.51111078 0
0.58115768 -0.48174667 -0.45666027 0
0.69514656 -0.44873428 -0.47602391 0
0.7325573 -0.39096451 -0.49499273 0
0.83438492 -0.39711189 -0.49578333 0
0.98023224 -0.33988953 -0.51643658 0
0.26248169 -0.47700882 -0.42338586 0
0.36144066 -0.45903778 -0.43229294 0
0.46114731 -0.42219925 -0.44349122 0
0.56358337 -0.40379333 -0.45601392 0
0.71388817 -0.33721733 -0.47906041 0
0.84441376 -0.2886219 -0.49529266 0
0.9668045 -0.25586128 -0.50444078 0
-0.016321182 -0.49103355 -0.3828032 0
0.068597794 -0.44900322 -0.39351225 0
0.15426636 -0.42632484 -0.40776801 0
0.22974586 -0.41530037 -0.41521215 0
0.3151722 -0.37041092 -0.42059422 0
0.50276756 -0.35346794 -0.44789886 0
0.61905289 -0.27597237 -0.46519351 0
0.72187233 -0.22838211 -0.47827816 0
0.86302757 -0.15791893 -0.50096822 0
0.95160484 -0.15025711 -0.49882269 0
0.024244308 -0.37445641 -0.38731503 0
0.10404396 -0.34422302 -0.39578724 0
0.21497917 -0.30864906 -0.40885735 0
0.28304863 -0.26051712 -0.39534616 0
0.62026215 -0.203228 -0.46264696 0
0.74378204 -0.092195511 -0.4869349 0
0.83257866 -0.076673508 -0.48767376 0
0.93587875 -0.027463913 -0.49580598 0
0.031248093 -0.28715897 -0.3912673 0
0.081157684 -0.22122765 -0.39971685 0
0.19194794 -0.19708252 -0.39583302 0
0.24952126 -0.1889019 -0.39454556 0
0.71707153 -0.044620514 -0.47474384 0
0.79590034 0.0083751678 -0.47380233 0
0.91674995 0.072933197 -0.47807622 0
0.98764801 0.074245453 -0.4827404 0
0.057472229 -0.14590645 -0.39242744 0
0.15388489 -0.10386848 -0.38781381 0
0.20347214 -0.095279694 -0.39352894 0
0.28166962 -0.034793854 -0.42615199 0
0.75919342 0.068677902 -0.45971942 0
0.75536537 0.1247921 -0.46063828 0
0.9015522 0.13982391 -0.46830416 0
0.044391632 -0.036064148 -0.38916111 0
0.12254143 -0.0048847198 -0.38476229 0
0.19960403 0.040449142 -0.40281439 0
0.27345276 0.027908325 -0.42173123 0
0.34572601 0.082143784 -0.4303658 0
0.84722519 0.23051071 -0.46768475 0
0.93690491 0.24899483 -0.46970916 0
0.038282394 0.021068573 -0.38585424 0
0.074560165 0.080053329 -0.39130616 0
0.16904068 0.1267128 -0.40582132 0
0.27205276 0.14124298 -0.41275239 0
0.36758041 0.18891525 -0.42870188 0
0.93662643 0.36519432 -0.46456313 0
0.062448502 0.16683388 -0.39020371 0
0.1557827 0.20439339 -0.39603734 0
0.23911095 0.2503643 -0.41165376 0
0.3194046 0.2715416 -0.41504645 0
0.41405106 0.33799171 -0.42706776 0
0.91485214 0.42647552 -0.44143152 0
0.016294479 0.25902367 -0.3821826 0
0.11867714 0.2914772 -0.39496517 0
0.21196938 0.3344841 -0.40357208 0
0.29977226 0.36836815 -0.40697026 0
0.39504242 0.37463379 -0.41621137 0
0.0090999603 0.36172867 -0.3786211 0
0.089456558 0.38073158 -0.38693309 0
0.19941139 0.43043327 -0.39479995 0
0.28120613 0.44838905 -0.40409231 0
-0.036359787 0.47881699 -0.36810875 0
0.052406311 0.47952461 -0.37978697 0
0.24826622 -0.18033218 -0.34757066 0
0.17929077 -0.081670761 -0.32593012 0
0.229105 -0.080463409 -0.32518363 0
0.15142441 0.0027656555 -0.30685163 0
0.18141937 0.01517868 -0.29220748 0
0.11619759 0.10182953 -0.29162931 0
0.14932442 0.11141777 -0.26253462 0
0.086572647 0.18991089 -0.25937843 0
0.11031342 0.24290848 -0.29889154 0
0.8879776 0.4889679 -0.42038107 0
0.059108734 0.27316284 -0.24676228 0
0.098560333 0.30525589 -0.2864852 0
0.038257599 0.38214493 -0.24489808 0
0.052629471 0.38355064 -0.2544682 0
-0.041559219 0.47550583 -0.22248125 0
0.083425522 0.21802521 -0.2094245 0
0.057779312 0.2985878 -0.20725203 0
0.018835068 0.38544655 -0.18535995 0
-0.019018173 0.46447563 -0.17781281 0
0.99170876 -0.47758484 -0.5147748 0
0.57339478 -0.46057701 -0.46301293 0
0.69636154 -0.46449089 -0.47449136 0
0.79762459 -0.39200211 -0.49731755 0
0.88899803 -0.37538147 -0.50330424 0
0.30119705 -0.47742653 -0.42623854 0
0.38537979 -0.47395706 -0.43078637 0
0.49310493 -0.41231728 -0.4536407 0
0.59060669 -0.37082863 -0.46335435 0
0.68072701 -0.39344788 -0.47411013 0
0.76353073 -0.31998825 -0.48900938 0
0.84503937 -0.28183937 -0.4921658 0
0.90303802 -0.25745964 -0.50239539 0
0.17542458 -0.44702339 -0.4103899 0
0.25377083 -0.38348579 -0.4214859 0
0.3333931 -0.36190224 -0.41562343 0
0.5083046 -0.33919525 -0.45488381 0
0.6058197 -0.27431679 -0.46393514 0
0.71325111 -0.22339058 -0.48023009 0
0.82056427 -0.17918777 -0.49442577 0
0.90753937 -0.19118118 -0.50147009 0
0.23119926 -0.29874039 -0.41162062 0
0.3034153 -0.26885796 -0.39495182 0
0.62058449 -0.19564438 -0.46757078 0
0.69215012 -0.12319565 -0.47697186 0
0.8078804 -0.10556793 -0.48600793 0
0.90435982 -0.079853058 -0.50048757 0
0.99188614 -0.055130005 -0.50220537 0
0.22480202 -0.18212318 -0.39656281 0
0.27643394 -0.19260216 -0.38342643 0
0.71630669 -0.043357849 -0.47668767 0
0.7608242 0.00098800659 -0.47640562 0
0.87149048 0.031644821 -0.4873662 0
0.96784592 0.04259491 -0.49375153 0
0.19495964 -0.085374832 -0.36779189 0
0.24728394 -0.09145546 -0.40026999 0
0.75951958 0.091772079 -0.46725535 0
0.83162689 0.13422775 -0.47207499 0
0.92793846 0.15189934 -0.47960401 0
0.16764259 -0.044332504 -0.36148524 0
0.24788284 0.011665344 -0.41343856 0
0.30896759 0.075777054 -0.42841864 0
0.82323837 0.23289871 -0.47087741 0
0.90145111 0.26486397 -0.47121167 0
0.99238396 0.28635597 -0.47587991 0
0.18359756 0.1491127 -0.35029197 0
0.27967453 0.15730667 -0.42128134 0
0.36880302 0.1801548 -0.42677307 0
0.80657196 0.28144264 -0.46440649 0
0.87138367 0.30272865 -0.45846462 0
0.94550705 0.36282921 -0.47055292 0
0.25023651 0.23594475 -0.41153812 0
0.36209297 0.28310585 -0.42682433 0
0.41015053 0.3254528 -0.42627358 0
0.85520172 0.4113102 -0.45768118 0
0.91081429 0.44207001 -0.45255947 0
0.23487854 0.33514977 -0.40589905 0
0.31115341 0.3718338 -0.41321683 0
0.39782333 0.40657234 -0.41700149 0
0.47084618 0.46722031 -0.43702292 0
0.19017982 0.43341637 -0.39340448 0
0.2924633 0.4731884 -0.41053176 0
0.38190269 0.49225426 -0.41362476 0
0.28369713 -0.1445179 -0.35868859 0
0.21753311 -0.083845139 -0.31993008 0
0.23901367 -0.085906982 -0.35037923 0
0.16908073 0.012233734 -0.31818295 0
0.20829964 -0.018928528 -0.32323432 0
0.14070511 0.094963074 -0.30178547 0
0.17331314 0.1098175 -0.27144217 0
0.98710251 0.4228096 -0.45132375 0
0.10168076 0.18603325 -0.27437854 0
0.14245033 0.20438004 -0.27865791 0
0.93321228 0.48607445 -0.43581223 0
0.07068634 0.26727295 -0.25124049 0
0.10934448 0.32496262 -0.28718638 0
0.041358948 0.35018158 -0.24178553 0
0.10067177 0.34737968 -0.28409719 0
-0.027391434 0.46043015 -0.22113895 0
0.068136215 0.4642868 -0.2590766 0
0.11840248 0.19528389 -0.23228526 0
0.077009201 0.28487587 -0.21364784 0
0.033525467 0.37371635 -0.19672227 0
-0.060621262 0.47975922 -0.17537236 0
5.3405762e-05 0.46416855 -0.1822679 0
0.82455254 -0.48595619 -0.49174452 0
0.93902588 -0.47678566 -0.51139045 0
0.95883179 -0.41031456 -0.51566482 0
0.47585106 -0.48702812 -0.44981289 0
0.58652115 -0.48101997 -0.4624126 0
0.67321205 -0.4344902 -0.46956539 0
0.75204277 -0.40992165 -0.48557234 0
0.85387802 -0.37850952 -0.49676204 0
0.95151711 -0.36364174 -0.50444913 0
0.31600189 -0.47593498 -0.4216001 0
0.36206627 -0.44768143 -0.43563819 0
0.45169258 -0.42145157 -0.44190073 0
0.56483459 -0.37341118 -0.45880008 0
0.65242577 -0.31834602 -0.47177267 0
0.76568222 -0.33655167 -0.48510814 0
0.84570312 -0.27864838 -0.49743319 0
0.88381577 -0.23169708 -0.50107741 0
0.32917786 -0.34828568 -0.41069198 0
0.53370667 -0.2802906 -0.45753074 0
0.61122894 -0.24179268 -0.46354294 0
0.69051361 -0.24079323 -0.47478604 0
0.79738045 -0.17535782 -0.49031377 0
0.89275742 -0.17372131 -0.50230408 0
0.99530792 -0.12656593 -0.50364518 0
0.29227257 -0.27572823 -0.3830359 0
0.54631233 -0.20887947 -0.45800352 0
0.61663246 -0.16525269 -0.46040368 0
0.71190834 -0.12100792 -0.47896242 0
0.80420494 -0.070419312 -0.4903028 0
0.88426971 -0.060716629 -0.49670911 0
0.97416496 -0.028409958 -0.49572134 0
0.24507713 -0.1994381 -0.36911082 0
0.26081276 -0.17457199 -0.37733984 0
0.67229462 -0.033306122 -0.47372675 0
0.77052879 0.016199112 -0.47368431 0
0.8436718 0.021593094 -0.47720408 0
0.93618774 0.079057693 -0.48991251 0
0.22320557 -0.11091042 -0.35646629 0
0.7064743 0.085744858 -0.46204138 0
0.82088089 0.12996292 -0.46853471 0
0.90756035 0.16165543 -0.47861719 0
0.98752022 0.21774101 -0.47570181 0
0.72736931 0.20469475 -0.45519519 0
0.7942009 0.23723412 -0.45774078 0
0.88168907 0.25383377 -0.46869516 0
0.95474625 0.29778862 -0.47489977 0
0.78557968 0.31631851 -0.45574927 0
0.84181595 0.36867714 -0.46128535 0
0.94626045 0.37075996 -0.46317101 0
0.3543911 0.32260132 -0.40913248 0
0.40377617 0.32906914 -0.43244267 0
0.83621407 0.45656967 -0.44531298 0
0.87861252 0.41746712 -0.44807529 0
0.35231018 0.38640404 -0.41081595 0
0.38646317 0.4534893 -0.41810155 0
0.25169373 -0.15380669 -0.3457315 0
0.19216919 -0.074390411 -0.33170843 0
0.23442459 -0.075042725 -0.32183099 0
0.15873909 0.0095214844 -0.29643559 0
0.21811485 -0.0052394867 -0.32349801 0
0.12161255 0.10896873 -0.2756412 0
0.17424011 0.10356522 -0.29409862 0
0.94136047 0.41470146 -0.44458795 0
0.088071823 0.19682503 -0.26558042 0
0.12958336 0.22482872 -0.26450849 0
0.91581535 0.49571419 -0.43124104 0
0.051612854 0.2915554 -0.24838376 0
0.035333633 0.39278412 -0.2420795 0
0.081829071 0.22624588 -0.22881484 0
0.060819626 0.3018837 -0.2103343 0
0.080821991 0.34363174 -0.22628784 0
0.020496368 0.37509727 -0.18953276 0
-0.063737869 0.45093536 -0.17057657 0
-0.014066696 0.47203827 -0.18221712 0
0.7485714 -0.49222374 -0.48863888 0
0.97696304 -0.48303604 -0.51599908 0
0.15096283 -0.45272446 -0.41160631 0
0.24339867 -0.47117615 -0.42087388 0
0.35458374 -0.42653084 -0.44021297 0
0.467659 -0.42523003 -0.45128322 0
0.5538578 -0.43172646 -0.45812535 0
0.65180779 -0.43867111 -0.47192073 0
0.76659775 -0.39900398 -0.48794532 0
0.8755722 -0.40539932 -0.5080657 0
0.98964882 -0.41653252 -0.51631331 0
0.17632484 -0.34673882 -0.41027617 0
0.26358795 -0.35189819 -0.4116466 0
0.34988594 -0.35020447 -0.42899036 0
0.4810257 -0.36094666 -0.45098257 0
0.5813694 -0.31441879 -0.4620049 0
0.67907524 -0.32891464 -0.47687984 0
0.8502903 -0.29952621 -0.50081992 0
0.24932098 -0.25158882 -0.40210533 0
0.30757713 -0.27608109 -0.37843204 0
0.61321449 -0.19600868 -0.47161484 0
0.7056427 -0.21536827 -0.48336577 0
0.80486107 -0.20153046 -0.49379826 0
0.91468811 -0.1850605 -0.51244307 0
0.17263985 -0.1428299 -0.37219357 0
0.22417641 -0.15474319 -0.39171338 0
0.6068306 -0.16123962 -0.46505761 0
0.71504784 -0.11686325 -0.48288369 0
0.80438995 -0.12630272 -0.49001312 0
0.90369987 -0.099187851 -0.50523829 0
0.99641609 -0.069423676 -0.5095048 0
0.15514374 -0.055604935 -0.36347342 0
0.22793198 -0.050331116 -0.40860176 0
0.69422913 0.0050411224 -0.47170281 0
0.81393242 4.9591064e-05 -0.48496294 0
0.91268539 0.0102005 -0.49764466 0
0.17013168 0.0084609985 -0.35989571 0
0.2352047 0.060432434 -0.41630912 0
0.31221771 0.06063652 -0.42831445 0
0.74864769 0.12216187 -0.46699905 0
0.80165672 0.089326859 -0.47576332 0
0.94465446 0.11939812 -0.48943853 0
0.23294067 0.166399 -0.41518784 0
0.30991745 0.15544128 -0.42713165 0
0.36692047 0.19626808 -0.4296701 0
0.73923874 0.16248703 -0.46302247 0
0.82084846 0.21076965 -0.4725945 0
0.9045639 0.19109726 -0.47350359 0
0.21186256 0.25607109 -0.40651774 0
0.30414009 0.24611473 -0.41946936 0
0.36236 0.25665665 -0.42878461 0
0.80360222 0.28384781 -0.4659164 0
0.88200378 0.29122925 -0.46566725 0
0.98245239 0.30020523 -0.4743495 0
0.19738388 0.36022186 -0.4031291 0
0.29725647 0.34301186 -0.41547799 0
0.38765335 0.33117294 -0.41812754 0
0.89704895 0.42642021 -0.46263504 0
0.19477081 0.45479393 -0.4005456 0
0.29416847 0.45433998 -0.41289592 0
0.37084007 0.45479774 -0.41637564 0
0.25483894 -0.15456772 -0.35216546 0
0.16955566 -0.063188553 -0.33028102 0
0.20139503 -0.054862976 -0.32599521 0
0.14076614 0.055358887 -0.30626273 0
0.18903732 0.017807007 -0.30108762 0
0.071651459 0.16213226 -0.26908636 0
0.11197662 0.13125038 -0.28804922 0
0.050098419 0.22297478 -0.25944519 0
0.096534729 0.22463799 -0.27816844 0
0.043266296 0.31562805 -0.25001049 0
0.068378448 0.352211 -0.2733767 0
0.95883942 0.4318428 -0.44288063 0
0.012786865 0.39099312 -0.23403454 0
0.058996201 0.40431786 -0.27101445 0
0.10379982 0.18069267 -0.229321 0
0.056106567 0.2602272 -0.21868873 0
0.0909729 0.24194527 -0.22663045 0
0.033323288 0.3422699 -0.21101904 0
0.080854416 0.30570984 -0.22551894 0
-0.063035965 0.46405983 -0.19916248 0
-0.0027008057 0.4286499 -0.18655372 0
0.68139458 -0.48758888 -0.4714303 0
0.95376396 -0.47624969 -0.50952744 0
-0.022239685 -0.47467613 -0.38197994 0
0.0928936 -0.46538734 -0.39899111 0
0.19377899 -0.43868065 -0.40990257 0
0.2743187 -0.43425369 -0.42394471 0
0.39201736 -0.43827248 -0.4343431 0
0.50177765 -0.41367531 -0.45216346 0
0.60098839 -0.42248726 -0.46347904 0
0.7107296 -0.37075043 -0.47686911 0
0.82078743 -0.43263817 -0.48849273 0
0.83572578 -0.35821342 -0.49053884 0
0.96258736 -0.39738655 -0.50643754 0
0.0049972534 -0.37382317 -0.38292885 0
0.075971603 -0.34743881 -0.39697981 0
0.15875053 -0.35397339 -0.40185308 0
0.26372147 -0.35522842 -0.4056921 0
0.51812363 -0.33452034 -0.45341659 0
0.6105442 -0.36730576 -0.46321774 0
0.68593025 -0.31585121 -0.47260499 0
0.8502388 -0.3073082 -0.49539399 0
0.99750137 -0.28903198 -0.51951933 0
0.020107269 -0.31344032 -0.38452291 0
0.067831039 -0.26489639 -0.39074707 0
0.15896225 -0.25928688 -0.40432334 0
0.26966667 -0.25193405 -0.39269829 0
0.63672638 -0.23153687 -0.46779823 0
0.739254 -0.21339035 -0.48158884 0
0.85950279 -0.21807671 -0.49473786 0
0.99111176 -0.18452835 -0.5115931 0
0.060237885 -0.16072273 -0.39505386 0
0.17450714 -0.15768623 -0.39404631 0
0.24077606 -0.16923141 -0.39354539 0
0.66750145 -0.11758423 -0.47921944 0
0.73999977 -0.11111832 -0.47752333 0
0.86161995 -0.091194153 -0.49378848 0
0.97986794 -0.070543289 -0.50748324 0
0.063058853 -0.063207626 -0.39061427 0
0.16514397 -0.050819397 -0.37858772 0
0.23994827 -0.045707703 -0.41822362 0
0.74113464 0.0029010773 -0.47922707 0
0.82546616 -0.010032654 -0.47827673 0
0.94817924 -0.008895874 -0.49408793 0
0.074171066 0.056631088 -0.39310002 0
0.15350914 0.059835434 -0.38588333 0
0.23023605 0.053070068 -0.4115324 0
0.33035088 0.078512192 -0.42566633 0
0.80842781 0.10931206 -0.47408295 0
0.91930008 0.095344543 -0.48431897 0
0.069229126 0.14566422 -0.39003229 0
0.16206932 0.15756226 -0.40483856 0
0.23063087 0.14829254 -0.40817237 0
0.32300186 0.16546631 -0.42261386 0
0.7844944 0.16394806 -0.46483707 0
0.86363029 0.21953392 -0.46340513 0
0.91999626 0.195755 -0.46861959 0
0.98550034 0.21018028 -0.47887015 0
0.058443069 0.23049164 -0.38607907 0
0.1263485 0.23236847 -0.39364362 0
0.23397827 0.256567 -0.40355062 0
0.32959557 0.27137184 -0.42174435 0
0.43670082 0.30062103 -0.43629026 0
0.85279274 0.29570389 -0.46037865 0
0.93838501 0.29553604 -0.46010494 0
0.051807404 0.32373428 -0.38576031 0
0.11556435 0.34959221 -0.38777852 0
0.22259712 0.35465431 -0.40830684 0
0.30018616 0.36834526 -0.40555739 0
0.40967941 0.35989952 -0.42607737 0
0.90555382 0.37699699 -0.45153689 0
0.98464775 0.42665672 -0.45743942 0
0.030124664 0.43311882 -0.37603712 0
0.14049339 0.43618965 -0.39201736 0
0.23008156 0.4407177 -0.40121222 0
0.30621529 0.47446632 -0.40419221 0
0.38474274 0.45718002 -0.41937923 0
0.4733448 0.46939659 -0.43059254 0
0.91855049 0.46673965 -0.44970107 0
0.26186371 -0.23621178 -0.34910202 0
0.21407127 -0.13483238 -0.35066295 0
0.24489784 -0.15856743 -0.34236121 0
0.1866169 -0.057733536 -0.32055211 0
0.22728348 -0.088388443 -0.3354311 0
0.10570908 0.089010239 -0.30453134 0
0.14498138 0.037712097 -0.29905844 0
0.083688736 0.15698242 -0.27967858 0
0.12539482 0.144804 -0.27117968 0
0.066566467 0.23564339 -0.25059915 0
0.1163578 0.20837402 -0.30769062 0
0.046535492 0.33007431 -0.24997616 0
0.10097122 0.34792328 -0.28805661 0
-0.017032623 0.45916939 -0.22702932 0
0.027326584 0.4189415 -0.24167895 0
0.10984039 0.18678474 -0.23016572 0
0.069087982 0.26623726 -0.21691775 0
0.10960197 0.24789429 -0.23343158 0
0.041585922 0.3315239 -0.19552517 0
-0.017875671 0.42780495 -0.17796636 0
0.017196655 0.42998505 -0.19510174 0
0.79265404 -0.49542427 -0.48997283 0
-0.17547798 -0.47278023 -0.36499095 0
-0.073698044 -0.47960472 -0.37966275 0
0.028852463 -0.46502876 -0.38934517 0
0.12732506 -0.47616196 -0.39967275 0
0.22979355 -0.45830154 -0.41468 0
0.33373451 -0.4277401 -0.42733097 0
0.44745827 -0.43193245 -0.44853354 0
0.5325737 -0.44499779 -0.45257044 0
0.61130524 -0.43195152 -0.46935439 0
0.68109894 -0.38951302 -0.47688651 0
0.80855179 -0.42222786 -0.49247956 0
0.94815826 -0.39068031 -0.50611258 0
-0.15452003 -0.38959312 -0.36488652 0
-0.082586288 -0.39697456 -0.37360525 0
0.0009803772 -0.36800194 -0.38479185 0
0.11808777 -0.37118721 -0.40059328 0
0.25100327 -0.36584282 -0.41710305 0
0.28817368 -0.33806229 -0.39681149 0
0.39818382 -0.37758255 -0.42465782 0
0.56707573 -0.3133812 -0.4617126 0
0.68397331 -0.31404877 -0.47182465 0
0.82714653 -0.32226372 -0.49537635 0
0.9730587 -0.27771568 -0.51310968 0
-0.14397812 -0.33276939 -0.36373329 0
-0.10421562 -0.28657532 -0.37159395 0
0.0032310486 -0.24792671 -0.3886776 0
0.096326828 -0.26651955 -0.39557958 0
0.20246315 -0.25359154 -0.40706372 0
0.27669907 -0.25924873 -0.39955997 0
0.69619179 -0.22561264 -0.47335124 0
0.83844376 -0.22581482 -0.49569917 0
0.84374619 -0.15988541 -0.49541497 0
0.98162842 -0.19189262 -0.51457524 0
-0.10923004 -0.19037819 -0.37179446 0
-0.0099601746 -0.16954422 -0.3867228 0
0.087610245 -0.14922333 -0.39986229 0
0.21121979 -0.16910744 -0.39128065 0
0.70924568 -0.13916206 -0.47669196 0
0.88845444 -0.085870743 -0.49462724 0
0.95700455 -0.12531471 -0.50328779 0
-0.10443115 -0.10564423 -0.36907792 0
-0.013782501 -0.070604324 -0.38072133 0
0.082935333 -0.077238083 -0.39698195 0
0.17640305 -0.067977905 -0.38000274 0
0.28761864 -0.023363113 -0.41767454 0
0.81802559 -0.023023605 -0.48557949 0
0.91318512 0.00050354004 -0.487221 0
-0.098892212 0.005361557 -0.36836028 0
-0.025007248 0.031366348 -0.37792301 0
0.080533981 0.052570343 -0.39426565 0
0.168787 0.03017807 -0.39886308 0
0.29846382 0.075437546 -0.42243242 0
0.78561211 0.042812347 -0.47268391 0
0.89955711 0.098016739 -0.48505306 0
0.97754478 0.10338402 -0.47983527 0
-0.094945908 0.090089798 -0.36933565 0
-0.032323837 0.13315201 -0.38070679 0
0.056409836 0.12814331 -0.39127135 0
0.17151451 0.13671494 -0.39621663 0
0.26707077 0.15770531 -0.41908479 0
0.38181877 0.16354752 -0.43130612 0
0.8749752 0.18480301 -0.47789907 0
0.95619392 0.19729614 -0.47537494 0
-0.09054184 0.21773338 -0.37271023 0
-0.02604866 0.22579384 -0.38716006 0
0.065368652 0.21773338 -0.38821363 0
0.17473412 0.23116684 -0.40621901 0
0.27280426 0.23478508 -0.41332316 0
0.36118507 0.26174355 -0.42438102 0
0.44594955 0.25228882 -0.43063045 0
0.95020485 0.28785706 -0.47598839 0
-0.1074276 0.31913948 -0.36793351 0
-0.041021347 0.32005119 -0.37472582 0
0.059892654 0.32802582 -0.38770866 0
0.14806747 0.32592773 -0.40107703 0
0.25503349 0.33406067 -0.40871596 0
0.34697533 0.37734985 -0.42241311 0
0.43745995 0.35461807 -0.43092084 0
0.50661278 0.40661812 -0.43440652 0
0.99270821 0.42129517 -0.46210337 0
-0.13768768 0.42720795 -0.35910368 0
-0.059751511 0.429842 -0.36545873 0
0.048849106 0.42823029 -0.38476014 0
0.14600372 0.42316055 -0.39252257 0
0.23829842 0.45944786 -0.40004349 0
0.34333611 0.45081711 -0.40920806 0
0.45471191 0.45019341 -0.42362094 0
0.27812576 -0.21888733 -0.35361886 0
0.23594284 -0.16158295 -0.34624267 0
0.19494247 -0.056932449 -0.32544374 0
0.26045609 -0.09104538 -0.34928012 0
0.12373924 0.04255867 -0.31211877 0
0.17883301 0.039712906 -0.29823303 0
0.10818291 0.14074898 -0.27610397 0
0.15885353 0.12600136 -0.27582741 0
0.077692032 0.22120285 -0.26656461 0
0.022354126 0.30600548 -0.23779607 0
0.085248947 0.32884979 -0.27606368 0
0.96035004 0.43789673 -0.43304968 0
-0.016799927 0.42528725 -0.22606301 0
0.043996811 0.42505455 -0.2495482 0
0.073226929 0.23715401 -0.21726513 0
-0.010915756 0.36301422 -0.19956779 0
0.050645828 0.32756996 -0.2097652 0
-0.0056381226 0.4252243 -0.17924571 0
0.028808594 0.43104935 -0.16808319 0
0.62174225 -0.48968697 -0.47080398 0
-0.2399292 -0.48188782 -0.35283685 0
-0.14667511 -0.48210335 -0.36700535 0
-0.038421631 -0.47329521 -0.38186479 0
0.052158356 -0.48316002 -0.39296603 0
0.15629005 -0.46512222 -0.40770841 0
0.26140404 -0.44117165 -0.4189682 0
0.36428833 -0.44199753 -0.43418622 0
0.48695374 -0.45451355 -0.44919324 0
0.63596344 -0.42315483 -0.47282529 0
0.78198242 -0.40039825 -0.49187183 0
0.91144562 -0.40721893 -0.50282264 0
-0.31997681 -0.388731 -0.3464148 0
-0.25227165 -0.39230537 -0.35141277 0
-0.15342903 -0.38749504 -0.36625123 0
-0.065563202 -0.37227631 -0.37491703 0
0.054178238 -0.36038208 -0.39079833 0
0.17430115 -0.35890388 -0.40647316 0
0.28087807 -0.34055328 -0.40897942 0
0.35660362 -0.347332 -0.41437936 0
0.50429726 -0.38352966 -0.45303321 0
0.63920784 -0.34300995 -0.46733141 0
0.79176331 -0.30941582 -0.49047899 0
0.91591644 -0.31674767 -0.49861383 0
-0.31500435 -0.34135437 -0.34248614 0
-0.26225471 -0.29177856 -0.35205221 0
-0.14982033 -0.27341652 -0.36551094 0
-0.067403793 -0.25065041 -0.37729096 0
0.0015258789 -0.26299667 -0.38327551 0
0.12925529 -0.26788902 -0.40189004 0
0.24499512 -0.23795128 -0.39055061 0
0.28548241 -0.23442078 -0.42317128 0
0.65794182 -0.24191093 -0.47176909 0
0.79850578 -0.21338844 -0.48861527 0
0.94569016 -0.20607948 -0.51034713 0
-0.27127266 -0.21542358 -0.34820437 0
-0.18004799 -0.1937294 -0.36191511 0
-0.054359436 -0.16095924 -0.37866116 0
0.019775391 -0.16126442 -0.38728023 0
0.10958672 -0.17552757 -0.39874458 0
0.21859741 -0.14372063 -0.386518 0
0.80523109 -0.10371971 -0.4899044 0
0.92805672 -0.092823029 -0.50327468 0
-0.2697258 -0.107481 -0.3506515 0
-0.15938377 -0.098012924 -0.365031 0
-0.0891819 -0.10826302 -0.37264347 0
0.012741089 -0.066772461 -0.39019895 0
0.12748528 -0.071531296 -0.38850975 0
0.20944977 -0.054380417 -0.39996839 0
0.32309723 -0.0074138641 -0.4279151 0
0.78379822 -0.031862259 -0.48182869 0
0.90211868 -0.0094738007 -0.49447036 0
-0.25786972 -0.0031795502 -0.35336637 0
-0.1729126 0.0025100708 -0.36348581 0
-0.075284958 0.0024547577 -0.37682557 0
0.02649498 0.032777786 -0.39245963 0
0.10898972 0.019823074 -0.39190412 0
0.21657372 0.033294678 -0.40250611 0
0.31404686 0.065128326 -0.42279935 0
0.85619354 0.079090118 -0.47755766 0
0.89517784 0.059673309 -0.49429989 0
0.98026085 0.09850502 -0.4837625 0
-0.25559998 0.11174965 -0.35319185 0
-0.18427658 0.10817909 -0.36201453 0
-0.10300064 0.10403252 -0.36857295 0
0.0097999573 0.124897 -0.38749266 0
0.13353157 0.11031532 -0.40428686 0
0.21160889 0.15873718 -0.40961623 0
0.29499435 0.14095879 -0.41477466 0
0.40115547 0.15849686 -0.43317986 0
0.93852043 0.20631027 -0.4711225 0
-0.26818275 0.19593239 -0.34754825 0
-0.18455887 0.19383812 -0.36251473 0
-0.09936142 0.21414566 -0.37160349 0
-0.0025558472 0.2429924 -0.3859899 0
0.11882973 0.22971535 -0.39934134 0
0.17639542 0.22842598 -0.41082811 0
0.29141235 0.24970627 -0.41647172 0
0.38659477 0.24832726 -0.42907929 0
-0.27274513 0.3035202 -0.34844923 0
-0.204916 0.30397987 -0.35582542 0
-0.0944767 0.32315254 -0.36855888 0
-0.0038642883 0.32424164 -0.37586832 0
0.10025215 0.32831764 -0.39420176 0
0.18664169 0.33661652 -0.40383339 0
0.26440811 0.34959984 -0.40802407 0
0.36059761 0.35752487 -0.42164254 0
0.46967125 0.36221886 -0.43274593 0
0.97434235 0.3886776 -0.45281553 0
-0.3033371 0.40754509 -0.33915186 0
-0.22742081 0.40780449 -0.35007143 0
-0.12821579 0.41491127 -0.3599968 0
-0.019016266 0.43397713 -0.3741138 0
0.064079285 0.4108429 -0.38162351 0
0.15876007 0.46103096 -0.39731884 0
0.28279877 0.44483185 -0.40616989 0
0.43655205 0.47709656 -0.42409515 0
0.54320908 0.47171402 -0.43179798 0
0.24228859 -0.11758995 -0.3422718 0
0.21081543 -0.046228409 -0.33095455 0
0.14175034 0.046865463 -0.3133142 0
0.20930862 0.037250519 -0.32134247 0
0.11500549 0.12946701 -0.27557445 0
0.05525589 0.21278954 -0.24008155 0
0.093906403 0.22320747 -0.27459002 0
0.026231766 0.34032822 -0.23471355 0
0.075958252 0.31591034 -0.26812553 0
-0.010192871 0.4224205 -0.22380185 0
0.1099205 0.15125275 -0.238446 0
0.051574707 0.25738335 -0.20889974 0
0.098983765 0.22829628 -0.22686005 0
0.032007217 0.34397125 -0.20320702 0
-0.068040848 0.4290123 -0.1831255 0
-0.004360199 0.4054203 -0.17509437 0
0.88406372 -0.49596405 -0.49511337 0
-0.25453186 -0.47085571 -0.35293698 0
0.06312561 -0.46263123 -0.39021659 0
0.16068268 -0.47149658 -0.4025259 0
0.28514099 -0.48283958 -0.41804647 0
0.43299484 -0.45345116 -0.44069362 0
0.57068825 -0.44633675 -0.45532656 0
0.69585228 -0.46064758 -0.46351457 0
0.90416145 -0.39927483 -0.49992633 0
-0.52861023 -0.42086983 -0.3135457 0
-0.44521141 -0.41288185 -0.32823706 0
-0.37397003 -0.40024948 -0.33306026 0
-0.28074837 -0.42174721 -0.34583449 0
-0.17629242 -0.3544693 -0.35937166 0
-0.10588074 -0.36850739 -0.3744328 0
0.019306183 -0.36489677 -0.38700724 0
0.13576126 -0.35442352 -0.4001987 0
0.22946167 -0.32508469 -0.4064405 0
0.29911423 -0.35087013 -0.41036391 0
0.40057373 -0.35787201 -0.4277041 0
0.60027885 -0.34299469 -0.46555829 0
0.72995377 -0.34983635 -0.47667146 0
0.92372894 -0.30198669 -0.50566769 0
-0.5204525 -0.36827087 -0.31126261 0
-0.46512413 -0.3272419 -0.32365155 0
-0.37258148 -0.28227425 -0.33653498 0
-0.27775383 -0.31155777 -0.34557629 0
-0.18608856 -0.26513481 -0.36071563 0
-0.084980011 -0.2523632 -0.37685871 0
-0.0012187958 -0.2701416 -0.38306737 0
0.092861176 -0.26165199 -0.39078951 0
0.22625542 -0.25805092 -0.40040278 0
0.61574745 -0.27702713 -0.47056055 0
0.75425148 -0.24549866 -0.48510861 0
0.76679039 -0.18367004 -0.48953295 0
0.9355011 -0.18126488 -0.50731921 0
-0.47168159 -0.20402145 -0.3263793 0
-0.40522575 -0.21360207 -0.3322525 0
-0.28126526 -0.19011116 -0.34879327 0
-0.17363167 -0.1730423 -0.36191726 0
-0.093820572 -0.18587303 -0.36719728 0
0.0049266815 -0.16020203 -0.38027573 0
0.11351585 -0.14228058 -0.39673328 0
0.21968269 -0.1756134 -0.38108611 0
0.74400711 -0.16650581 -0.47572851 0
0.88794327 -0.097507477 -0.48729348 0
-0.46772766 -0.12049103 -0.3232646 0
-0.374897 -0.12521172 -0.33349991 0
-0.26563454 -0.088935852 -0.34766412 0
-0.17771339 -0.096740723 -0.35617208 0
-0.056552887 -0.045692444 -0.38284135 0
0.037395477 -0.036283493 -0.39423251 0
0.13453865 -0.060997009 -0.38653827 0
0.21434784 -0.072769165 -0.4088285 0
0.86399078 0.003616333 -0.48133659 0
0.99726677 0.0087947845 -0.48620176 0
-0.46403122 -0.012439728 -0.32161307 0
-0.392313 -0.0037097931 -0.33035684 0
-0.29623604 -0.0080032349 -0.34452868 0
-0.19080162 0.016710281 -0.35446739 0
-0.075748444 -0.00087547302 -0.37130523 0
0.01625061 0.010147095 -0.38196397 0
0.11642456 0.042718887 -0.3943665 0
0.21988297 0.03544426 -0.40310311 0
0.34095764 0.027732849 -0.42427206 0
0.98187065 0.12459373 -0.48594117 0
-0.46709824 0.095809937 -0.31906939 0
-0.39087105 0.09570694 -0.33041549 0
-0.31706619 0.095048904 -0.34024358 0
-0.21254921 0.10067177 -0.35329366 0
-0.081159592 0.092647552 -0.36801243 0
0.027578354 0.12952042 -0.38748384 0
0.11878204 0.16108513 -0.39647126 0
0.21576309 0.13737297 -0.40890956 0
0.32752609 0.15651512 -0.4207623 0
0.44953537 0.1879673 -0.43557549 0
0.95542526 0.17987823 -0.4780221 0
-0.45934486 0.19407654 -0.32406354 0
-0.37874794 0.20407295 -0.33758879 0
-0.32764053 0.19318008 -0.33614588 0
-0.22342491 0.20379448 -0.35107064 0
-0.11421776 0.21421242 -0.36671758 0
0.011814117 0.22874069 -0.38202167 0
0.11314392 0.23976517 -0.39632583 0
0.19283104 0.24474716 -0.40177774 0
0.30095482 0.27256012 -0.41269279 0
0.39773178 0.27458191 -0.41537523 0
0.43616295 0.26207161 -0.43227172 0
-0.47067451 0.26969528 -0.32069468 0
-0.39019394 0.30410194 -0.3349297 0
-0.30898094 0.29045486 -0.33909035 0
-0.21310997 0.30330086 -0.35465455 0
-0.11000824 0.30836487 -0.35986328 0
-0.017463684 0.3483181 -0.37352777 0
0.091901779 0.32267761 -0.38995457 0
0.16884232 0.36603165 -0.39615965 0
0.27636337 0.33306122 -0.40430355 0
0.39315605 0.37148094 -0.41812849 0
0.50422668 0.36691093 -0.42549181 0
-0.48900414 0.38075256 -0.31705165 0
-0.41540909 0.41863441 -0.3286109 0
-0.31002998 0.40135574 -0.33969688 0
-0.21813583 0.40499306 -0.35095692 0
-0.13773155 0.42860222 -0.35362172 0
-0.016765594 0.40490532 -0.37660813 0
0.050312042 0.40819359 -0.37556362 0
0.13749123 0.4389534 -0.38617897 0
0.25899887 0.43460846 -0.40204 0
0.35327148 0.44511414 -0.40481973 0
0.48397446 0.47272873 -0.42279172 0
-0.44285011 0.4887352 -0.32070899 0
0.28316498 -0.21923637 -0.35676527 0
0.2173748 -0.15442467 -0.33931398 0
0.13661957 -0.056081772 -0.32594275 0
0.19473267 -0.059801102 -0.32544899 0
0.12882996 0.036125183 -0.29722047 0
0.19739914 0.031232834 -0.30665565 0
0.11288071 0.12290955 -0.28099275 0
0.046289444 0.26763725 -0.2546885 0
0.08581543 0.21989822 -0.26765251 0
0.02820015 0.31481552 -0.22673678 0
0.078990936 0.31381226 -0.26683736 0
0.031234741 0.38821793 -0.23347378 0
0.071313858 0.41865921 -0.26813531 0
0.98097801 0.46720314 -0.42508602 0
0.099651337 0.16664124 -0.22024441 0
0.097194672 0.24393654 -0.22477341 0
0.024511337 0.32567787 -0.19301963 0
0.065191269 0.29727364 -0.20331168 0
-0.057756424 0.44973564 -0.20088339 0
-0.0071964264 0.42027283 -0.18369222 0
0.9104023 -0.48665428 -0.50389957 0
-0.41201591 -0.49697685 -0.33388472 0
-0.21569252 -0.48839951 -0.36056852 0
-0.11064529 -0.47476578 -0.37319684 0
-0.020212173 -0.49589539 -0.38195324 0
0.13430786 -0.46407127 -0.41328526 0
0.25364685 -0.46032524 -0.41949821 0
0.39453697 -0.46059608 -0.43715811 0
0.54894066 -0.41300774 -0.4591527 0
0.72021484 -0.45079422 -0.4799149 0
0.92995834 -0.38528442 -0.50886536 0
-0.70621681 -0.43972015 -0.29443645 0
-0.62343407 -0.42300797 -0.30737996 0
-0.55149078 -0.41940498 -0.31412005 0
-0.43980789 -0.42096901 -0.33064675 0
-0.33780861 -0.39187431 -0.34482718 0
-0.20988464 -0.41073036 -0.35494161 0
-0.058641434 -0.35591698 -0.37768054 0
0.020399094 -0.37405777 -0.39626026 0
0.14712524 -0.35856056 -0.41124797 0
0.27561378 -0.35448265 -0.41475868 0
0.34075546 -0.34559822 -0.4033463 0
0.74725914 -0.31928062 -0.48771119 0
0.94883919 -0.2864418 -0.51476002 0
-0.68774605 -0.37265015 -0.29760051 0
-0.63651085 -0.31527901 -0.30530596 0
-0.51361847 -0.30578041 -0.3263793 0
-0.45411873 -0.33734512 -0.32832813 0
-0.37070847 -0.29498863 -0.33826828 0
-0.24374199 -0.31526947 -0.35756707 0
-0.067497253 -0.27018738 -0.38185692 0
0.035209656 -0.25112152 -0.39586639 0
0.15892601 -0.24827576 -0.41075611 0
0.25339127 -0.25997543 -0.39108872 0
0.73407555 -0.24102211 -0.47619343 0
0.97027397 -0.17146683 -0.52236414 0
-0.66101646 -0.21485329 -0.29944301 0
-0.54824638 -0.21753693 -0.31923079 0
-0.43900871 -0.19959641 -0.33592772 0
-0.36849785 -0.21507454 -0.3340292 0
-0.26107597 -0.18923378 -0.353688 0
-0.16434288 -0.20092392 -0.3674531 0
-0.066503525 -0.18084908 -0.37749052 0
0.0417099 -0.16369057 -0.395329 0
0.16386795 -0.15180588 -0.39847612 0
0.22268105 -0.16275406 -0.38303161 0
0.93210411 -0.099063873 -0.50730777 0
-0.64896393 -0.13023376 -0.30171371 0
-0.56227684 -0.10568619 -0.31818652 0
-0.47146225 -0.11480904 -0.32692337 0
-0.3396225 -0.10943604 -0.34597397 0
-0.26481819 -0.11085892 -0.34826803 0
-0.15714836 -0.098991394 -0.36728525 0
-0.052103043 -0.067552567 -0.38173985 0
0.043804169 -0.06088829 -0.39323616 0
0.17302132 -0.066329956 -0.38496161 0
0.21481514 -0.055147171 -0.39746857 0
0.88022804 -0.021709442 -0.48835897 0
-0.63693237 -0.025957108 -0.30517769 0
-0.55121613 0.0021038055 -0.32116628 0
-0.45264435 -0.0092754364 -0.3260262 0
-0.35339165 -0.026359558 -0.3441484 0
-0.25991249 -0.0096511841 -0.34895539 0
-0.15585518 -0.001739502 -0.36606097 0
-0.052700043 0.037919998 -0.3800602 0
0.052549362 0.037643433 -0.39659786 0
0.16834831 0.043066025 -0.40805221 0
0.30267334 0.04262352 -0.42639732 0
0.95265198 0.11995125 -0.47127104 0
-0.64468956 0.074882507 -0.30021405 0
-0.55910873 0.091407776 -0.31638789 0
-0.46208382 0.084346771 -0.32657456 0
-0.34057426 0.09106636 -0.34247184 0
-0.23945808 0.11794853 -0.35926056 0
-0.14328003 0.12110138 -0.3722496 0
-0.044384003 0.12202454 -0.38449407 0
0.046628952 0.11868095 -0.39357638 0
0.16111183 0.13801193 -0.37957621 0
0.17070389 0.14293861 -0.41013455 0
0.29844666 0.15198898 -0.42667818 0
0.41053009 0.16848373 -0.43433976 0
-0.65349388 0.16837883 -0.29703975 0
-0.57916451 0.18172836 -0.31621623 0
-0.4795723 0.19145393 -0.33012938 0
-0.38186264 0.19519043 -0.33994937 0
-0.25831032 0.19837761 -0.35107923 0
-0.15424156 0.21492386 -0.3682313 0
-0.065567017 0.22805023 -0.37608504 0
0.032564163 0.20251656 -0.38871193 0
0.15828133 0.25365067 -0.4083457 0
0.25909424 0.22473907 -0.41124678 0
0.29048538 0.2091713 -0.42504311 0
0.3736248 0.25498199 -0.42118955 0
0.51625252 0.26587296 -0.4430306 0
-0.64739227 0.26824379 -0.30292988 0
-0.57006073 0.27792168 -0.31483769 0
