# .PCD v0.7 - Point Cloud Data file format
VERSION 0.7
FIELDS x y z intensity
SIZE 4 4 4 4
TYPE F F F F
COUNT 1 1 1 1
WIDTH 1292
HEIGHT 1
VIEWPOINT 0 0 0 1 0 0 0
POINTS 1292
DATA ascii
0.50398719 0.22240391 -0.3334128 0
0.82613617 0.19566524 -0.36881056 0
0.92365772 0.22259688 -0.37006307 0
0.50853771 0.29764444 -0.35576332 0
0.56672823 0.32611072 -0.33249727 0
0.81819922 0.28276712 -0.36039597 0
0.91397274 0.30920064 -0.36045054 0
0.50786692 0.41453528 -0.34654465 0
0.5981015 0.42267835 -0.34404838 0
0.69812989 0.41954678 -0.34554213 0
0.79573774 0.42309606 -0.34489071 0
0.89873457 0.37406474 -0.34987521 0
0.99027234 0.41297519 -0.34548503 0
0.27453551 -0.18276289 -0.34018171 0
0.39938021 -0.0118981 -0.33492458 0
0.52514756 0.14517552 -0.31369251 0
0.52329671 0.19287512 -0.31023952 0
0.57650173 0.2727094 -0.29814202 0
0.32743433 -0.46628916 -0.444269 0
0.44110453 -0.49710709 -0.46051744 0
0.55748767 -0.49766889 -0.45951462 0
0.64073545 -0.47377542 -0.45861951 0
0.73649973 -0.46687663 -0.4595221 0
0.83270609 -0.47093105 -0.45562851 0
0.93220025 -0.4934848 -0.45439741 0
0.18864988 -0.33637393 -0.38216195 0
0.25989234 -0.37408921 -0.40692389 0
0.41183585 -0.36883065 -0.41971567 0
0.54784274 -0.39084113 -0.44829667 0
0.65976149 -0.36905482 -0.44384128 0
0.7513417 -0.37720031 -0.44276023 0
0.85264492 -0.34831011 -0.44014025 0
0.95657808 -0.3529399 -0.44816804 0
0.18856721 -0.30093607 -0.38831225 0
0.23738512 -0.27594167 -0.38731879 0
0.44622934 -0.28150496 -0.40931341 0
0.55252922 -0.31575629 -0.43928978 0
0.63442814 -0.27312696 -0.43257299 0
0.76614499 -0.25854951 -0.42765194 0
0.86261255 -0.26246768 -0.42966452 0
0.96530068 -0.25545144 -0.42903954 0
0.26575983 -0.1787557 -0.37605786 0
0.63351524 -0.19394374 -0.42144191 0
0.77655482 -0.15904063 -0.42000085 0
0.8714729 -0.16949621 -0.42079923 0
0.97155035 -0.17741492 -0.42027035 0
0.28806254 -0.11067021 -0.38289854 0
0.32444423 -0.063505873 -0.36621052 0
0.39578176 -0.050623804 -0.34568068 0
0.64941221 -0.084849328 -0.41145632 0
0.75885558 -0.057167798 -0.40921891 0
0.87514609 -0.083833635 -0.40994748 0
0.97099262 -0.08431673 -0.40278041 0
0.35195041 0.023655474 -0.35927925 0
0.39772308 0.040092736 -0.34464681 0
0.68472004 0.0053612888 -0.39625517 0
0.77787161 0.0082984567 -0.39626372 0
0.87552726 0.015614808 -0.39757329 0
0.97581124 0.031446636 -0.39420909 0
0.3739123 0.092790961 -0.37758473 0
0.42035905 0.1056855 -0.34585685 0
0.77594346 0.094292015 -0.38682222 0
0.86641544 0.092086077 -0.38228515 0
0.97545093 0.1352163 -0.38479614 0
0.37370768 0.21450928 -0.37360203 0
0.45831844 0.21550924 -0.35427177 0
0.50786662 0.22465736 -0.32618079 0
0.76881522 0.19340849 -0.374607 0
0.85995024 0.20706606 -0.37030625 0
0.96745968 0.21280158 -0.3735652 0
0.35447532 0.30829239 -0.35929018 0
0.42321369 0.30853146 -0.35609686 0
0.53309172 0.30557224 -0.3354075 0
0.8501063 0.3299216 -0.35868606 0
0.95458472 0.3163901 -0.36014929 0
0.33886477 0.38908097 -0.34983632 0
0.44575351 0.42074844 -0.34632483 0
0.56185567 0.42461187 -0.34645766 0
0.62032771 0.37048018 -0.32418287 0
0.7241264 0.42608947 -0.34056258 0
0.82122427 0.4131099 -0.34022003 0
0.93427038 0.41187871 -0.34524637 0
0.22297585 -0.30594507 -0.36972582 0
0.25436312 -0.18745174 -0.35332352 0
0.27720764 -0.12266631 -0.34554738 0
0.29584664 -0.085118294 -0.34196699 0
0.43381989 0.046165228 -0.3243978 0
0.45251346 0.090416551 -0.3231864 0
0.25473168 -0.47130698 -0.44645825 0
0.3451345 -0.44786155 -0.43115899 0
0.45955104 -0.47531259 -0.45630226 0
0.55481291 -0.46555099 -0.4576906 0
0.64597028 -0.49225831 -0.45601189 0
0.7521078 -0.47491291 -0.45748428 0
0.84979606 -0.48026553 -0.45342731 0
0.18123408 -0.38591745 -0.43336731 0
0.23367135 -0.38402766 -0.40559348 0
0.38041985 -0.37254992 -0.41836378 0
0.57169354 -0.37292826 -0.44486791 0
0.66222799 -0.40046281 -0.44214714 0
0.76614273 -0.38848594 -0.4424473 0
0.86786532 -0.36739358 -0.44004399 0
0.99073768 -0.39361331 -0.44652575 0
0.19457096 -0.28552625 -0.40215659 0
0.32787141 -0.30844128 -0.39132112 0
0.58538079 -0.26724386 -0.4298012 0
0.67918169 -0.2802842 -0.4308244 0
0.78080004 -0.27614757 -0.42952597 0
0.87798351 -0.28108132 -0.42908296 0
0.20498516 -0.19620109 -0.41279706 0
0.25977844 -0.17424718 -0.38360348 0
0.59339726 -0.17092758 -0.41794604 0
0.68633914 -0.17321062 -0.41397187 0
0.79027021 -0.16625684 -0.41685182 0
0.88870418 -0.17541316 -0.41956466 0
0.20851703 -0.093314141 -0.40831015 0
0.29248106 -0.08878839 -0.38430157 0
0.34624732 -0.064185187 -0.35777479 0
0.68790734 -0.085572809 -0.40056306 0
0.78826487 -0.11280662 -0.40374219 0
0.89057529 -0.094584852 -0.40663218 0
0.20772593 0.012584239 -0.39369288 0
0.28684759 0.026278377 -0.39817551 0
0.34424993 0.00083607435 -0.36111414 0
0.68803048 -0.025882512 -0.39295602 0
0.79489732 0.026035309 -0.39366332 0
0.89109057 0.016688228 -0.39265391 0
0.19926441 0.11850815 -0.37813455 0
0.27815458 0.1095008 -0.38363847 0
0.38765797 0.11051211 -0.36598244 0
0.44194648 0.12499934 -0.33671016 0
0.79124016 0.089757115 -0.38384584 0
0.88325924 0.10354286 -0.37728232 0
0.19089818 0.20594752 -0.36797106 0
0.26080176 0.22260454 -0.36514667 0
0.35726205 0.2125096 -0.36779773 0
0.47645321 0.20784655 -0.34100258 0
0.52705646 0.23612133 -0.31031191 0
0.79023284 0.19071221 -0.3752625 0
0.88245547 0.22540075 -0.36863685 0
0.18304095 0.30488265 -0.36015773 0
0.24770644 0.3099921 -0.35468742 0
0.38141906 0.30261672 -0.35957336 0
0.47913226 0.30673656 -0.35618627 0
0.5577125 0.31731367 -0.32534921 0
0.8722558 0.3189829 -0.35714611 0
0.99598944 0.32115042 -0.3553198 0
0.15255347 0.41936907 -0.34284905 0
0.26893038 0.41223064 -0.34446186 0
0.36720464 0.41864175 -0.34560704 0
0.46371007 0.40248361 -0.34516987 0
0.55571908 0.42272484 -0.34372702 0
0.64406919 0.41459799 -0.33906573 0
0.7582199 0.42339945 -0.34491563 0
0.84697902 0.41717029 -0.33884227 0
0.9757688 0.42472929 -0.33953238 0
0.44127917 0.48955095 -0.33294362 0
0.53678 0.49516249 -0.33310044 0
0.2530005 -0.25086719 -0.36304426 0
0.25378215 -0.19940856 -0.34545562 0
0.34350529 0.0079512745 -0.32815993 0
0.44044107 0.0082830191 -0.33085468 0
0.44202095 0.071961761 -0.32271898 0
0.50540006 0.1693334 -0.3087146 0
-0.030557975 -0.4746328 -0.45494023 0
0.20240556 -0.4569191 -0.45452154 0
0.34964734 -0.49150968 -0.43846324 0
0.94052756 -0.46464685 -0.45155573 0
-0.013472617 -0.3951534 -0.44108173 0
0.059516415 -0.4046115 -0.44808066 0
0.17372677 -0.39216244 -0.43631938 0
0.25026521 -0.42243966 -0.41394591 0
0.37369645 -0.39311725 -0.41896182 0
0.58516252 -0.40659606 -0.44606325 0
0.69127256 -0.37041092 -0.44561341 0
0.81451231 -0.39385605 -0.44295892 0
0.95272517 -0.37010363 -0.43846309 0
4.2155385e-05 -0.30457652 -0.42835495 0
0.078611188 -0.28608245 -0.43270284 0
0.18229851 -0.29691634 -0.41062114 0
0.28583628 -0.33201948 -0.39843932 0
0.59981954 -0.28463507 -0.43014279 0
0.69506228 -0.3050473 -0.42695141 0
0.82083333 -0.33377072 -0.43303594 0
0.83205324 -0.25073001 -0.42959133 0
0.96822512 -0.25335038 -0.43211919 0
0.013919678 -0.17852713 -0.41536123 0
0.08876045 -0.17569587 -0.41685244 0
0.15970699 -0.18829638 -0.41440111 0
0.24986583 -0.20352873 -0.39577147 0
0.70673466 -0.19138542 -0.41806543 0
0.83021331 -0.20049435 -0.41492754 0
0.96763998 -0.19543645 -0.41747937 0
0.017010093 -0.06989713 -0.40044731 0
0.054458849 -0.1137118 -0.40775451 0
0.1629042 -0.088083379 -0.4016355 0
0.28383714 -0.10347682 -0.39282155 0
0.34274113 -0.061175227 -0.36383611 0
0.61378419 -0.11198309 -0.41162622 0
0.70766509 -0.092884362 -0.40254244 0
0.82963872 -0.10166353 -0.39794254 0
0.9702369 -0.077609837 -0.40116513 0
0.016285695 -0.0025203004 -0.39208883 0
0.095899701 -0.0077900514 -0.39896885 0
0.16392627 0.0046622157 -0.39184609 0
0.273682 -0.0046250373 -0.39535436 0
0.35124016 -1.6957521e-05 -0.35806754 0
0.70788789 -0.0054638684 -0.39179093 0
0.83047771 0.00210163 -0.38695985 0
0.97132707 0.0042248964 -0.39237627 0
0.013003424 0.10863504 -0.38088146 0
0.088582143 0.097969696 -0.3829532 0
0.15518662 0.087206185 -0.37760168 0
0.25958121 0.090736538 -0.37901244 0
0.39927945 0.10377502 -0.36505479 0
0.44265956 0.11582923 -0.33791146 0
0.82631266 0.096391797 -0.37534124 0
0.96868134 0.075780809 -0.3831529 0
-0.00047340989 0.19146016 -0.36730233 0
0.077626914 0.19716294 -0.3697294 0
0.17910552 0.20002702 -0.36690268 0
0.3101491 0.17430711 -0.37302816 0
0.39709646 0.21471733 -0.36641401 0
0.48050427 0.20308763 -0.34181577 0
0.53639698 0.21832755 -0.3059082 0
0.82102907 0.16365993 -0.36671561 0
0.96516424 0.18641198 -0.37208971 0
-0.01222603 0.27993268 -0.35764921 0
0.059006959 0.31534928 -0.35505399 0
0.16511375 0.2901879 -0.3553367 0
0.29591119 0.28962389 -0.35910171 0
0.38322088 0.30640492 -0.35435972 0
0.47837013 0.28080454 -0.35362658 0
0.54448783 0.28693157 -0.32953724 0
0.94927144 0.29669154 -0.35506245 0
-0.030896828 0.38852704 -0.34622693 0
0.08077997 0.39693683 -0.34147584 0
0.1969133 0.38804078 -0.34527794 0
0.27456442 0.39380816 -0.34446412 0
0.36316156 0.39569962 -0.34105021 0
0.46767482 0.37612456 -0.34483641 0
0.57611895 0.41472125 -0.33953166 0
0.66704184 0.44011021 -0.34026253 0
0.79914361 0.40538287 -0.34279111 0
0.93272734 0.38486266 -0.34136143 0
-0.041224271 0.48680246 -0.33253372 0
0.056949466 0.49175572 -0.33347747 0
0.44107616 0.49701667 -0.32954466 0
0.93144727 0.46884841 -0.33847567 0
0.23269236 -0.31743604 -0.36420119 0
0.25294983 -0.21481591 -0.35262385 0
0.41894674 -0.00055256486 -0.32452112 0
-0.20437571 -0.48394006 -0.46444392 0
-0.096940577 -0.48431581 -0.46188045 0
0.021777093 -0.49455896 -0.46206763 0
0.10221013 -0.48328155 -0.4636772 0
0.21294573 -0.48757192 -0.45655701 0
0.30577698 -0.4901371 -0.45960417 0
0.7623117 -0.46541825 -0.45701709 0
0.90679419 -0.45549139 -0.45830977 0
-0.18565273 -0.39910334 -0.45131987 0
-0.10522991 -0.36423278 -0.44733873 0
-0.0033508986 -0.38640174 -0.45239568 0
0.1205253 -0.38146222 -0.4481065 0
0.2113442 -0.39207414 -0.43185979 0
0.26205221 -0.41448542 -0.41968456 0
0.39126799 -0.39139101 -0.42570263 0
0.63902324 -0.39256638 -0.45392004 0
0.77671039 -0.37009215 -0.44999957 0
0.9125129 -0.40948996 -0.4511756 0
-0.16620031 -0.28478229 -0.44077501 0
-0.095645219 -0.29140854 -0.43538728 0
0.016139127 -0.30232635 -0.43873432 0
0.13101646 -0.29902217 -0.43588662 0
0.20497081 -0.2938295 -0.41381928 0
0.32636142 -0.33665991 -0.40079683 0
0.648745 -0.29721725 -0.43801069 0
0.78627765 -0.27562475 -0.43814683 0
0.92831022 -0.27845672 -0.44018999 0
-0.1555831 -0.19792789 -0.43100557 0
-0.084141158 -0.19069695 -0.42581633 0
-0.013055854 -0.20047761 -0.42389256 0
0.10436231 -0.17542034 -0.42306408 0
0.23381862 -0.21233025 -0.40973887 0
0.27578956 -0.18609294 -0.38733464 0
0.64993703 -0.17752886 -0.41269538 0
0.65659082 -0.21472198 -0.42956424 0
0.79246652 -0.18259215 -0.42548114 0
0.92594922 -0.2077218 -0.41949967 0
-0.148799 -0.11040688 -0.42111972 0
-0.078925967 -0.10531589 -0.41605252 0
-0.0075818039 -0.089515984 -0.41072258 0
0.1031298 -0.090285495 -0.40658975 0
0.24039245 -0.093635619 -0.41471362 0
0.31518698 -0.082202807 -0.3853986 0
0.65864694 -0.094357669 -0.41053125 0
0.79242164 -0.096288621 -0.41098449 0
0.93252385 -0.08407411 -0.4080559 0
-0.15141185 0.0040041963 -0.4025256 0
-0.077820107 -0.00014681369 -0.40313727 0
-0.010165859 -0.011442222 -0.39848125 0
0.098115958 0.014130473 -0.39745232 0
0.23968732 0.0041225851 -0.40148616 0
0.3429099 0.00057865679 -0.38016859 0
0.37653011 -0.038482979 -0.34747365 0
0.79408008 0.038088083 -0.39659643 0
0.92995065 0.015589714 -0.39390326 0
-0.16241972 0.11599383 -0.38443461 0
-0.08958739 0.10471559 -0.3850742 0
-0.012415156 0.11499751 -0.38665542 0
0.10256451 0.13001098 -0.38572687 0
0.22916013 0.098458439 -0.3843337 0
0.33038726 0.10019016 -0.38835388 0
0.41161993 0.09525311 -0.35942614 0
0.78985512 0.10169506 -0.3870433 0
0.92698139 0.12334794 -0.38199764 0
-0.17218181 0.2205192 -0.37309021 0
-0.090231046 0.15882203 -0.38107219 0
0.0013081431 0.2082698 -0.37013805 0
0.12794979 0.21675739 -0.37189543 0
0.22447082 0.21818647 -0.37397137 0
0.32238933 0.20820522 -0.37571126 0
0.43164146 0.21152118 -0.37224603 0
0.5030489 0.21360153 -0.33738974 0
0.91789716 0.18914962 -0.37037989 0
-0.18454021 0.30905986 -0.36337459 0
-0.079789653 0.3034004 -0.36403188 0
0.018596411 0.30726215 -0.3611733 0
0.11554989 0.28762677 -0.36154133 0
0.21290466 0.29156548 -0.363691 0
0.3021816 0.31122446 -0.35861996 0
0.40957177 0.27352622 -0.36250523 0
0.51401329 0.28215417 -0.35537386 0
0.59208131 0.33780617 -0.33084169 0
0.91389829 0.28110963 -0.36279488 0
-0.18917629 0.39913785 -0.35033619 0
-0.10238014 0.3998754 -0.34937084 0
0.017561495 0.38277823 -0.34872562 0
0.10032925 0.39207882 -0.35099763 0
0.19454309 0.38061798 -0.35102314 0
0.28439516 0.41667432 -0.34613472 0
0.39535508 0.40207547 -0.35056105 0
0.49832028 0.39409679 -0.35213754 0
0.61145782 0.43620008 -0.34274912 0
0.75819826 0.39165646 -0.35002905 0
0.89091027 0.3802014 -0.34426299 0
-0.19960582 0.49071097 -0.3368609 0
-0.0030270219 0.4822289 -0.33807337 0
0.27553546 0.49175242 -0.34053007 0
0.47567713 0.49248195 -0.33803016 0
0.74171031 0.49793267 -0.3382462 0
0.24182203 -0.28612563 -0.37423459 0
0.23839089 -0.21661237 -0.36265686 0
0.28049561 -0.18722762 -0.34257814 0
0.3638781 -0.018315524 -0.33910102 0
0.48487028 0.10703373 -0.31971455 0
-0.27169776 -0.48382682 -0.46008795 0
-0.081602708 -0.4950583 -0.46261853 0
0.11218211 -0.47629994 -0.45291767 0
0.2219383 -0.47625828 -0.45066604 0
0.33187175 -0.47241396 -0.44258982 0
0.57488251 -0.47703111 -0.45688456 0
0.857831 -0.48171449 -0.45886406 0
-0.35950112 -0.37165526 -0.44682133 0
-0.26793537 -0.37645259 -0.44872054 0
-0.16265391 -0.38323835 -0.44726503 0
-0.058619291 -0.37634176 -0.44904977 0
0.033147581 -0.38677949 -0.45219642 0
0.1446003 -0.38027906 -0.44254637 0
0.23102897 -0.40030801 -0.43116054 0
0.59129399 -0.36068147 -0.44158861 0
0.72854137 -0.39361519 -0.44810683 0
0.87127012 -0.37893212 -0.444444 0
-0.34482896 -0.27955675 -0.43394962 0
-0.27019876 -0.26998109 -0.43390092 0
-0.16662298 -0.27688181 -0.43544039 0
-0.043029398 -0.26797041 -0.43482953 0
0.042300649 -0.31516388 -0.43747553 0
0.14021921 -0.29175514 -0.43355587 0
0.19908944 -0.29751173 -0.40255392 0
0.60201526 -0.25849199 -0.4296234 0
0.73887718 -0.26912454 -0.42684668 0
0.87681448 -0.31346783 -0.43293482 0
0.88419592 -0.24657685 -0.42811203 0
-0.33650571 -0.19142956 -0.42112643 0
-0.26198176 -0.16545844 -0.41775626 0
-0.18754445 -0.17872114 -0.4223201 0
-0.075654298 -0.17799672 -0.41916102 0
0.055760421 -0.18843323 -0.42334133 0
0.14875446 -0.19252905 -0.42046067 0
0.25529072 -0.1846848 -0.39903057 0
0.74898022 -0.14574242 -0.41513377 0
0.88380313 -0.21053088 -0.41919929 0
-0.32708699 -0.0571073 -0.40805921 0
-0.25986901 -0.056422547 -0.4019379 0
-0.17783552 -0.066314086 -0.41335979 0
-0.084241167 -0.077012137 -0.40600491 0
0.059417777 -0.081631266 -0.40798244 0
0.15443349 -0.082472883 -0.40802157 0
0.24873881 -0.12139811 -0.40551156 0
0.32043281 -0.078169718 -0.37387383 0
0.74827564 -0.083278418 -0.40435842 0
0.89269739 -0.079508871 -0.40840206 0
-0.32694411 0.027678706 -0.39789897 0
-0.25812763 0.042776588 -0.39290297 0
-0.18343607 -0.00758221 -0.39934182 0
-0.061187316 0.0084594302 -0.39830095 0
0.060198881 0.023393065 -0.3955861 0
0.14915004 -0.0095085651 -0.39305133 0
0.26114902 -0.002069816 -0.40321895 0
0.3504521 0.008782208 -0.36950758 0
0.429041 0.049880326 -0.33218175 0
0.75706941 0.03639707 -0.39853501 0
0.89269972 0.024729371 -0.3945426 0
-0.33500096 0.1112252 -0.38462391 0
-0.25820565 0.13033377 -0.38606489 0
-0.18739772 0.097923785 -0.38627025 0
-0.080690667 0.1013184 -0.38616571 0
0.055084705 0.11907075 -0.38305426 0
0.14717977 0.10953054 -0.38107499 0
0.25759909 0.10108794 -0.38932845 0
0.35021436 0.09963572 -0.38473508 0
0.43172157 0.1139974 -0.34788465 0
0.89122742 0.082673609 -0.38719183 0
-0.34926292 0.21498388 -0.36955479 0
-0.26957878 0.22977556 -0.37300661 0
-0.15459645 0.21721748 -0.37027961 0
-0.060656875 0.19248261 -0.37529933 0
0.044268563 0.2357358 -0.36846673 0
0.13822675 0.20586178 -0.36848509 0
0.24585077 0.18589297 -0.37372705 0
0.34257084 0.21566924 -0.37075147 0
0.46373615 0.22996145 -0.36233407 0
0.52287018 0.22317091 -0.31719515 0
0.88854492 0.20045453 -0.37540835 0
-0.36473075 0.31784192 -0.35773271 0
-0.29051751 0.30690411 -0.35790631 0
-0.19323051 0.30266038 -0.36226448 0
-0.057154045 0.30281115 -0.36056525 0
0.036957264 0.33381033 -0.35994965 0
0.12682304 0.32239917 -0.35650289 0
0.24182484 0.32973057 -0.36404121 0
0.32930741 0.31836614 -0.35718477 0
0.45759377 0.31585315 -0.35828558 0
0.53421247 0.28258017 -0.33948493 0
0.58221966 0.32707995 -0.3083306 0
-0.38628703 0.40994599 -0.34568053 0
-0.2634306 0.39817083 -0.35070747 0
-0.15525562 0.40613735 -0.34710604 0
-0.074615791 0.43379277 -0.34785822 0
0.022777915 0.40960574 -0.3500315 0
0.11210409 0.43548998 -0.34519339 0
0.2118637 0.41280487 -0.34377626 0
0.31927606 0.42418203 -0.3476845 0
0.43733659 0.41182545 -0.34279278 0
0.57232833 0.41420561 -0.34247592 0
0.60163164 0.39449006 -0.33273092 0
0.71910435 0.42293978 -0.34490293 0
0.85642302 0.41195381 -0.34202364 0
-0.37419844 0.49345118 -0.32831481 0
-0.27391431 0.48791462 -0.33899114 0
-0.001781106 0.48708069 -0.3361935 0
0.090055823 0.4980768 -0.33302981 0
0.30431974 0.48235127 -0.33826315 0
0.41482455 0.48909307 -0.32873166 0
0.70271397 0.48600692 -0.33360964 0
0.26332057 -0.16548856 -0.35254511 0
0.31569952 -0.15734711 -0.3545126 0
0.28813314 -0.13466354 -0.34255052 0
-0.55552649 -0.48864985 -0.45777208 0
-0.44956854 -0.49366319 -0.46176231 0
-0.33637324 -0.45970103 -0.4561874 0
-0.24740368 -0.485295 -0.45608529 0
-0.14828381 -0.46145576 -0.45896423 0
-0.049063653 -0.45423353 -0.45966476 0
0.049860671 -0.47678784 -0.46078822 0
0.15183322 -0.46937984 -0.45894736 0
0.28147072 -0.46341985 -0.46024591 0
0.32512051 -0.49396762 -0.43843061 0
0.55952263 -0.46930197 -0.45882562 0
0.6997996 -0.49838269 -0.46506 0
0.70364946 -0.46367082 -0.45546454 0
0.88051283 -0.49752185 -0.45841017 0
-0.53064883 -0.36830416 -0.44379935 0
-0.45792776 -0.3784292 -0.44696766 0
-0.35056597 -0.36652064 -0.44304085 0
-0.22844572 -0.38465896 -0.44945151 0
-0.13390659 -0.37007242 -0.44192261 0
-0.034956634 -0.36999679 -0.44900504 0
0.060632318 -0.40959984 -0.44674093 0
0.16771422 -0.36742401 -0.43495405 0
0.22955965 -0.38745207 -0.41782624 0
0.57436514 -0.36119363 -0.44696563 0
0.70981956 -0.40542066 -0.44511479 0
0.89403892 -0.39880157 -0.44975966 0
-0.51524734 -0.2725431 -0.4351711 0
-0.44194844 -0.27945384 -0.43724841 0
-0.34791294 -0.30437666 -0.43246555 0
-0.23407069 -0.28538281 -0.4363291 0
-0.11645932 -0.25367543 -0.43534118 0
-0.026609764 -0.29124123 -0.43470725 0
0.078147173 -0.28721365 -0.43792081 0
0.17905949 -0.29049322 -0.41505858 0
0.21272665 -0.27038327 -0.39599079 0
0.57639599 -0.31570494 -0.43521965 0
0.72407508 -0.27363113 -0.43239066 0
0.89933801 -0.32701713 -0.43649068 0
0.90350521 -0.26849198 -0.42866924 0
-0.5065285 -0.19968939 -0.42756429 0
-0.43403268 -0.17704827 -0.42082843 0
-0.35917604 -0.18154819 -0.42245859 0
-0.25649869 -0.21262604 -0.42242897 0
-0.11326432 -0.20456232 -0.42691383 0
-0.019108318 -0.17794482 -0.417918 0
0.085117057 -0.19213164 -0.42356128 0
0.1849203 -0.15069303 -0.41644487 0
0.263762 -0.17439997 -0.38141286 0
0.73204529 -0.15671283 -0.41950414 0
0.91068798 -0.17290661 -0.41999829 0
-0.50052989 -0.085815594 -0.41251159 0
-0.42639875 -0.043504715 -0.40680179 0
-0.35713965 -0.10730392 -0.41068026 0
-0.23126413 -0.095883481 -0.41315338 0
-0.1077401 -0.10255334 -0.41420403 0
-0.0073861703 -0.049581125 -0.41098273 0
0.091406919 -0.071886994 -0.41063297 0
0.18499532 -0.087228827 -0.40637121 0
0.29105911 -0.1170031 -0.38919714 0
0.31199503 -0.074495137 -0.37942103 0
0.73731858 -0.058867335 -0.41036925 0
0.91600204 -0.047014624 -0.40709016 0
-0.50481117 0.022046819 -0.39482808 0
-0.43093735 0.02382943 -0.39503148 0
-0.35401058 0.019490279 -0.39831245 0
-0.25551274 0.012201309 -0.39588073 0
-0.12600264 0.02245421 -0.39848128 0
-0.011921428 0.010401055 -0.39907929 0
0.097327128 0.04113178 -0.40240648 0
0.18560955 0.0039670914 -0.39624578 0
0.29704824 0.032946423 -0.37963864 0
0.34852523 0.01880306 -0.36596563 0
0.41489223 0.042204916 -0.33349562 0
0.73709422 -0.011038452 -0.40389007 0
0.9114818 0.029453039 -0.39328548 0
-0.5107401 0.1256216 -0.38241509 0
-0.4538576 0.10602525 -0.38981795 0
-0.36110759 0.11610118 -0.38427871 0
-0.25366735 0.11551119 -0.38455328 0
-0.12030588 0.12036538 -0.37935993 0
-0.015111558 0.10882892 -0.38715756 0
0.087112576 0.12082848 -0.38643956 0
0.17907178 0.10441242 -0.38152742 0
0.34475341 0.12116638 -0.37502187 0
0.43450388 0.1256066 -0.3449882 0
0.90605384 0.094212055 -0.38232863 0
-0.51865482 0.21116164 -0.37288192 0
-0.4426842 0.20271134 -0.37464175 0
-0.35272193 0.19893681 -0.37227178 0
-0.21167624 0.21028939 -0.37574333 0
-0.12346468 0.22517926 -0.37139538 0
-0.033812433 0.20414253 -0.36784193 0
0.076785579 0.22628389 -0.37175953 0
0.1736629 0.20855331 -0.37092808 0
0.30104476 0.25603154 -0.3684907 0
0.30866539 0.22284546 -0.37574857 0
0.46893984 0.21267042 -0.34985477 0
0.89679539 0.23202026 -0.36506441 0
0.90833443 0.21606982 -0.37494403 0
-0.53671813 0.300762 -0.35987386 0
-0.46427453 0.31086457 -0.35847288 0
-0.3473154 0.31521806 -0.35987899 0
-0.24945101 0.27886277 -0.36511251 0
-0.13548204 0.29820454 -0.36090025 0
-0.043426886 0.32748538 -0.35682344 0
0.070457727 0.32463282 -0.36346251 0
0.15983891 0.27768984 -0.35850984 0
0.28896722 0.30875331 -0.35814744 0
0.42714131 0.31033581 -0.35976097 0
0.55408758 0.31365892 -0.32538792 0
-0.54527879 0.42784178 -0.34454599 0
-0.43751943 0.41651976 -0.34713954 0
-0.33240065 0.39077628 -0.34558627 0
-0.24237046 0.38503152 -0.35162422 0
-0.14827652 0.41953495 -0.35066065 0
-0.051900893 0.39792705 -0.3502067 0
0.044311255 0.4291293 -0.34535044 0
0.14709476 0.41380078 -0.34683326 0
0.27452132 0.40162939 -0.34637636 0
0.4090862 0.42614973 -0.34459284 0
0.55377549 0.42261654 -0.34538388 0
0.69239336 0.41147578 -0.34209722 0
0.87725425 0.42507285 -0.34308267 0
-0.35014027 0.49508715 -0.33632368 0
-0.075787753 0.48729879 -0.33647579 0
0.2576777 0.48772663 -0.33527926 0
-0.72405291 -0.48965186 -0.45715714 0
-0.62069732 -0.49674594 -0.46153373 0
-0.50844634 -0.46146727 -0.45722967 0
-0.41625687 -0.48978519 -0.45638624 0
-0.31462342 -0.4557938 -0.45948195 0
-0.11658306 -0.47447509 -0.45920223 0
-0.013936505 -0.45874751 -0.45246029 0
0.11022867 -0.48266628 -0.45472932 0
0.28205326 -0.4907397 -0.44891346 0
0.5366872 -0.46326455 -0.45153207 0
0.71759295 -0.47721332 -0.45590255 0
0.91634679 -0.48056489 -0.4565053 0
-0.69812882 -0.36971548 -0.44748685 0
-0.62844187 -0.39407027 -0.44891462 0
-0.51664996 -0.36456245 -0.44746312 0
-0.39603126 -0.37471434 -0.44003344 0
-0.29905394 -0.36760613 -0.4467459 0
-0.2034093 -0.37283692 -0.44571936 0
-0.099422157 -0.36864796 -0.44505271 0
-0.0018832088 -0.37458628 -0.44045633 0
0.12853152 -0.35891038 -0.44165885 0
0.19459866 -0.37393251 -0.40886098 0
0.23809031 -0.41332313 -0.44681579 0
0.39546293 -0.40869373 -0.41535372 0
0.73056769 -0.38133076 -0.44709098 0
0.92714989 -0.38844299 -0.44453782 0
-0.6842382 -0.27810246 -0.43254381 0
-0.61121398 -0.29042757 -0.43585896 0
-0.52167702 -0.28037927 -0.43033352 0
-0.4280501 -0.2770173 -0.43222523 0
-0.2884104 -0.28414035 -0.43380323 0
-0.18773137 -0.25004762 -0.43066317 0
-0.088279977 -0.27117926 -0.43091899 0
0.012596447 -0.26150218 -0.43094474 0
0.18867373 -0.2634564 -0.40583453 0
0.32210785 -0.32531089 -0.39635313 0
0.7367357 -0.27471572 -0.42662254 0
0.74039549 -0.2910828 -0.437545 0
0.93438673 -0.26406792 -0.42384979 0
0.94059563 -0.29370373 -0.44216087 0
-0.67372441 -0.17818344 -0.42033848 0
-0.59975529 -0.17854595 -0.4209491 0
-0.52458209 -0.14406586 -0.4146429 0
-0.40109181 -0.16284654 -0.41957909 0
-0.27686957 -0.17102684 -0.42220923 0
-0.1839868 -0.1799074 -0.41871101 0
-0.079879522 -0.17795277 -0.4209305 0
0.016517572 -0.16880308 -0.41530377 0
0.17390829 -0.17826062 -0.39754719 0
0.26415202 -0.16162124 -0.39226985 0
0.74859476 -0.15060765 -0.41884547 0
0.94583213 -0.13644147 -0.4155046 0
-0.67046195 -0.070881456 -0.40393782 0
-0.59312749 -0.052413374 -0.40591401 0
-0.52194834 -0.080339938 -0.40720683 0
-0.41381913 -0.060557172 -0.40506899 0
-0.29957032 -0.080358692 -0.40611839 0
-0.18247765 -0.089010082 -0.40484339 0
-0.074947596 -0.067939274 -0.40794688 0
0.028853163 -0.032865793 -0.40815553 0
0.1464816 -0.059796087 -0.40186486 0
0.29296899 -0.091121227 -0.38193592 0
0.74557948 -0.088621557 -0.40489727 0
0.94427913 -0.062627494 -0.40270618 0
-0.67336547 0.021146297 -0.39069384 0
-0.59692937 0.036235467 -0.39206755 0
-0.52185708 0.038113952 -0.39281288 0
-0.40653783 0.026769474 -0.39416167 0
-0.27167723 0.029638182 -0.39709342 0
-0.1798186 0.029707517 -0.39313662 0
-0.080071509 0.014533829 -0.39227971 0
0.023891516 0.036862224 -0.39481828 0
0.14223565 0.020593643 -0.38844785 0
0.31363428 -0.012341842 -0.3781333 0
0.37106353 0.024423808 -0.3504017 0
0.94887727 0.057652891 -0.39316714 0
-0.67864466 0.12330461 -0.37900534 0
-0.60590744 0.12626815 -0.37822241 0
-0.53060991 0.083048746 -0.38163957 0
-0.42550957 0.11867467 -0.38159344 0
-0.28104457 0.10442873 -0.38261691 0
-0.18730198 0.1235191 -0.37905177 0
-0.076428853 0.13741273 -0.38464421 0
0.017324731 0.13618398 -0.38030425 0
0.14219894 0.13547641 -0.37868214 0
0.28095591 0.12925559 -0.38250163 0
0.38993213 0.10598031 -0.36540884 0
0.44087878 0.13707641 -0.34055594 0
0.93348688 0.12642252 -0.37282437 0
0.94499421 0.10859007 -0.38443685 0
-0.68566436 0.2160126 -0.36967114 0
-0.61100084 0.22796544 -0.36963511 0
-0.5191679 0.21292183 -0.37170139 0
-0.4019213 0.19993664 -0.37054074 0
-0.29634663 0.22758876 -0.36437005 0
-0.19222516 0.2474196 -0.36820507 0
-0.086993665 0.20781207 -0.37192932 0
0.0067756027 0.21086712 -0.36765659 0
0.13458151 0.2325478 -0.36681703 0
0.26829293 0.23727569 -0.36540765 0
0.41608199 0.21113244 -0.37228799 0
0.49412647 0.21899772 -0.33162081 0
0.93783325 0.22253078 -0.3693724 0
-0.70087963 0.32143441 -0.35783434 0
-0.6253925 0.31197235 -0.35847121 0
-0.51539719 0.31958461 -0.35601071 0
-0.39426377 0.32331264 -0.35835618 0
-0.30688944 0.34862572 -0.35361341 0
-0.20110926 0.33553928 -0.35898253 0
-0.10128275 0.30980581 -0.35783705 0
0.0026827008 0.33666861 -0.35917839 0
0.12377828 0.32319027 -0.35542464 0
0.25673938 0.29536319 -0.35459781 0
0.40310976 0.29443589 -0.35699162 0
0.51374984 0.29313472 -0.35197827 0
0.57467043 0.34362525 -0.32107162 0
0.93314451 0.28208202 -0.36201808 0
-0.72861832 0.42074236 -0.3425478 0
-0.61784708 0.3957538 -0.34506869 0
-0.49778551 0.43996379 -0.34261703 0
-0.4165093 0.43634281 -0.34387979 0
-0.32244653 0.42308459 -0.34348461 0
-0.21937241 0.44079363 -0.34587452 0
-0.11784385 0.41598779 -0.3449029 0
-0.018977851 0.42406508 -0.34375447 0
0.11706656 0.45147744 -0.34718961 0
0.25282249 0.39165208 -0.34855741 0
0.38533515 0.42027822 -0.34104669 0
0.52860689 0.4257009 -0.33999246 0
0.71264356 0.43628806 -0.34044993 0
0.90857899 0.44759208 -0.33760419 0
0.24358904 0.48253596 -0.34047043 0
0.38112241 0.001832515 -0.32995355 0
-0.78813624 -0.47676003 -0.4579308 0
-0.67696929 -0.49114412 -0.45877498 0
-0.59855139 -0.48680633 -0.46041456 0
-0.50180864 -0.47062507 -0.45773342 0
-0.40248489 -0.4568049 -0.4589633 0
-0.30711442 -0.49021193 -0.45590323 0
-0.20770171 -0.48850307 -0.45699862 0
-0.078465879 -0.47804031 -0.46246469 0
0.063395716 -0.43674532 -0.46135899 0
0.19495964 -0.48357835 -0.45762682 0
0.3188518 -0.49196044 -0.45499453 0
0.71519578 -0.45518279 -0.45542029 0
-0.88225472 -0.38941985 -0.43965569 0
-0.78876793 -0.38889313 -0.44831598 0
-0.6840781 -0.37119818 -0.4464426 0
-0.57428461 -0.36335436 -0.45063144 0
-0.48222762 -0.3619118 -0.44613871 0
-0.39379096 -0.40184429 -0.44623163 0
-0.2872611 -0.37239268 -0.44411865 0
-0.18905817 -0.37332767 -0.44403395 0
-0.067513108 -0.40577579 -0.45013332 0
0.064967856 -0.41789305 -0.45269606 0
0.072377704 -0.36420369 -0.44614115 0
0.19635364 -0.38000727 -0.42863718 0
0.27943122 -0.35673082 -0.39889228 0
0.36628705 -0.41250616 -0.42286864 0
0.72410971 -0.37505525 -0.44416529 0
0.93627989 -0.39078149 -0.44546974 0
-0.86317998 -0.28445879 -0.43719694 0
-0.79093516 -0.28929332 -0.43672669 0
-0.67878175 -0.27880752 -0.43363753 0
-0.56446993 -0.28069255 -0.43437022 0
-0.47418582 -0.28761885 -0.43218768 0
-0.38119134 -0.30464634 -0.4332985 0
-0.27492967 -0.27701893 -0.43388346 0
-0.17327891 -0.26922646 -0.43889737 0
-0.049484916 -0.27327824 -0.43729961 0
0.083292127 -0.28114596 -0.43928802 0
0.20716499 -0.2828877 -0.40659976 0
0.73668873 -0.26265982 -0.43418944 0
0.94028723 -0.31806266 -0.43049216 0
-0.85402691 -0.18782985 -0.42185962 0
-0.78203946 -0.19627377 -0.42288896 0
-0.70796001 -0.18904662 -0.42199358 0
-0.59204376 -0.1686362 -0.42031819 0
-0.46425822 -0.16948929 -0.41742969 0
-0.36991748 -0.1781922 -0.41839099 0
-0.26726288 -0.17611873 -0.42042506 0
-0.16902451 -0.1969588 -0.42593795 0
-0.04864607 -0.212937 -0.42196843 0
0.087935418 -0.20338923 -0.42570058 0
0.23532034 -0.17796357 -0.41323379 0
0.26589102 -0.19846964 -0.37423 0
0.73276412 -0.23793685 -0.42167211 0
0.95195746 -0.19694939 -0.42171377 0
-0.84897292 -0.075352937 -0.40691143 0
-0.77701539 -0.084383577 -0.40755799 0
-0.70277184 -0.084583193 -0.40880251 0
-0.59871072 -0.09458515 -0.40815648 0
-0.45880032 -0.062301755 -0.40594405 0
-0.36579365 -0.095092624 -0.40844789 0
-0.26512468 -0.08127214 -0.40612972 0
-0.16795494 -0.090836577 -0.40715963 0
-0.041708518 -0.10739239 -0.41121843 0
0.09137217 -0.089108787 -0.40898469 0
0.23207816 -0.067031622 -0.40662852 0
0.29966733 -0.10526398 -0.37914735 0
0.39637852 -0.064539224 -0.34642449 0
0.73721528 -0.12883329 -0.40760046 0
0.95711273 -0.097506851 -0.41070989 0
-0.85187018 0.01060015 -0.39391899 0
-0.78193676 -0.041634828 -0.39661902 0
-0.7027477 0.022779167 -0.39556283 0
-0.5805918 -0.0061079562 -0.39948499 0
-0.46335781 -0.0024695694 -0.39405337 0
-0.36386344 -0.0029483661 -0.39853412 0
-0.26717862 3.2387674e-05 -0.39384836 0
-0.16746618 0.021123651 -0.39350548 0
-0.040987413 0.033018667 -0.39366615 0
-0.034095831 -0.0078533068 -0.40536985 0
0.094623022 0.01609952 -0.3981697 0
0.23005295 -0.0015603453 -0.39581135 0
0.34320179 0.019238368 -0.38253492 0
0.95622659 -0.0072346926 -0.39702532 0
-0.85797101 0.10765764 -0.38151962 0
-0.77835625 0.098328173 -0.38756305 0
-0.70553541 0.11967498 -0.38510448 0
-0.59292996 0.10508472 -0.38514918 0
-0.46371442 0.11318983 -0.38367715 0
-0.3719871 0.075335585 -0.38358679 0
-0.26759669 0.12148033 -0.382727 0
-0.1719301 0.10822992 -0.38169751 0
-0.047680721 0.10970873 -0.38070852 0
0.092771888 0.085091844 -0.38927978 0
0.22861536 0.10700466 -0.38378298 0
0.40665162 0.099586129 -0.35433814 0
0.46584672 0.13370085 -0.32886729 0
0.95546609 0.12180197 -0.38227803 0
-0.86758125 0.21152729 -0.36991382 0
-0.79013199 0.18494837 -0.37358248 0
-0.68283868 0.2073162 -0.36959994 0
-0.58394414 0.21284536 -0.3755931 0
-0.47614315 0.22413528 -0.36810729 0
-0.37522343 0.20156482 -0.37284118 0
-0.27660832 0.22959277 -0.36907575 0
-0.17625077 0.20603564 -0.37177828 0
-0.051277131 0.22140078 -0.37033293 0
0.083158851 0.16999677 -0.37436497 0
0.22035611 0.19694248 -0.37005043 0
0.36231393 0.1980373 -0.37068576 0
0.44433919 0.17295071 -0.35706455 0
0.49378869 0.23887044 -0.34406644 0
0.9504528 0.2061016 -0.37065959 0
-0.87680328 0.31019717 -0.36144659 0
-0.79588801 0.27260804 -0.36663139 0
-0.70397782 0.31957361 -0.35767436 0
-0.57439423 0.31302547 -0.3612878 0
-0.48719665 0.33536038 -0.35696489 0
-0.39309695 0.31557289 -0.35629603 0
-0.29320934 0.32232547 -0.35454851 0
-0.18553808 0.2996617 -0.36073565 0
-0.061965629 0.26947796 -0.36029863 0
0.074724525 0.30528516 -0.36064747 0
0.21480423 0.28562742 -0.36093479 0
0.34342018 0.2997357 -0.3511278 0
0.36720482 0.34401855 -0.36540377 0
0.53182256 0.31377304 -0.34585428 0
0.57155681 0.28514448 -0.30249783 0
-0.89818758 0.40252346 -0.34911257 0
-0.78907835 0.39772326 -0.35012892 0
-0.66255963 0.4164972 -0.3529053 0
-0.59194887 0.39440975 -0.34934172 0
-0.5070197 0.38034251 -0.34482211 0
-0.4090094 0.4204638 -0.34446251 0
-0.30474657 0.40936595 -0.34525043 0
-0.20787208 0.40910539 -0.34402603 0
-0.068862781 0.38959938 -0.35135776 0
0.046857983 0.41012493 -0.33923429 0
0.066839129 0.43023729 -0.3504726 0
0.19438747 0.39165506 -0.34324566 0
0.34305131 0.38675302 -0.34717518 0
0.51260614 0.42893261 -0.3392204 0
0.60932261 0.36249638 -0.33260643 0
0.93561256 0.42223078 -0.3464039 0
-0.87849838 0.4942897 -0.33480242 0
-0.69342148 0.49503845 -0.33684519 0
-0.59600723 0.4880583 -0.3344205 0
-0.42449969 0.46902803 -0.33565 0
-0.3163408 0.48130846 -0.3377167 0
-0.22062531 0.48442709 -0.33547997 0
-0.092098117 0.49653584 -0.33536723 0
0.17656308 0.49195686 -0.3299568 0
0.3347581 0.49163845 -0.3386088 0
0.71047419 0.47869933 -0.33813298 0
0.91828007 0.49130648 -0.33222619 0
0.20700414 -0.31916079 -0.37637812 0
0.27462339 -0.17369261 -0.33970904 0
0.35930037 0.017926425 -0.33416274 0
0.53615594 0.19340464 -0.30211496 0
-0.94578779 -0.46699816 -0.46013707 0
-0.83878243 -0.47346073 -0.45699522 0
-0.75498551 -0.4478637 -0.45582703 0
-0.6636517 -0.46140641 -0.45480847 0
-0.57147956 -0.48946342 -0.4617784 0
-0.46772653 -0.48710677 -0.45258129 0
-0.36240935 -0.45802099 -0.45172581 0
-0.23252484 -0.44801477 -0.45287013 0
-0.10465068 -0.49214238 -0.4538413 0
0.038475007 -0.49049458 -0.45392111 0
0.18941963 -0.44897926 -0.45358244 0
0.31154442 -0.48678547 -0.44617546 0
0.56533813 -0.47467715 -0.45629287 0
0.78474176 -0.45588526 -0.45103967 0
0.99983913 -0.47298041 -0.45105144 0
-0.97006315 -0.3665542 -0.44727549 0
-0.86474216 -0.35359693 -0.44213364 0
-0.74562335 -0.39477286 -0.44505292 0
-0.6443094 -0.34569234 -0.44023055 0
-0.55221504 -0.37685639 -0.44468051 0
-0.44923511 -0.37703073 -0.44411927 0
-0.34786206 -0.36111253 -0.44067168 0
-0.22226177 -0.37570328 -0.44348085 0
-0.086412817 -0.3701717 -0.44331157 0
0.051302463 -0.40247619 -0.44484693 0
0.17160709 -0.33105546 -0.43215945 0
0.21289057 -0.38506728 -0.42770463 0
0.57990891 -0.36895961 -0.44803917 0
0.79316932 -0.36864409 -0.43852431 0
-0.95607656 -0.26978922 -0.43080005 0
-0.88546431 -0.27709949 -0.4247458 0
-0.76454449 -0.26107877 -0.43221647 0
-0.63667578 -0.27842724 -0.42957014 0
-0.5371058 -0.25751942 -0.42962277 0
-0.43363991 -0.24562758 -0.42851937 0
-0.33732378 -0.26889792 -0.42989385 0
-0.21345657 -0.29070762 -0.43108076 0
-0.077583037 -0.2808966 -0.43021062 0
0.063758776 -0.28954381 -0.43230879 0
0.18556182 -0.29922092 -0.41373664 0
0.21229041 -0.26190734 -0.39511555 0
0.33052942 -0.28308704 -0.39593202 0
0.80175948 -0.26216879 -0.42658997 0
-0.94708174 -0.18257001 -0.42014837 0
-0.87255311 -0.16529396 -0.41752782 0
-0.75102448 -0.17664886 -0.41824698 0
-0.62534297 -0.17491648 -0.42126557 0
-0.52976 -0.18455625 -0.42247158 0
-0.42348638 -0.14128073 -0.41929463 0
-0.33206367 -0.20546842 -0.42210305 0
-0.20292036 -0.1802218 -0.42074922 0
-0.071810238 -0.20395616 -0.42094928 0
0.07080397 -0.14887618 -0.41218829 0
0.24939907 -0.17237639 -0.39190036 0
0.80789596 -0.15707755 -0.4148182 0
-0.93945003 -0.067616552 -0.4085435 0
-0.8684417 -0.10070297 -0.41045481 0
-0.75153178 -0.077298403 -0.40915495 0
-0.62215805 -0.082694501 -0.40799791 0
-0.52433801 -0.076034755 -0.40979454 0
-0.42485324 -0.07640712 -0.40670237 0
-0.32298309 -0.091755405 -0.41294357 0
-0.20100933 -0.076708958 -0.40548182 0
-0.063859753 -0.089160025 -0.41063035 0
0.077186674 -0.023223743 -0.40086633 0
0.24313441 -0.093355194 -0.4026593 0
0.31812435 -0.061717913 -0.35875422 0
0.81102437 -0.054335684 -0.4031789 0
-0.94875109 0.032612085 -0.388107 0
-0.86527038 0.01408565 -0.39818287 0
-0.75687128 0.028632015 -0.39607584 0
-0.61966026 0.025769338 -0.39693087 0
-0.52968192 0.019456923 -0.3919031 0
-0.42770332 0.04310137 -0.38968375 0
-0.32521096 0.0063335076 -0.39689395 0
-0.19938411 0.048210051 -0.39201713 0
-0.064878941 0.028205432 -0.39447984 0
0.068675362 0.019547299 -0.38764986 0
0.21464212 -0.0049601197 -0.39391345 0
0.33712193 0.027048782 -0.37497395 0
-0.94238991 0.12787089 -0.38591689 0
-0.86897087 0.12353596 -0.38534382 0
-0.75498074 0.13746145 -0.38359195 0
-0.62733024 0.10777183 -0.38279617 0
-0.53164458 0.10887232 -0.38241357 0
-0.42507583 0.15726948 -0.38224864 0
-0.33486444 0.08640065 -0.38072169 0
-0.20439181 0.14147966 -0.3796455 0
-0.068163432 0.12206341 -0.38250554 0
0.066692218 0.13078494 -0.37626451 0
0.2110707 0.13136919 -0.37792915 0
0.37959346 0.09858036 -0.36944798 0
0.43535197 0.12504286 -0.33681637 0
-0.95986533 0.24695575 -0.36743754 0
-0.85394055 0.22082907 -0.36887428 0
-0.75286239 0.17804329 -0.37318873 0
-0.63219136 0.22052078 -0.37226796 0
-0.53906584 0.22117192 -0.36997345 0
-0.43719637 0.22263913 -0.3693985 0
-0.33682778 0.23399039 -0.3694455 0
-0.21320865 0.22802693 -0.36743671 0
-0.075495169 0.22444364 -0.36983228 0
0.059361368 0.23777787 -0.36366946 0
0.38461164 0.22489253 -0.36574709 0
0.47895193 0.23069334 -0.34054476 0
-0.98056698 0.32992485 -0.3532964 0
-0.85834765 0.33558333 -0.35767883 0
-0.73279911 0.2981967 -0.36420837 0
-0.64871246 0.33933127 -0.35704169 0
-0.55260432 0.31667215 -0.35710078 0
-0.45259643 0.32492802 -0.3549085 0
-0.35772437 0.3369067 -0.35174274 0
-0.22445768 0.32093453 -0.35551962 0
-0.086253881 0.32158872 -0.35719958 0
0.045191288 0.28950536 -0.35126537 0
0.2084555 0.30561358 -0.36434463 0
0.37017843 0.31531689 -0.35050422 0
0.54333055 0.32075894 -0.33054775 0
-0.95130467 0.42148018 -0.34375337 0
-0.83924186 0.426817 -0.34536734 0
-0.75798237 0.4208166 -0.34695005 0
-0.67619646 0.42507052 -0.34011558 0
-0.56817383 0.4341411 -0.34522793 0
-0.46973649 0.43901974 -0.34214681 0
-0.35695684 0.39006269 -0.35016948 0
-0.23360433 0.43804729 -0.34615251 0
-0.11598563 0.43316701 -0.33550903 0
-0.096062779 0.39237082 -0.34842083 0
0.042746454 0.39857355 -0.34558693 0
0.18325368 0.40388298 -0.34326744 0
0.1972191 0.37642717 -0.35320204 0
0.36479482 0.4356153 -0.34195751 0
0.56244224 0.42163312 -0.34179357 0
0.77443492 0.42894274 -0.33712345 0
0.99674731 0.41929859 -0.34010237 0
-0.3809934 0.48040095 -0.33493754 0
0.34634638 0.49874893 -0.32902986 0
0.21955189 -0.22637348 -0.36027128 0
0.40806505 0.017804801 -0.32710665 0
-0.83231914 -0.48846775 -0.45735151 0
-0.40221488 -0.48359111 -0.44994587 0
-0.12243919 -0.4877311 -0.45427725 0
0.36236271 -0.49183968 -0.44842574 0
0.62051398 -0.48060077 -0.44843051 0
0.83935922 -0.48738575 -0.45162097 0
-0.90747386 -0.38531101 -0.4455229 0
-0.81524003 -0.38770008 -0.44078571 0
-0.72379911 -0.42486629 -0.44583258 0
-0.61868191 -0.4083215 -0.44188082 0
-0.51818216 -0.3972666 -0.43789136 0
-0.38514465 -0.35868278 -0.43598598 0
-0.25373143 -0.39743331 -0.4423207 0
-0.11236577 -0.40084001 -0.4400377 0
0.030061439 -0.39373761 -0.43629611 0
0.18082176 -0.38148439 -0.41397426 0
0.25392735 -0.37418437 -0.41859302 0
0.63152409 -0.37891611 -0.43838811 0
0.84712666 -0.39043322 -0.43696114 0
-0.93127745 -0.30350763 -0.43048337 0
-0.8043195 -0.29520446 -0.42836532 0
-0.71165663 -0.31882486 -0.42844653 0
-0.606583 -0.30503047 -0.42856678 0
-0.50452018 -0.28830469 -0.42876762 0
-0.37397763 -0.26794454 -0.42941114 0
-0.24441478 -0.28747579 -0.42540997 0
-0.099437863 -0.2979638 -0.43293214 0
0.040884659 -0.30883163 -0.4317899 0
0.19094369 -0.29891166 -0.41325361 0
0.63661295 -0.31913072 -0.4319022 0
0.8549791 -0.31083542 -0.43086678 0
-0.93407422 -0.19316185 -0.41755158 0
-0.79389501 -0.18411416 -0.41701549 0
-0.7016865 -0.22554499 -0.41999084 0
-0.59722555 -0.20474678 -0.41871911 0
-0.49727198 -0.19491732 -0.41802213 0
-0.37330365 -0.21379092 -0.41802025 0
-0.23507382 -0.16996777 -0.41459173 0
-0.093879074 -0.19771135 -0.41907766 0
0.046575032 -0.19118115 -0.41463703 0
0.24091178 -0.20945629 -0.38722154 0
0.85806572 -0.21640593 -0.41725251 0
-0.93122423 -0.10015285 -0.40468356 0
-0.79056633 -0.081591517 -0.40413561 0
-0.69387746 -0.12163869 -0.41095904 0
-0.59233451 -0.092418134 -0.40578508 0
-0.49644625 -0.11707377 -0.40572017 0
-0.3657755 -0.10403721 -0.40867472 0
-0.23647553 -0.093823895 -0.40138879 0
-0.092091799 -0.079968132 -0.40251887 0
0.047379918 -0.11666341 -0.40390247 0
0.27317858 -0.10521477 -0.38484797 0
0.33105481 -0.081278503 -0.34981033 0
0.86248714 -0.071104288 -0.40132141 0
-0.91616309 -0.010333627 -0.39346579 0
-0.79268217 0.0080655813 -0.39151788 0
-0.69750905 0.0049043 -0.39137205 0
-0.59142774 0.023870781 -0.39280787 0
-0.49270073 -0.011165306 -0.39629728 0
-0.36723092 -0.014658444 -0.3956843 0
-0.2380323 0.0039051287 -0.38877332 0
-0.093136385 0.025523674 -0.38957003 0
0.047372773 0.00056086481 -0.39034089 0
0.23005661 0.017131016 -0.39061004 0
0.34985733 0.019704342 -0.3646833 0
0.86116612 0.025037885 -0.38904732 0
-0.92689478 0.10536239 -0.38130972 0
-0.79676831 0.1162588 -0.37951845 0
-0.70520842 0.091811851 -0.37742364 0
-0.60203731 0.10294907 -0.37745103 0
-0.49517262 0.078808218 -0.38550079 0
-0.37167048 0.06911654 -0.38366821 0
-0.24249886 0.10971729 -0.37603888 0
-0.10072581 0.080033228 -0.37806547 0
0.040559888 0.10375158 -0.37502834 0
0.21877977 0.10106783 -0.37331986 0
0.22595707 0.059263662 -0.38289124 0
0.39990857 0.10527831 -0.35988769 0
0.4458541 0.10408136 -0.32851321 0
-0.93464768 0.19981971 -0.3703244 0
-0.80621505 0.21359432 -0.36729127 0
-0.70755798 0.20105344 -0.36939409 0
-0.60684359 0.20664185 -0.36762077 0
-0.50562203 0.18053105 -0.37055019 0
-0.3849389 0.19736879 -0.36498782 0
-0.3703959 0.16388506 -0.37755731 0
-0.24338315 0.19964358 -0.36941054 0
-0.10009783 0.18743797 -0.37107027 0
0.040127307 0.20589267 -0.36788523 0
0.21812776 0.21118519 -0.3654702 0
0.41191366 0.20816267 -0.36254892 0
0.48907483 0.21086881 -0.33028817 0
-0.92940187 0.2864213 -0.35830462 0
-0.82116938 0.31210256 -0.35451698 0
-0.72521907 0.28414297 -0.35461229 0
-0.62550843 0.29340905 -0.35242128 0
-0.52260047 0.31288058 -0.3533999 0
-0.39634815 0.29161486 -0.35319138 0
-0.25190875 0.27311572 -0.35973448 0
-0.10661368 0.31581765 -0.3596136 0
0.028645277 0.32030827 -0.35395196 0
0.20459384 0.27796218 -0.35216644 0
0.4093464 0.33259606 -0.35386175 0
0.50241846 0.25334248 -0.34092948 0
0.55170226 0.30924919 -0.32842156 0
-0.93424684 0.41010529 -0.34237716 0
-0.83943385 0.4054656 -0.34239334 0
-0.74155319 0.39494252 -0.34266117 0
-0.64569926 0.43284273 -0.33756235 0
-0.53648937 0.40996122 -0.34250188 0
-0.40611738 0.4121227 -0.34358016 0
-0.28299934 0.41446382 -0.33595401 0
-0.26718712 0.36628872 -0.34647578 0
-0.11846037 0.38473898 -0.34918609 0
0.011974066 0.41691905 -0.33997941 0
0.19818309 0.38124341 -0.34370634 0
0.39403653 0.40864176 -0.34068325 0
0.60704571 0.39764106 -0.32957357 0
0.82549411 0.43654609 -0.33532566 0
-0.76512814 0.49054953 -0.32947147 0
-0.53876418 0.49985576 -0.32696536 0
-0.4264417 0.49409917 -0.3318558 0
-0.1449842 0.48859125 -0.33133233 0
-0.001621604 0.49252585 -0.33010453 0
0.37484854 0.465431 -0.32714981 0
0.81158 0.47502857 -0.32523099 0
-0.91924518 -0.49774498 -0.45283806 0
-0.81363511 -0.48008662 -0.45457748 0
-0.71025318 -0.45552409 -0.44874832 0
-0.58993065 -0.49020615 -0.45602864 0
-0.45118123 -0.45371699 -0.44400251 0
-0.31197187 -0.47227526 -0.45140386 0
-0.17059824 -0.47578916 -0.45370102 0
0.012442812 -0.44582611 -0.44971716 0
0.20427456 -0.47037822 -0.45318535 0
0.33213422 -0.47333181 -0.43694854 0
0.63698041 -0.45491725 -0.45731819 0
0.91669899 -0.45470488 -0.44832852 0
-0.99592501 -0.39143586 -0.44194728 0
-0.90039778 -0.39005965 -0.44054338 0
-0.79318333 -0.35083783 -0.43484902 0
-0.6971432 -0.36820704 -0.4369182 0
-0.57244766 -0.37927151 -0.43995208 0
-0.29977855 -0.36985829 -0.43354407 0
-0.15936248 -0.38602695 -0.43843868 0
0.024633899 -0.35501561 -0.44029102 0
0.20770697 -0.36481765 -0.41961718 0
0.64328176 -0.3811892 -0.44220757 0
0.91930592 -0.40810767 -0.43705556 0
-0.98078591 -0.27742273 -0.4262962 0
-0.88643485 -0.27835578 -0.42442167 0
-0.78206408 -0.25988832 -0.42467538 0
-0.68352306 -0.26515144 -0.42778239 0
-0.55618501 -0.25986245 -0.43055877 0
-0.42926717 -0.29724795 -0.43029413 0
-0.28642491 -0.24974599 -0.42167881 0
-0.15103815 -0.30453497 -0.42745569 0
0.029222578 -0.28867668 -0.42789364 0
0.21640617 -0.25008979 -0.39448357 0
0.93057382 -0.28475466 -0.42403516 0
-0.96941835 -0.1805585 -0.41833311 0
-0.88037014 -0.20194444 -0.41410869 0
-0.77619833 -0.19002402 -0.41635069 0
-0.67556548 -0.17432818 -0.41719678 0
-0.55398262 -0.18105498 -0.41395295 0
-0.41580278 -0.15976295 -0.41755781 0
-0.28278881 -0.18231522 -0.41227397 0
-0.14620721 -0.173508 -0.40513065 0
-0.13824707 -0.19489825 -0.42111909 0
0.037025508 -0.17502803 -0.4136686 0
0.23725916 -0.17689829 -0.40706554 0
0.26116502 -0.19179937 -0.38263434 0
0.93975461 -0.16067711 -0.41179746 0
-0.96515721 -0.10107836 -0.40835983 0
-0.86972308 -0.088412523 -0.40674633 0
-0.76851344 -0.06971398 -0.40436697 0
-0.67053157 -0.078637332 -0.40592992 0
-0.54718471 -0.051619604 -0.40024096 0
-0.41639003 -0.06238009 -0.39967278 0
-0.27413976 -0.078853868 -0.40515959 0
-0.13504466 -0.048041429 -0.39921191 0
0.041329324 -0.062152807 -0.40008074 0
0.23462392 -0.060677737 -0.39917225 0
0.30597162 -0.11047499 -0.36422253 0
0.93697697 -0.12160555 -0.40131629 0
-0.96584445 0.0065139234 -0.39265773 0
-0.86719394 0.023537993 -0.39441127 0
-0.77135074 0.040735036 -0.38762176 0
-0.66914123 0.010368019 -0.39519718 0
-0.54827499 0.039808735 -0.38797495 0
-0.4164232 0.03780622 -0.38731802 0
-0.26890248 0.022172503 -0.39703915 0
-0.13996223 0.0093457252 -0.38662136 0
0.041711055 0.027410693 -0.38885131 0
0.23958455 0.052167445 -0.3899481 0
0.34525377 -0.0043707788 -0.36042786 0
0.942985 0.014706731 -0.38937402 0
-0.97022212 0.12492645 -0.37809327 0
-0.87689137 0.1203222 -0.3769215 0
-0.77675045 0.14634134 -0.37401164 0
-0.67387289 0.11020245 -0.38097715 0
-0.55210936 0.13223764 -0.37619197 0
-0.42158341 0.12780729 -0.37448418 0
-0.27563298 0.13698469 -0.3789649 0
-0.14650196 0.104665 -0.37147549 0
-0.13217957 0.10316938 -0.38430759 0
0.036933392 0.10220647 -0.37679064 0
0.2323716 0.15297401 -0.37341079 0
0.41341677 0.1143223 -0.35430819 0
0.94033086 0.11727434 -0.3751626 0
-0.97590339 0.23991376 -0.3668524 0
-0.88099384 0.25101152 -0.36580127 0
-0.78107506 0.21855946 -0.36624122 0
-0.68273419 0.18714511 -0.36816606 0
-0.55719471 0.23021004 -0.36557698 0
-0.42315698 0.21058288 -0.36719954 0
-0.28897664 0.19736505 -0.36338103 0
-0.14583376 0.20584473 -0.36452365 0
0.036149725 0.23843504 -0.36528173 0
0.43439338 0.22758797 -0.35735202 0
0.49515489 0.20884535 -0.3258653 0
-0.98835361 0.30547485 -0.35609198 0
-0.89375305 0.31124848 -0.3549076 0
-0.78678226 0.32147667 -0.3576411 0
-0.68457878 0.31014919 -0.36042532 0
-0.56971765 0.31682211 -0.35265142 0
-0.44341776 0.33826891 -0.34664059 0
-0.42788318 0.29370442 -0.35906228 0
-0.28746283 0.31806317 -0.35757199 0
-0.15682171 0.31327063 -0.35026726 0
0.023325458 0.34232438 -0.3496654 0
0.2181868 0.32523549 -0.3502503 0
0.43540609 0.37012461 -0.34916705 0
0.5360446 0.30093232 -0.33680841 0
0.58270991 0.31417888 -0.31947076 0
-0.99914753 0.39115858 -0.34728339 0
-0.91017997 0.42229813 -0.34232131 0
-0.81237298 0.42829973 -0.33931234 0
-0.7117793 0.40778732 -0.34036148 0
-0.58703148 0.4289034 -0.33840874 0
-0.45034528 0.43069297 -0.33924806 0
-0.30266845 0.39781585 -0.34402892 0
-0.15849653 0.42319852 -0.34424397 0
0.017970592 0.45396405 -0.34107131 0
0.20403603 0.43370765 -0.33526027 0
0.42076251 0.39541435 -0.33755636 0
0.63376206 0.44074452 -0.33395982 0
0.91806245 0.42958933 -0.33459198 0
-0.83510625 0.4806726 -0.32637638 0
-0.17640616 0.48012212 -0.33144575 0
0.19643277 0.49927142 -0.32808116 0
0.23735549 -0.22282963 -0.35749736 0
0.52353704 0.19952938 -0.30424497 0
-0.98350894 -0.46731186 -0.45960146 0
-0.88696438 -0.48109925 -0.45492366 0
-0.75803387 -0.4751578 -0.4558292 0
-0.61947453 -0.45434302 -0.45269382 0
-0.47456783 -0.44738257 -0.45805258 0
-0.340848 -0.49627608 -0.45549423 0
-0.1562964 -0.47769254 -0.45672968 0
0.042140052 -0.46293402 -0.45233604 0
0.23491521 -0.46284515 -0.44584438 0
0.75924218 -0.48317343 -0.44980296 0
-0.97254127 -0.39974988 -0.4476001 0
-0.86696619 -0.35492504 -0.44209749 0
-0.7419951 -0.37165761 -0.44508794 0
