# .PCD v0.7 - Point Cloud Data file format
VERSION 0.7
FIELDS x y z intensity
SIZE 4 4 4 4
TYPE F F F F
COUNT 1 1 1 1
WIDTH 537
HEIGHT 1
VIEWPOINT 0 0 0 1 0 0 0
POINTS 537
DATA ascii
0.53917933 -0.47516954 -0.3471511 0
0.68176222 -0.41594076 -0.29868215 0
0.16865015 -0.48754692 -0.36063433 0
0.6013422 -0.36054933 -0.34691823 0
0.81370211 -0.27823317 -0.36575776 0
-0.26682186 -0.48936927 -0.35808378 0
0.22863722 -0.35683334 -0.36182177 0
0.84800196 -0.15687382 -0.3580659 0
-0.21018648 -0.38393712 -0.35625836 0
0.27841139 -0.2296381 -0.35959893 0
-0.67018008 -0.48286617 -0.36178303 0
-0.63190341 -0.40386569 -0.35497305 0
-0.16622257 -0.29485869 -0.35885823 0
-0.12981939 -0.21910596 -0.36121166 0
0.31036091 -0.13006401 -0.35443377 0
0.91998959 0.044021487 -0.36147207 0
-0.56324816 -0.2808013 -0.36071807 0
-0.10227299 -0.14970434 -0.35945937 0
0.35437918 -0.023139834 -0.35834011 0
0.37597704 0.051261067 -0.35579979 0
0.97230434 0.23868454 -0.35960996 0
-0.93761826 -0.29861522 -0.35843885 0
-0.50097513 -0.15830564 -0.36415488 0
-0.064116001 -0.058074713 -0.36021245 0
0.40471029 0.1395582 -0.35600859 0
-0.88292265 -0.20008326 -0.36040792 0
-0.45989943 -0.061888814 -0.36176682 0
-0.023207664 0.05335772 -0.35939679 0
0.44790506 0.25213158 -0.36163968 0
-0.81937599 -0.080781937 -0.36424559 0
-0.41402197 0.035044551 -0.36584133 0
-0.38771296 0.11826599 -0.36056256 0
0.037464142 0.22032928 -0.36127943 0
0.49195862 0.36679959 -0.36849445 0
-0.77925277 0.008915782 -0.36200076 0
-0.7273097 0.10745764 -0.36926144 0
-0.35453796 0.22048342 -0.35716754 0
0.096427441 0.37018049 -0.36878571 0
0.51433325 0.4831543 -0.3641715 0
-0.71338701 0.16603446 -0.36062425 0
-0.30852079 0.34217668 -0.36042255 0
0.095506191 0.41893256 -0.35990447 0
-0.65902996 0.30707693 -0.36069334 0
-0.28695345 0.43750811 -0.35533857 0
-0.96507215 0.309466 -0.35895723 0
-0.64126444 0.38882375 -0.35331666 0
-0.60810041 0.47208285 -0.35719168 0
-0.91969132 0.41744602 -0.3624045 0
-0.91214442 0.48058891 -0.3525511 0
-0.88984203 -0.48229158 -0.35142922 0
-0.82155585 -0.37580585 -0.36165875 0
-0.79269195 -0.32094419 -0.3587817 0
-0.47265911 -0.47721159 -0.35292831 0
-0.74885178 -0.23240268 -0.3546274 0
-0.40345526 -0.36717916 -0.35301584 0
-0.99972844 -0.020878553 -0.35968015 0
-0.37820435 -0.30804169 -0.34868628 0
-0.95588017 0.070939183 -0.35889462 0
-0.65700698 -0.060204864 -0.36179388 0
-0.33135796 -0.22213531 -0.35485628 0
0.0041294098 -0.42534339 -0.35837579 0
-0.90429449 0.17900109 -0.36085284 0
-0.60900831 0.045869589 -0.36116785 0
-0.28627968 -0.12474239 -0.35569292 0
0.069372654 -0.2917881 -0.36179465 0
-0.86566854 0.27699411 -0.35849708 0
-0.58077526 0.11611617 -0.35947257 0
-0.24463892 -0.039123654 -0.35980353 0
0.10600519 -0.18892562 -0.3547529 0
0.53162384 -0.45224702 -0.3587935 0
-0.82251477 0.37930942 -0.36059499 0
-0.53888321 0.22210789 -0.35884681 0
-0.22388411 0.026171207 -0.35497612 0
0.16336632 -0.071966887 -0.36272523 0
0.5731554 -0.37286079 -0.35744071 0
0.61317158 -0.4058671 -0.30606806 0
-0.81343961 0.42790866 -0.35432565 0
-0.51950693 0.30093813 -0.35134083 0
-0.16653824 0.17953789 -0.35417032 0
-0.18841124 0.11204052 -0.35645497 0
0.18191814 -0.0059322119 -0.35744312 0
0.62469769 -0.29811323 -0.35662088 0
0.72000647 -0.34564722 -0.31111446 0
-0.49324226 0.37739515 -0.35098022 0
-0.13501549 0.26513255 -0.3551659 0
0.20713091 0.069313765 -0.35572681 0
0.66724682 -0.19128311 -0.35757342 0
-0.45038795 0.48020041 -0.35688919 0
-0.10679054 0.34711194 -0.35581368 0
0.24641275 0.19326758 -0.35383439 0
0.7020936 -0.095604062 -0.35763216 0
-0.088558674 0.42055655 -0.35294372 0
0.7492857 0.044464827 -0.35737729 0
0.28592396 0.32728076 -0.35217446 0
0.31990576 0.41689396 -0.35698915 0
0.79311991 0.19009924 -0.35614789 0
0.82806349 0.29427695 -0.35923791 0
0.84449053 0.37633038 -0.35589623 0
0.75194788 -0.46762097 -0.2641477 0
-0.99814582 -0.41212845 -0.36358342 0
-0.9726336 -0.35674477 -0.35876471 0
-0.94688439 -0.30174029 -0.35538319 0
-0.61537242 -0.45448935 -0.36186558 0
-0.89192271 -0.20314908 -0.36069772 0
-0.56230354 -0.34481192 -0.35910255 0
-0.84239411 -0.10205531 -0.35981345 0
-0.50775814 -0.23328531 -0.35830116 0
-0.7762022 0.026015162 -0.36383259 0
-0.74920583 0.084299684 -0.3630836 0
-0.43003893 -0.072307467 -0.35863543 0
-0.98711014 0.31408048 -0.36080724 0
-0.70918798 0.18035305 -0.3587501 0
-0.38498068 0.016196966 -0.36198309 0
-0.96078634 0.3895514 -0.35410377 0
-0.64497471 0.30816412 -0.3645207 0
-0.35056448 0.089690328 -0.36255479 0
-0.610672 0.38462186 -0.365062 0
-0.3133049 0.16920042 -0.36347163 0
-0.5790019 0.45890808 -0.36463565 0
-0.25623226 0.29572487 -0.36420077 0
-0.21357203 0.40244424 -0.36089247 0
-0.17122316 0.49694049 -0.3627494 0
-0.17658377 -0.4036963 -0.36311004 0
-0.4861846 -0.17888355 -0.35332152 0
-0.11892986 -0.28321588 -0.36201346 0
0.31891489 -0.49593616 -0.36027724 0
-0.042555332 -0.13588262 -0.36841458 0
0.38967276 -0.35452843 -0.36349922 0
-0.01876545 -0.058751583 -0.35627589 0
0.4456706 -0.23019803 -0.36071652 0
0.042772293 0.058105588 -0.36392498 0
0.078371525 0.1395359 -0.36280641 0
0.50301647 -0.11781514 -0.36557555 0
0.11490393 0.2213819 -0.36279491 0
0.53253698 -0.042794108 -0.36070132 0
0.14412642 0.29342043 -0.36071604 0
0.57861757 0.052497029 -0.36327732 0
0.19607067 0.40369904 -0.36430153 0
0.62108994 0.14643824 -0.36352026 0
0.23641205 0.49118817 -0.36691099 0
0.65617561 0.23257756 -0.36058253 0
0.69512749 0.3243345 -0.35932559 0
0.74652147 0.43111014 -0.36364025 0
0.60817957 -0.41347063 -0.32833415 0
0.73705578 -0.43244481 -0.27912211 0
0.71156311 -0.34527743 -0.33412418 0
-0.94941831 -0.26005065 -0.36420333 0
-0.60421753 -0.44045448 -0.35938531 0
-0.89485788 -0.21205676 -0.35218823 0
-0.51937246 -0.35721982 -0.35604459 0
-0.78518867 -0.089054942 -0.35872099 0
-0.44104004 -0.274544 -0.35830951 0
-0.7268126 -0.025552392 -0.35819894 0
-0.38345385 -0.21706665 -0.35509098 0
-0.97076416 0.19359875 -0.35248905 0
-0.69450355 0.0051842928 -0.35003895 0
-0.29617596 -0.11960542 -0.36125955 0
-0.60591745 0.11130786 -0.36078918 0
-0.25102329 -0.075582147 -0.35586324 0
-0.85174394 0.33822489 -0.35836583 0
-0.54930019 0.17406297 -0.35763752 0
-0.17845011 0.0043743849 -0.35772777 0
0.16859102 -0.20075679 -0.36557555 0
-0.7832036 0.42061853 -0.35415488 0
-0.49682474 0.23514581 -0.3581433 0
-0.11743307 0.069699764 -0.35538203 0
-0.39733791 0.35255325 -0.35903159 0
-0.035236359 0.16341841 -0.35956138 0
-0.31027842 0.4568367 -0.35888088 0
0.032391548 0.23863459 -0.35845089 0
0.11061907 0.33092093 -0.36413014 0
0.16762161 0.39189613 -0.35639238 0
0.54658127 0.19065988 -0.35874027 0
0.2374382 0.47502589 -0.36008477 0
0.71454382 0.37578571 -0.36191106 0
-0.024832726 -0.4022007 -0.35934639 0
0.071867943 -0.31041706 -0.35379392 0
0.58664751 -0.41957998 -0.34647965 0
0.24298716 -0.13002086 -0.35910988 0
0.70190001 -0.32242739 -0.35746825 0
0.31248045 -0.057614446 -0.35910872 0
0.83374691 -0.28768635 -0.35540742 0
0.38226414 0.014906526 -0.35835305 0
0.92880297 -0.18484354 -0.35555226 0
0.47223091 0.1105026 -0.35840091 0
0.61131334 0.25699413 -0.35391402 0
0.75857782 0.41811585 -0.35297817 0
0.67195511 -0.4488039 -0.30040815 0
0.76396465 -0.3644644 -0.30171573 0
-0.81777287 -0.47953558 -0.36853731 0
-0.83267498 -0.36800051 -0.36778361 0
-0.86398625 -0.16046286 -0.36611086 0
-0.84501648 -0.25966668 -0.36802277 0
-0.52391529 -0.43744671 -0.36498427 0
-0.88088679 -0.065866947 -0.36489999 0
-0.5183239 -0.25966895 -0.37526727 0
-0.15748501 -0.43939114 -0.35759926 0
-0.89740682 0.039667368 -0.36448652 0
-0.57171059 -0.1459291 -0.36550194 0
-0.1652894 -0.31400454 -0.363132 0
-0.9057703 0.14245105 -0.36664838 0
-0.60931301 0.0071861744 -0.36278355 0
-0.19477749 -0.16571653 -0.36434454 0
0.27915001 -0.41744912 -0.35943019 0
-0.9457655 0.33346677 -0.36404848 0
-0.92430711 0.24373102 -0.36592516 0
-0.63895607 0.10828531 -0.35989025 0
-0.95917034 0.4364357 -0.36544502 0
-0.64303637 0.22859275 -0.36557263 0
-0.24557066 0.070953012 -0.36587769 0
-0.20179749 -0.024482846 -0.37153959 0
0.26762486 -0.26919794 -0.36734152 0
-0.66064405 0.34082842 -0.36719167 0
-0.29741764 0.14339328 -0.35670167 0
0.23071051 -0.13319588 -0.36787972 0
-0.70464182 0.47536385 -0.36312959 0
-0.33161831 0.31980133 -0.35971877 0
0.19683266 -0.0070599318 -0.36866492 0
-0.35673189 0.49470901 -0.36543453 0
0.60529566 -0.38412988 -0.34688061 0
0.69672871 -0.41604102 -0.30104753 0
0.66626978 -0.33370793 -0.3525207 0
0.13828135 0.1123997 -0.36279935 0
0.75078297 -0.19460666 -0.37192491 0
0.78846693 -0.31245482 -0.31863058 0
0.11617899 0.22736776 -0.36613914 0
0.67960215 -0.10488987 -0.36215991 0
0.078807831 0.36203563 -0.36724657 0
0.65411472 0.071499825 -0.37125236 0
0.040176392 0.45041394 -0.36456615 0
0.59288931 0.17557168 -0.36549091 0
0.54824591 0.3191359 -0.36739945 0
0.50509548 0.4431535 -0.36816013 0
0.96051884 0.430722 -0.36645451 0
0.22394753 -0.41238141 -0.3641212 0
0.20520878 -0.27857614 -0.36650401 0
0.5201273 -0.45318842 -0.33495504 0
0.57600307 -0.36673677 -0.34242707 0
0.69427633 -0.29892313 -0.35783088 0
0.67121983 -0.12024653 -0.36656815 0
0.61759329 -0.0045363903 -0.3631703 0
0.99008417 0.26265955 -0.35989881 0
-0.72807145 -0.4442836 -0.35942203 0
-0.73137546 -0.27954268 -0.35893536 0
-0.74249887 -0.053544998 -0.35980392 0
-0.7170434 -0.15214431 -0.36583996 0
-0.29007626 -0.30050445 -0.35981524 0
-0.26790047 -0.39712071 -0.36346066 0
-0.74063325 0.059771061 -0.36395752 0
-0.29982996 -0.17184865 -0.36208761 0
-0.74252295 0.16848874 -0.36742038 0
-0.32095051 -0.063002944 -0.36094117 0
-0.36742401 0.023348093 -0.35203439 0
0.1523366 -0.17462361 -0.35833481 0
0.67897558 -0.47932303 -0.29832006 0
-0.3577137 0.17775142 -0.36375624 0
0.13285494 -0.063404799 -0.3604961 0
0.68545485 -0.35933745 -0.30101895 0
-0.39471674 0.28140759 -0.36013338 0
0.099773884 0.07989645 -0.36202961 0
-0.40291786 0.40486765 -0.36630762 0
0.042374611 0.19286716 -0.35583869 0
0.017109871 0.33763278 -0.36120903 0
-0.02568388 0.44665706 -0.35987341 0
0.58245564 0.16289747 -0.36960316 0
0.51829195 0.31267679 -0.36832845 0
0.46306515 0.42764592 -0.3666392 0
0.93756866 0.40422177 -0.36381865 0
-0.77269197 0.25122511 -0.36189595 0
-0.78333139 0.35666537 -0.36391288 0
-0.81339312 0.44921768 -0.36035711 0
-0.22963428 -0.40869045 -0.37543836 0
-0.17156363 -0.32672286 -0.36099479 0
-0.083159447 -0.19294178 -0.36233374 0
0.5156951 -0.44908869 -0.36348122 0
-0.010700226 -0.067834616 -0.35982066 0
0.60109425 -0.32379055 -0.37201434 0
0.63913345 -0.41311359 -0.30436599 0
0.056140423 0.061032295 -0.35663182 0
0.65519381 -0.25186062 -0.36853182 0
0.7319684 -0.34059882 -0.30633223 0
0.69617367 -0.16675735 -0.36192 0
0.13396454 0.19958913 -0.36790541 0
0.15890265 0.27392817 -0.36031181 0
0.76176357 -0.044066429 -0.36679232 0
0.19950771 0.3697139 -0.36143488 0
0.81004429 0.067070484 -0.36455882 0
0.22554588 0.45524371 -0.3570922 0
0.85126019 0.16943443 -0.36341357 0
0.88938665 0.26888227 -0.36364138 0
0.91917133 0.36797917 -0.36063612 0
0.95308733 0.48267531 -0.35965461 0
-0.96255779 -0.45751715 -0.37167722 0
-0.94084692 -0.44251311 -0.35749993 0
-0.85972595 -0.3444922 -0.36256295 0
-0.81477523 -0.28945756 -0.35508212 0
-0.71510959 -0.15420043 -0.36351055 0
-0.98069906 0.17981184 -0.35763937 0
-0.61324406 0.001237154 -0.35976064 0
-0.93768334 0.25339639 -0.35796556 0
-0.87854171 0.35463154 -0.36336315 0
-0.50617409 0.17981839 -0.36498481 0
-0.85119581 0.41807485 -0.3580561 0
-0.42586088 0.33975816 -0.36368337 0
-0.36728287 0.47226357 -0.36281383 0
-0.76316214 -0.47406435 -0.36377227 0
-0.86215162 -0.23896265 -0.35454032 0
-0.78374863 -0.31115949 -0.36978954 0
-0.38131046 -0.45219433 -0.36134094 0
-0.44108582 -0.34442008 -0.35445595 0
-0.86812782 -0.056312919 -0.36670083 0
0.051626682 -0.44216228 -0.35965067 0
-0.94620657 0.17774737 -0.36520803 0
-0.91269064 0.052280903 -0.36373353 0
-0.54326105 -0.049145222 -0.35533014 0
-0.45695734 -0.15715563 -0.36667526 0
-0.078607559 -0.1636591 -0.35676163 0
0.00021600723 -0.28331876 -0.36313465 0
0.43740225 -0.33907163 -0.35887164 0
0.3707242 -0.19263685 -0.36018384 0
-0.57001638 0.067055583 -0.35934871 0
-0.61255455 0.22591853 -0.36378938 0
0.63117981 -0.38743579 -0.31777841 0
-0.66650486 0.35141253 -0.36287022 0
-0.12091684 0.015485287 -0.36499873 0
-0.73441124 0.45015824 -0.35653359 0
-0.16993093 0.17207491 -0.3698521 0
0.29261732 -0.028036714 -0.36131114 0
0.71937227 -0.31095469 -0.33161181 0
0.94061184 -0.32120872 -0.3524859 0
-0.32356548 0.41417515 -0.36089277 0
-0.24583149 0.29126859 -0.36520362 0
0.21706533 0.11752284 -0.36121017 0
0.14209175 0.26627874 -0.36197528 0
0.88115788 -0.13397622 -0.36101726 0
0.068853855 0.41920805 -0.36393648 0
0.79358959 0.035387874 -0.36348993 0
0.68191814 0.19512749 -0.3605541 0
0.59630728 0.37635612 -0.36576945 0
0.48491621 0.48660898 -0.35751024 0
-0.59998989 -0.47312355 -0.35430217 0
-0.55828285 -0.36513913 -0.3565715 0
-0.51086235 -0.24608934 -0.36186492 0
-0.48036003 -0.14197564 -0.36130625 0
0.099125862 -0.44310296 -0.35793144 0
0.12103271 -0.34406149 -0.35586861 0
0.5823307 -0.49201465 -0.34339181 0
0.15784121 -0.21873987 -0.35989338 0
0.56511879 -0.42375875 -0.33047822 0
0.18376446 -0.094237447 -0.3598572 0
0.64343596 -0.37989163 -0.3271085 0
0.20728683 0.023279309 -0.36068314 0
0.21163845 0.11695433 -0.35585395 0
0.93282509 -0.23431265 -0.36920282 0
0.24626064 0.25614703 -0.36283338 0
0.95055294 -0.1068505 -0.36669675 0
0.24817848 0.36118138 -0.35866332 0
0.95603657 -0.0077255964 -0.36212179 0
0.26491928 0.46872318 -0.36151189 0
0.95731592 0.093325615 -0.35627085 0
0.98774385 0.24798214 -0.36436948 0
0.97740173 0.36541748 -0.35843003 0
0.96417475 0.47345948 -0.35281509 0
-0.97385311 0.13007104 -0.35684639 0
-0.47312212 -0.06269598 -0.35297686 0
-0.92948341 0.2786057 -0.35888413 0
-0.44192934 0.037768364 -0.35630602 0
-0.90111613 0.37744105 -0.36126721 0
-0.42287636 0.13184118 -0.35501772 0
0.66385984 -0.4891516 -0.2706036 0
-0.8877697 0.46063268 -0.35891891 0
-0.39348793 0.2553997 -0.35716146 0
-0.37146521 0.36630964 -0.35830712 0
-0.34457397 0.47339034 -0.36295593 0
-0.97952604 -0.21681893 -0.36550361 0
-0.40247488 -0.41750133 -0.36665463 0
-0.94403243 -0.14830744 -0.36369437 0
-0.37005997 -0.35451615 -0.35877067 0
-0.87740016 -0.014344096 -0.36183763 0
-0.33018541 -0.27126479 -0.35663259 0
-0.81795192 0.11265576 -0.36018297 0
-0.2528677 -0.12730992 -0.3656022 0
0.39683533 -0.47570479 -0.35569984 0
-0.76676798 0.21683812 -0.36402583 0
-0.20008802 -0.016222358 -0.36762869 0
0.46550131 -0.3419379 -0.36274064 0
0.61646366 -0.38888872 -0.31536257 0
-0.71420193 0.34908128 -0.36091575 0
-0.15984917 0.081871033 -0.3655934 0
0.51509619 -0.22549033 -0.36195272 0
-0.1378274 0.15491545 -0.35882226 0
-0.65094662 0.49872971 -0.36378896 0
-0.10391474 0.25238073 -0.35548156 0
0.57636023 -0.068120122 -0.35924298 0
-0.048089027 0.37819254 -0.36220971 0
-0.018571854 0.47589624 -0.35861358 0
0.66404963 0.13697064 -0.36628848 0
0.69358587 0.23740673 -0.36190057 0
0.73394632 0.35618627 -0.36216778 0
0.76590109 0.46440005 -0.36059824 0
-0.57598925 -0.49672604 -0.35863692 0
-0.51005411 -0.38020945 -0.36273921 0
-0.96744037 0.097486019 -0.36303383 0
-0.44785881 -0.26463068 -0.36641249 0
-0.39329767 -0.15804005 -0.36926326 0
0.29189968 -0.49640989 -0.36907011 0
-0.90515947 0.23370218 -0.36302346 0
-0.3689661 -0.083150387 -0.35886163 0
0.33622646 -0.39284587 -0.36475554 0
0.58958483 -0.45705926 -0.32853168 0
-0.31589746 0.029034972 -0.36197314 0
0.37736034 -0.28935111 -0.36030996 0
0.62506819 -0.37797642 -0.31948256 0
-0.82581902 0.44369352 -0.35591936 0
-0.83506298 0.38927257 -0.36586869 0
-0.26021528 0.14777577 -0.3664192 0
0.4260397 -0.17962003 -0.36216772 0
-0.22881174 0.22908163 -0.36533439 0
-0.16982079 0.36510444 -0.37044758 0
0.50727177 -0.014180541 -0.37351409 0
-0.14891434 0.44884431 -0.36357245 0
0.53205872 0.075878859 -0.36611617 0
0.5658617 0.18330061 -0.36212665 0
0.58560801 0.26366293 -0.35668802 0
0.66742754 0.44873822 -0.37082994 0
-0.76366186 -0.41851032 -0.35842544 0
-0.71018291 -0.31674862 -0.3589817 0
-0.64192438 -0.18907464 -0.36367625 0
-0.58431101 -0.07710135 -0.36773968 0
0.094539165 -0.42382038 -0.3647877 0
-0.5381279 0.042977214 -0.36062908 0
0.14417505 -0.3173213 -0.36555797 0
-0.48464203 0.1809094 -0.35631546 0
0.17606544 -0.22991061 -0.36000663 0
0.58636093 -0.40092576 -0.3419016 0
0.23610735 -0.096058249 -0.36327261 0
-0.43046761 0.30355072 -0.36075315 0
0.95447397 -0.35699689 -0.36211279 0
-0.3887701 0.40644312 -0.3628282 0
0.29495955 0.041808367 -0.36668527 0
0.34694624 0.16882551 -0.36973572 0
0.36868858 0.26115942 -0.36203289 0
0.43006325 0.41035914 -0.36939865 0
0.73692131 -0.44601679 -0.26739156 0
-0.34119749 -0.47264779 -0.36441261 0
-0.9828856 -0.13075256 -0.36499041 0
-0.91672301 -0.010740757 -0.36897975 0
-0.26842928 -0.37095153 -0.3680127 0
-0.88369513 0.062011003 -0.36533928 0
-0.22893143 -0.28147829 -0.36106098 0
-0.83187056 0.18505216 -0.35889745 0
-0.17473555 -0.17209852 -0.36225986 0
-0.13572359 -0.078548908 -0.35802856 0
0.53122044 -0.42874086 -0.36291888 0
-0.7463932 0.35884416 -0.36577883 0
0.60287428 -0.34002352 -0.3560245 0
-0.7155652 0.45106018 -0.35948369 0
-0.057002544 0.083699942 -0.36458614 0
0.70650864 -0.23039615 -0.36397415 0
0.0057506561 0.21137118 -0.37217939 0
0.73918676 -0.12856853 -0.35529053 0
0.0064992905 0.26513624 -0.35576862 0
0.057304382 0.38542235 -0.35918456 0
0.80383778 0.017909408 -0.3604511 0
0.84371281 0.13335311 -0.35731268 0
0.90404367 0.28163886 -0.36253625 0
0.94357967 0.40290856 -0.36119041 0
0.66505718 -0.43495941 -0.28035811 0
-0.32858181 -0.49035466 -0.36046827 0
-0.26738071 -0.40560186 -0.35944423 0
-0.9383955 0.0036290884 -0.35980147 0
-0.21692228 -0.29831266 -0.35798407 0
-0.86038828 0.16943896 -0.36013424 0
-0.15597725 -0.1726414 -0.36036849 0
-0.80796576 0.27869272 -0.36376837 0
-0.094545364 -0.039472938 -0.36285368 0
-0.76670027 0.38205492 -0.36207882 0
-0.052735329 0.066669106 -0.36061791 0
-0.013201237 0.16884744 -0.35933197 0
0.024145603 0.27719724 -0.35646027 0
0.10284758 0.44472706 -0.36934519 0
-0.52538824 -0.43792748 -0.36461553 0
-0.48536062 -0.34953034 -0.35799971 0
-0.42551947 -0.22865796 -0.35867375 0
-0.36864901 -0.11510766 -0.36227056 0
-0.99419832 0.40556359 -0.35668731 0
-0.2786727 0.07710886 -0.3666029 0
-0.20496464 0.25791419 -0.36556894 0
-0.15682554 0.38120985 -0.36604702 0
-0.12670469 0.4855212 -0.36068606 0
-0.81029034 -0.45607197 -0.35430861 0
-0.73346758 -0.32357347 -0.36221415 0
-0.6716249 -0.19947207 -0.3608683 0
-0.62899208 -0.10419393 -0.35691446 0
-0.57669735 0.0040905476 -0.35861862 0
-0.53855801 0.10243869 -0.35374516 0
-0.46855688 0.24171734 -0.36270005 0
-0.41668844 0.36909294 -0.36282465 0
0.36070013 0.044668555 -0.36088949 0
-0.3830657 0.47265744 -0.35845906 0
0.40892506 0.18621206 -0.35629207 0
0.46895218 0.33050728 -0.36191538 0
0.50367832 0.44795728 -0.35847884 0
-0.98801374 -0.22607315 -0.35131937 0
-0.19157124 -0.47845685 -0.35089308 0
-0.90952921 -0.087744474 -0.35763031 0
-0.86326742 0.0098571777 -0.35376421 0
-0.12505722 -0.34510791 -0.3495959 0
-0.78814363 0.14852333 -0.36159551 0
-0.054017067 -0.20081615 -0.35090184 0
-0.76963067 0.21336281 -0.35059607 0
-0.027535439 -0.12900865 -0.34414664 0
-0.71055269 0.33881819 -0.35346326 0
0.071984291 0.059065223 -0.35834199 0
-0.62879658 0.49884105 -0.36477602 0
0.10152054 0.15216041 -0.3498863 0
0.16916084 0.29793763 -0.35679716 0
0.20439959 0.4149884 -0.34973767 0
-0.97099876 -0.09201622 -0.35779724 0
-0.92032337 0.021439314 -0.35294521 0
-0.86172104 0.13577533 -0.35786068 0
-0.81485415 0.25149727 -0.35374296 0
-0.76283121 0.3713882 -0.35490972 0
-0.71289206 0.49590981 -0.35486782 0
-0.98814201 0.45565498 -0.35922769 0
-0.23864412 0.056883931 -0.36395106 0
-0.19629383 0.16761279 -0.36066654 0
-0.12171698 0.33480811 -0.36689222 0
-0.095589161 0.42571211 -0.36092275 0
-0.76955771 -0.44959509 -0.36125094 0
-0.69808459 -0.3194977 -0.36155418 0
-0.64457488 -0.21590078 -0.36053294 0
-0.58714724 -0.098479748 -0.35787201 0
-0.51308489 0.05226922 -0.35921186 0
-0.45888567 0.16624057 -0.36107552 0
-0.40595675 0.29395425 -0.3580156 0
-0.33035421 0.45139074 -0.36579871 0
