# .PCD v0.7 - Point Cloud Data file format
VERSION 0.7
FIELDS x y z intensity
SIZE 4 4 4 4
TYPE F F F F
COUNT 1 1 1 1
WIDTH 1287
HEIGHT 1
VIEWPOINT 0 0 0 1 0 0 0
POINTS 1287
DATA ascii
-0.90493274 -0.17630328 -0.31095338 0
-0.80361199 -0.13168986 -0.32716909 0
-0.70241094 -0.15241267 -0.33825922 0
-0.59526372 -0.14305565 -0.34639132 0
-0.49885368 -0.1545846 -0.35177472 0
-0.85496497 -0.069157049 -0.30329227 0
-0.80687094 -0.026909245 -0.31928888 0
-0.697896 -0.026063448 -0.34442401 0
-0.60441566 -0.04184933 -0.34780055 0
-0.52057743 -0.062608652 -0.35194248 0
-0.89580989 0.086620435 -0.34127879 0
-0.78462958 0.038601182 -0.32579601 0
-0.69138598 0.059384663 -0.34935147 0
-0.58905911 0.045333896 -0.35342497 0
-0.52277541 0.084268421 -0.36335337 0
-0.98154116 0.1605507 -0.33920217 0
-0.91041255 0.16725913 -0.33965471 0
-0.78492928 0.14654395 -0.3504096 0
-0.69205594 0.17284346 -0.35867798 0
-0.61752439 0.14018556 -0.35769469 0
-0.54107308 0.13890788 -0.36063313 0
-0.9976213 0.25595137 -0.34259498 0
-0.89663577 0.2669085 -0.34926844 0
-0.78113961 0.25283879 -0.3564662 0
-0.68362498 0.25916746 -0.35943896 0
-0.62411785 0.26193526 -0.35915574 0
-0.52674103 0.25395611 -0.36118647 0
-0.97603464 0.36144882 -0.35200745 0
-0.90943956 0.35792646 -0.35434726 0
-0.78089929 0.35252562 -0.35930985 0
-0.67182994 0.36307505 -0.35842538 0
-0.60478258 0.35863763 -0.35596448 0
-0.50563431 0.36849719 -0.36179167 0
-0.98180604 0.447249 -0.35786262 0
-0.91087127 0.46091202 -0.35792711 0
-0.80996585 0.4595806 -0.35904926 0
-0.69552445 0.46037287 -0.36297959 0
-0.57696271 0.46383154 -0.36286604 0
-0.49343586 0.46256667 -0.35918105 0
-0.98527384 -0.16629831 -0.25937626 0
-0.91956782 -0.12903002 -0.28339419 0
-0.90118861 -0.073945262 -0.28693712 0
-0.93235898 -0.46385747 -0.2998623 0
-0.8163662 -0.4623166 -0.31598774 0
-0.72926664 -0.46523833 -0.32727829 0
-0.63726068 -0.46707276 -0.33582228 0
-0.53112864 -0.45786449 -0.33993495 0
-0.41738653 -0.46269786 -0.34359461 0
-0.30722857 -0.46783105 -0.34644985 0
-0.25296259 -0.44959807 -0.35136601 0
-0.93617582 -0.35608187 -0.31099635 0
-0.81448698 -0.35216907 -0.3281002 0
-0.70536113 -0.33373636 -0.33785784 0
-0.64352369 -0.35303009 -0.33788604 0
-0.5403192 -0.36919639 -0.33967042 0
-0.39926481 -0.35763243 -0.34586692 0
-0.31300783 -0.38063604 -0.3482081 0
-0.98823762 -0.3065244 -0.30396962 0
-0.90899444 -0.25575188 -0.32056785 0
-0.82355785 -0.25991383 -0.33215636 0
-0.72483301 -0.27919957 -0.33127204 0
-0.620049 -0.27653053 -0.3396523 0
-0.52698207 -0.24845812 -0.344329 0
-0.41987991 -0.27126873 -0.34821784 0
-0.342242 -0.28439116 -0.34700131 0
-0.8855176 -0.17896995 -0.30537862 0
-0.80958414 -0.1741627 -0.32613862 0
-0.72757721 -0.15705784 -0.33445942 0
-0.63134789 -0.16001554 -0.34090364 0
-0.53620934 -0.15628064 -0.34347379 0
-0.41591501 -0.16681552 -0.35027236 0
-0.33558321 -0.19262972 -0.35469592 0
-0.81266713 -0.058904752 -0.31178072 0
-0.72035313 -0.06642396 -0.33682269 0
-0.61654973 -0.05315081 -0.34519219 0
-0.52326798 -0.052086659 -0.34973428 0
-0.43754911 -0.059008077 -0.35407561 0
-0.34363556 -0.069617227 -0.35965076 0
-0.89188957 0.05238831 -0.33260304 0
-0.80816293 0.010281559 -0.31898984 0
-0.71171474 0.05024413 -0.34171396 0
-0.62897372 0.043628849 -0.34762156 0
-0.53741479 0.029869642 -0.3533982 0
-0.44020343 0.040537272 -0.35008514 0
-0.35176325 0.0051790942 -0.35859954 0
-0.92546725 0.12409904 -0.33936656 0
-0.83214974 0.14511061 -0.34422272 0
-0.740628 0.13684775 -0.34709734 0
-0.61604238 0.14446589 -0.35583776 0
-0.51190066 0.1405777 -0.35785249 0
-0.39984465 0.14678855 -0.3569603 0
-0.35284925 0.12686142 -0.35664338 0
-0.90938377 0.22434998 -0.3445664 0
-0.8054018 0.24141915 -0.35225821 0
-0.72719145 0.24900793 -0.35757157 0
-0.61781263 0.22398141 -0.35631549 0
-0.49379516 0.23929197 -0.35573336 0
-0.41875887 0.23682536 -0.36238271 0
-0.3386538 0.23406318 -0.35728833 0
-0.92649698 0.33189726 -0.35096666 0
-0.82469535 0.34009853 -0.35539353 0
-0.71501064 0.33318031 -0.36008865 0
-0.63467574 0.3295497 -0.35620964 0
-0.52357912 0.33142632 -0.35418573 0
-0.4054606 0.32794604 -0.35521024 0
-0.32943034 0.31337127 -0.35620305 0
-0.92019224 0.44147617 -0.35409135 0
-0.8000679 0.44995043 -0.35773975 0
-0.71279478 0.44050375 -0.35492152 0
-0.62338901 0.41719645 -0.35464823 0
-0.51808929 0.44381517 -0.35455221 0
-0.40901899 0.43849519 -0.3559913 0
-0.32057071 0.43286303 -0.35548252 0
-0.96162176 -0.49502233 -0.29287121 0
-0.94973755 -0.23965335 -0.29231095 0
-0.9971683 -0.19009133 -0.25045466 0
-0.92391205 -0.15523513 -0.2757439 0
-0.90333009 -0.084609002 -0.28044957 0
-0.93821287 -0.4375596 -0.30494443 0
-0.829386 -0.46109724 -0.31810898 0
-0.7598002 -0.45520589 -0.32728443 0
-0.64728069 -0.44567192 -0.3422946 0
-0.56047893 -0.45776489 -0.34510404 0
-0.46084547 -0.46118772 -0.3422533 0
-0.36733842 -0.46536902 -0.34423405 0
-0.25140023 -0.4548088 -0.34903666 0
-0.1464622 -0.4709236 -0.35180649 0
-0.099054813 -0.44775903 -0.35891742 0
-0.95533323 -0.34036219 -0.31258133 0
-0.86422205 -0.36550057 -0.32208622 0
-0.75588012 -0.36494616 -0.33305335 0
-0.66514325 -0.37535584 -0.33777711 0
-0.55398798 -0.35522813 -0.34344059 0
-0.44546914 -0.36047193 -0.34623224 0
-0.34949517 -0.36953914 -0.34678471 0
-0.25957465 -0.36043698 -0.35104728 0
-0.16315842 -0.3784228 -0.35188466 0
-0.94252658 -0.24451192 -0.31327772 0
-0.83799791 -0.24477512 -0.33353263 0
-0.74904323 -0.2425296 -0.33708408 0
-0.66612244 -0.26253733 -0.33841023 0
-0.59198952 -0.23912856 -0.3455328 0
-0.47023082 -0.24712962 -0.35242283 0
-0.37176847 -0.26004112 -0.35055339 0
-0.25566697 -0.26606712 -0.35301697 0
-0.17051959 -0.27130511 -0.3585698 0
-0.84917188 -0.15047333 -0.31654423 0
-0.74725723 -0.15313964 -0.33584726 0
-0.64823771 -0.1663129 -0.34209585 0
-0.55673862 -0.15844786 -0.34806198 0
-0.44302773 -0.15857577 -0.35269195 0
-0.3552947 -0.15951271 -0.3553938 0
-0.25922036 -0.14361881 -0.35944641 0
-0.19814205 -0.15068142 -0.35643232 0
-0.83998036 -0.058045544 -0.31020695 0
-0.75542498 -0.072915941 -0.33748269 0
-0.66770363 -0.06438601 -0.34417081 0
-0.5581646 -0.050747111 -0.34971368 0
-0.46704149 -0.059568815 -0.3535006 0
-0.36237335 -0.049303785 -0.35951817 0
-0.2798059 -0.049249515 -0.35549837 0
-0.19579887 -0.048208177 -0.35799453 0
-0.94564342 0.070582956 -0.33841383 0
-0.75784111 0.025587253 -0.33392885 0
-0.63153696 0.045528516 -0.354646 0
-0.55601978 0.046527732 -0.35395157 0
-0.44860101 0.035910212 -0.35982162 0
-0.35477185 0.027042352 -0.35998666 0
-0.24970818 0.057012279 -0.35799557 0
-0.19551826 0.053274818 -0.35772273 0
-0.96136642 0.14738035 -0.34256247 0
-0.84588265 0.15292595 -0.34708613 0
-0.75561929 0.14752015 -0.35051629 0
-0.66806483 0.14586332 -0.35592419 0
-0.55061507 0.14952931 -0.35692635 0
-0.44581342 0.14572267 -0.35976356 0
-0.35963774 0.13458644 -0.36232403 0
-0.24734735 0.1631373 -0.35668647 0
-0.18000746 0.14065556 -0.36035529 0
-0.96498728 0.25927094 -0.34735316 0
-0.8574338 0.26441351 -0.35363281 0
-0.74876904 0.24042442 -0.35837269 0
-0.65625691 0.25408691 -0.36209661 0
-0.56605792 0.2530466 -0.36027014 0
-0.44369864 0.2435866 -0.35773617 0
-0.34672594 0.24510662 -0.35771018 0
-0.25736904 0.26047549 -0.35575312 0
-0.17450857 0.23532374 -0.3590582 0
-0.93983269 0.3422749 -0.35312665 0
-0.83083558 0.37686852 -0.36340296 0
-0.75000668 0.34615335 -0.36134613 0
-0.65266871 0.34505376 -0.35960454 0
-0.56132245 0.32796445 -0.35873508 0
-0.44460917 0.34847859 -0.35843062 0
-0.35864854 0.33141488 -0.35612088 0
-0.24073124 0.34409425 -0.35641694 0
-0.1684494 0.32961214 -0.35637525 0
-0.95566344 0.43727803 -0.35825878 0
-0.83540082 0.45830449 -0.36030698 0
-0.74890828 0.4440909 -0.35703161 0
-0.63977528 0.46396223 -0.35716981 0
-0.53126955 0.43579358 -0.36164877 0
-0.44369245 0.44566962 -0.35890126 0
-0.33991003 0.45748577 -0.36528113 0
-0.27135706 0.43066126 -0.35969901 0
-0.15071297 0.45768428 -0.36197743 0
-0.96996284 -0.47106579 -0.29805189 0
-0.98810244 -0.24730179 -0.28124303 0
-0.949476 -0.16272794 -0.27089411 0
-0.89278841 -0.13439831 -0.28838211 0
-0.91992021 -0.062443696 -0.29075253 0
-0.89627981 -0.096507594 -0.28746629 0
-0.87716603 -0.44298232 -0.31629157 0
-0.79028416 -0.42320418 -0.32991433 0
-0.69942784 -0.40585676 -0.34377858 0
-0.60822821 -0.42126063 -0.34625116 0
-0.52316904 -0.43746436 -0.3476522 0
-0.43741894 -0.42303339 -0.35067469 0
-0.31483006 -0.42682847 -0.3533113 0
-0.2051661 -0.44855598 -0.3580924 0
-0.11899376 -0.43741226 -0.35826695 0
-0.0078470707 -0.45581028 -0.3637397 0
-0.96772099 -0.32789612 -0.31606784 0
-0.91730618 -0.35478914 -0.31978875 0
-0.84205246 -0.34185696 -0.33059737 0
-0.72854209 -0.32318389 -0.34172201 0
-0.62139297 -0.33808717 -0.34340948 0
-0.49334908 -0.32022613 -0.35246575 0
-0.38120985 -0.33599752 -0.3542257 0
-0.30135632 -0.33193499 -0.36106271 0
-0.20055532 -0.33254361 -0.36005318 0
-0.11587477 -0.34410885 -0.36034405 0
-0.029501677 -0.34661213 -0.36367446 0
-0.96392345 -0.27125081 -0.32333153 0
-0.94391751 -0.24009109 -0.32354462 0
-0.81584144 -0.24869348 -0.33651838 0
-0.74279475 -0.21495107 -0.34232116 0
-0.63720846 -0.2252012 -0.34882879 0
-0.53768516 -0.24318171 -0.35247451 0
-0.41990566 -0.24605712 -0.35802001 0
-0.29603887 -0.24356025 -0.35935506 0
-0.19444036 -0.25270557 -0.36413693 0
-0.11306286 -0.23955438 -0.35877505 0
-0.044616222 -0.22791208 -0.36184889 0
-0.89926028 -0.15553311 -0.31270337 0
-0.81334543 -0.14012794 -0.33659667 0
-0.7490499 -0.1625662 -0.34252274 0
-0.61397576 -0.13156092 -0.35019177 0
-0.50959301 -0.15426688 -0.35572881 0
-0.39965749 -0.13491036 -0.36378315 0
-0.31422448 -0.12984438 -0.3625856 0
-0.21526718 -0.13709857 -0.36324114 0
-0.1126771 -0.15607245 -0.36511254 0
-0.038123846 -0.10302098 -0.36592808 0
-0.86645031 -0.0050473996 -0.30699605 0
-0.80810976 -0.033669434 -0.32410192 0
-0.7028656 -0.033441622 -0.34932631 0
-0.61360765 -0.03531966 -0.35330978 0
-0.5083096 -0.016957603 -0.36065248 0
-0.43696594 -0.027369203 -0.36232865 0
-0.31284165 -0.040572338 -0.36437953 0
-0.19785261 -0.035899259 -0.36403799 0
-0.1081233 -0.037794586 -0.36150128 0
-0.037832499 -0.014732816 -0.36671692 0
-0.89579701 0.073447488 -0.33427614 0
-0.79817724 0.078398943 -0.33336049 0
-0.71820521 0.060130652 -0.34937817 0
-0.62798572 0.080378763 -0.35752514 0
-0.53518772 0.076599784 -0.36326134 0
-0.38183212 0.074197762 -0.36242446 0
-0.28774428 0.052026898 -0.36560526 0
-0.20517778 0.085901201 -0.36168823 0
-0.12003136 0.069437221 -0.36442417 0
-0.046933651 0.074913129 -0.36402625 0
-0.92309475 0.17998494 -0.34671503 0
-0.80124307 0.15685984 -0.35585395 0
-0.72033858 0.15970759 -0.35742375 0
-0.6114924 0.18901587 -0.3693648 0
-0.52194548 0.17188345 -0.36819997 0
-0.40505123 0.15728217 -0.36729047 0
-0.28585291 0.16889754 -0.36449638 0
-0.20353913 0.17265679 -0.36056238 0
-0.11771679 0.16922788 -0.36341023 0
-0.031005859 0.18091089 -0.36627543 0
-0.92412567 0.25755349 -0.35162956 0
-0.80439138 0.25219372 -0.35809791 0
-0.68692875 0.2603347 -0.3717857 0
-0.63379431 0.2566053 -0.36412317 0
-0.53981519 0.23827974 -0.36198193 0
-0.42360282 0.25828388 -0.36619541 0
-0.30643868 0.27198279 -0.36126101 0
-0.18669295 0.2645115 -0.36218882 0
-0.10668826 0.25400603 -0.3637774 0
-0.026835203 0.27565256 -0.3642863 0
-0.92411447 0.34708965 -0.35973048 0
-0.83738017 0.36894056 -0.3646048 0
-0.70467424 0.37587798 -0.36798894 0
-0.61847496 0.36645764 -0.36429054 0
-0.50513387 0.35628584 -0.36707267 0
-0.41681051 0.35307717 -0.36453122 0
-0.31234264 0.37931901 -0.365839 0
-0.20027733 0.36703023 -0.36472988 0
-0.096104622 0.37536743 -0.36643547 0
-0.036072254 0.35749841 -0.35771862 0
-0.97828436 0.49725297 -0.36089447 0
-0.93153715 0.45235115 -0.36758268 0
-0.81069946 0.47657582 -0.36998311 0
-0.72611451 0.46149454 -0.35810331 0
-0.60178399 0.47193974 -0.3637763 0
-0.50113106 0.45319507 -0.36350614 0
-0.39326119 0.45673284 -0.36572993 0
-0.31032705 0.45828819 -0.36193097 0
-0.20396042 0.45824352 -0.36392069 0
-0.11275196 0.44371343 -0.35934392 0
-0.010002136 0.4816117 -0.36115089 0
-0.92502284 -0.13991681 -0.28773978 0
-0.9265151 -0.08265274 -0.28647393 0
-0.33343458 -0.49946171 -0.3521778 0
-0.90679026 -0.4183228 -0.31322002 0
-0.7869885 -0.42656618 -0.32863599 0
-0.71412754 -0.44388628 -0.33426067 0
-0.53397322 -0.42983803 -0.34902644 0
-0.42937255 -0.41888329 -0.34873682 0
-0.31279635 -0.41040927 -0.35397199 0
-0.23582888 -0.45013264 -0.35428339 0
-0.10758233 -0.42821968 -0.36134785 0
-0.0068016052 -0.41790476 -0.3619476 0
0.083746433 -0.44891468 -0.36048645 0
0.18209314 -0.44065464 -0.36487579 0
-0.9326365 -0.30813119 -0.32176787 0
-0.83195353 -0.35474664 -0.33029717 0
-0.71053672 -0.32769176 -0.34427297 0
-0.6514709 -0.29717723 -0.34956405 0
-0.53232026 -0.32677063 -0.35054851 0
-0.38672233 -0.36073011 -0.35089144 0
-0.35614443 -0.299052 -0.36164734 0
-0.22226071 -0.32384342 -0.3626892 0
-0.11167717 -0.33504802 -0.36120576 0
-0.010536194 -0.31780627 -0.36286449 0
0.092115879 -0.32878816 -0.36687827 0
0.18275094 -0.34399396 -0.36551026 0
-0.89916563 -0.21500945 -0.33177018 0
-0.80684161 -0.25567767 -0.33854461 0
-0.67928481 -0.20911691 -0.34640908 0
-0.60690451 -0.24269564 -0.34976631 0
-0.4765563 -0.24815284 -0.35595223 0
-0.43780041 -0.26037714 -0.35551041 0
-0.31856585 -0.24253331 -0.36326811 0
-0.2232101 -0.23839815 -0.36315852 0
-0.15070581 -0.21587738 -0.36340851 0
-0.032624483 -0.22960946 -0.36523959 0
0.08080864 -0.21493521 -0.36811975 0
0.16415834 -0.23264368 -0.36531949 0
-0.7934835 -0.13147393 -0.34020925 0
-0.68568754 -0.14030798 -0.34706792 0
-0.58299422 -0.16120878 -0.35188735 0
-0.50963497 -0.1205894 -0.35827452 0
-0.41844654 -0.14903781 -0.36203557 0
-0.32852197 -0.14362258 -0.36298019 0
-0.22174335 -0.13118689 -0.36447978 0
-0.10680819 -0.13127245 -0.36322963 0
-0.015117407 -0.12488024 -0.36678368 0
0.086114645 -0.11289234 -0.36714968 0
0.14908934 -0.13300385 -0.36425412 0
-0.81442642 -0.05997809 -0.31805253 0
-0.72539926 -0.040348452 -0.34428561 0
-0.61323714 -0.056719407 -0.35066813 0
-0.49571109 -0.044136666 -0.36024863 0
-0.42551851 -0.035060078 -0.36337823 0
-0.31343293 -0.047087997 -0.36483204 0
-0.25591111 -0.0081121409 -0.36326325 0
-0.11420345 -0.033206582 -0.36553997 0
-0.0053632259 -0.051039435 -0.36377779 0
0.073987722 -0.028703149 -0.36057854 0
0.15357137 -0.064415336 -0.36624366 0
-0.92226195 0.09981437 -0.34361541 0
-0.79510689 0.025871087 -0.32142472 0
-0.71149182 0.065966859 -0.34832779 0
-0.62367153 0.068877131 -0.35961717 0
-0.52762723 0.034988128 -0.36104131 0
-0.43380356 0.075119808 -0.36784399 0
-0.31663418 0.063348256 -0.36594677 0
-0.21749473 0.10166764 -0.36057961 0
-0.13202691 0.049184285 -0.36587289 0
-0.023320436 0.073054217 -0.36686563 0
0.087856293 0.082014605 -0.36363888 0
0.14751792 0.058621079 -0.36484799 0
-0.81715202 0.16843385 -0.35253888 0
-0.67816043 0.14108208 -0.35615617 0
-0.6128664 0.17017387 -0.36172992 0
-0.51896262 0.16121225 -0.36999756 0
-0.43688154 0.17965797 -0.3662737 0
-0.33005261 0.17145437 -0.36741102 0
-0.23449326 0.18115102 -0.36687115 0
-0.12067413 0.17363088 -0.36558855 0
-0.024671078 0.17675194 -0.3649987 0
0.090638161 0.15543944 -0.36163142 0
0.1623466 0.19940475 -0.36643806 0
-0.90863848 0.24233653 -0.35133302 0
-0.77192044 0.26832518 -0.3612442 0
-0.76038504 0.22037505 -0.36021554 0
-0.65633655 0.27982393 -0.36601773 0
-0.51305127 0.27586946 -0.37022945 0
-0.43346763 0.26369506 -0.36521238 0
-0.33893752 0.26443192 -0.36284837 0
-0.21839786 0.28472146 -0.36846548 0
-0.1188519 0.27470097 -0.36188856 0
-0.0063436031 0.26986912 -0.36414903 0
0.098383904 0.26595688 -0.36707088 0
0.16376185 0.27659205 -0.36423406 0
-0.97427559 0.37383085 -0.35957116 0
-0.88444877 0.36320555 -0.36223027 0
-0.78384948 0.34236285 -0.36464852 0
-0.64198923 0.37052348 -0.36694926 0
-0.51226401 0.35369772 -0.36796552 0
-0.42141318 0.36954269 -0.36475316 0
-0.31413865 0.37582859 -0.36547607 0
-0.23157334 0.34899643 -0.36250573 0
-0.154109 0.37370038 -0.35660395 0
-0.005392313 0.36909088 -0.36553907 0
0.087955236 0.37269357 -0.3646591 0
0.16609788 0.352781 -0.36136645 0
-0.89029074 0.47321597 -0.36943984 0
-0.7799983 0.46096197 -0.36284557 0
-0.75406909 0.47243127 -0.36931062 0
-0.6207552 0.47231013 -0.36840612 0
-0.50011134 0.46387398 -0.36648875 0
-0.39750457 0.48049185 -0.36608499 0
-0.29370546 0.47989276 -0.36585024 0
-0.20298743 0.47076732 -0.36412752 0
-0.12413907 0.45842674 -0.36032355 0
-0.025547028 0.45085847 -0.36069688 0
0.076531649 0.47071567 -0.36074066 0
0.19132876 0.46105132 -0.36605605 0
-0.92115831 -0.49708408 -0.30308419 0
-0.9957397 -0.42507353 -0.30052775 0
-0.94767165 -0.19511208 -0.2949546 0
-0.99424839 -0.14382182 -0.25862595 0
-0.91827464 -0.14513355 -0.28484315 0
-0.90323448 -0.072725132 -0.28565806 0
-0.84210539 -0.042707454 -0.30532593 0
-0.91255069 -0.40383944 -0.31464419 0
-0.86669445 -0.43670669 -0.3168363 0
-0.74398279 -0.42737335 -0.33491069 0
-0.6091342 -0.44133696 -0.35052812 0
-0.52044463 -0.41039786 -0.35031402 0
-0.45626283 -0.42049283 -0.3526426 0
-0.36507535 -0.43595445 -0.35384679 0
-0.23591781 -0.42210165 -0.35794267 0
-0.1423955 -0.40308756 -0.3577913 0
-0.034053326 -0.43988559 -0.36202711 0
0.046141624 -0.42726094 -0.36437595 0
0.1405158 -0.42373493 -0.36808375 0
0.23459077 -0.43563882 -0.3650136 0
0.3391397 -0.45100662 -0.36567196 0
-0.95462203 -0.33081996 -0.31614119 0
-0.85717702 -0.329723 -0.32941356 0
-0.7743535 -0.32944283 -0.33743459 0
-0.62458038 -0.33022675 -0.35243911 0
-0.52403617 -0.32551321 -0.35590917 0
-0.42865062 -0.30773735 -0.35720119 0
-0.34610868 -0.30523708 -0.3643668 0
-0.26428652 -0.33824298 -0.3590242 0
-0.15587544 -0.31396148 -0.36215311 0
-0.05801487 -0.34294268 -0.36463025 0
0.03723073 -0.33372927 -0.36221874 0
0.16403913 -0.34232956 -0.3662906 0
0.27595448 -0.35534155 -0.36653996 0
0.34440351 -0.33111662 -0.36585337 0
-0.91476464 -0.21077372 -0.31492305 0
-0.85813689 -0.23443428 -0.33497474 0
-0.66718173 -0.25017312 -0.34591287 0
-0.55320263 -0.23990501 -0.35316405 0
-0.4475522 -0.23622245 -0.3584438 0
-0.36360192 -0.24272631 -0.35633263 0
-0.2603879 -0.25623631 -0.3610906 0
-0.17788839 -0.25818378 -0.3619433 0
-0.048513651 -0.23418045 -0.36323899 0
0.089911938 -0.21505749 -0.3642759 0
0.15342569 -0.24094553 -0.36466128 0
0.26873255 -0.23410645 -0.36589417 0
0.31912088 -0.22319968 -0.36396962 0
-0.81663513 -0.10720604 -0.32314777 0
-0.76569009 -0.13621002 -0.34184676 0
-0.67758203 -0.14935705 -0.34681594 0
-0.58055139 -0.12807022 -0.35091966 0
-0.44885015 -0.12835062 -0.35782564 0
-0.33583546 -0.11611307 -0.36488023 0
-0.27019334 -0.16535822 -0.36555088 0
-0.16808558 -0.13921657 -0.36903852 0
-0.077816486 -0.11445784 -0.36758202 0
0.060456514 -0.1309596 -0.37014797 0
0.16309047 -0.12418086 -0.36494091 0
0.25683498 -0.12138943 -0.36221409 0
0.32640743 -0.14282808 -0.36766011 0
-0.805444 -0.01076721 -0.3169207 0
-0.71717048 -0.012094828 -0.34702501 0
-0.65864253 -0.033674028 -0.35001314 0
-0.58285856 -0.018673314 -0.35811931 0
-0.48080516 -0.029951509 -0.36165744 0
-0.34332609 -0.03149775 -0.36408597 0
-0.22482038 -0.025316671 -0.3648532 0
-0.19021821 -0.071087249 -0.36463642 0
-0.060652733 -0.04159807 -0.36481547 0
0.054238319 -0.043393899 -0.36466664 0
0.14340734 -0.046469651 -0.36731064 0
0.27090955 -0.020908725 -0.36475897 0
0.32213426 -0.048626043 -0.36799428 0
-0.92939806 0.090583414 -0.34941983 0
-0.74950552 0.044352446 -0.33586058 0
-0.64616323 0.077549681 -0.35750836 0
-0.49697018 0.070640706 -0.36739343 0
-0.44601107 0.055088907 -0.36365101 0
-0.352283 0.061326232 -0.36702415 0
-0.28174019 0.050103944 -0.36795929 0
-0.14434266 0.072716706 -0.36389625 0
-0.064497948 0.036534265 -0.36392665 0
0.051835775 0.057122108 -0.36531878 0
0.16302514 0.055030819 -0.36585602 0
0.25600719 0.055313967 -0.36275363 0
0.30880594 0.078882135 -0.36464855 0
-0.95418191 0.17121543 -0.35015965 0
-0.83982992 0.17883226 -0.35566813 0
-0.73516536 0.15928249 -0.35848781 0
-0.62050509 0.15124384 -0.36577642 0
-0.50116563 0.16365039 -0.36957324 0
-0.36208057 0.1816434 -0.37183684 0
-0.27192235 0.18378764 -0.36901289 0
-0.14449883 0.15552999 -0.36526698 0
-0.028790474 0.15905559 -0.36770344 0
0.040342331 0.16361812 -0.36309284 0
0.15600324 0.15827712 -0.36274597 0
0.25201106 0.15619753 -0.36030522 0
0.31146216 0.14232995 -0.36442503 0
-0.99830055 0.29951423 -0.35182971 0
-0.96513057 0.25717336 -0.3538419 0
-0.86418629 0.28290665 -0.35874906 0
-0.74106121 0.26615405 -0.3671242 0
-0.62902665 0.25260946 -0.37022406 0
-0.50698304 0.29533362 -0.36534429 0
-0.4492178 0.29094192 -0.3805719 0
-0.36698461 0.26310918 -0.36888903 0
-0.2796092 0.26201275 -0.36524707 0
-0.1403687 0.2622706 -0.36565787 0
-0.04507494 0.23778011 -0.36168957 0
0.036724806 0.2872535 -0.36215842 0
0.14086461 0.24513669 -0.36683798 0
0.25169277 0.25840148 -0.36527258 0
0.33520627 0.2665318 -0.36724365 0
-0.89972401 0.39205158 -0.36243743 0
-0.86084127 0.34977415 -0.36569589 0
-0.78300476 0.35606173 -0.3649379 0
-0.62359571 0.34762385 -0.36940235 0
-0.45181775 0.36808172 -0.36606735 0
-0.36218143 0.33483005 -0.36804092 0
-0.26616549 0.3677448 -0.36520314 0
-0.15018535 0.35954314 -0.36845881 0
-0.058824301 0.35853779 -0.36646965 0
0.050956964 0.3523488 -0.36334336 0
0.1716423 0.36700085 -0.36678845 0
0.26057625 0.36868086 -0.36280504 0
0.34206724 0.3582952 -0.36493593 0
-0.88969731 0.45248327 -0.36985612 0
-0.75868559 0.46780553 -0.36784506 0
-0.61677051 0.4658083 -0.36667633 0
-0.50072527 0.44946623 -0.36115968 0
-0.34567189 0.46354723 -0.36709249 0
-0.23418331 0.4843722 -0.36853808 0
-0.13375831 0.46268511 -0.36813805 0
-0.046080351 0.47057217 -0.36420798 0
0.035875559 0.44134453 -0.36191869 0
0.15287161 0.47747877 -0.3643885 0
0.25204349 0.46869636 -0.36526483 0
0.35186291 0.47446829 -0.36016718 0
-0.9630363 -0.2137917 -0.28107849 0
-0.94701314 -0.14382209 -0.2701247 0
-0.84722686 -0.11989386 -0.30711997 0
-0.8667829 -0.052717492 -0.30156189 0
-0.87028265 -0.48155284 -0.31245363 0
-0.85800648 -0.41715068 -0.31974638 0
-0.74438286 -0.40364754 -0.33595681 0
-0.69030023 -0.46475455 -0.33794719 0
-0.58283639 -0.42202288 -0.35120624 0
-0.43471026 -0.43349954 -0.35996801 0
-0.34957552 -0.43571532 -0.35618731 0
-0.25921178 -0.43063319 -0.35472322 0
-0.15888858 -0.44740972 -0.3598941 0
-0.043758154 -0.42398825 -0.36453053 0
0.036227226 -0.42706582 -0.37029749 0
0.13756347 -0.42418945 -0.36652255 0
0.25332522 -0.41301042 -0.36544642 0
0.31501722 -0.44971886 -0.36994556 0
0.42349458 -0.42829105 -0.36618108 0
0.53593063 -0.43459615 -0.36686835 0
-0.95292974 -0.35603645 -0.3132371 0
-0.85624623 -0.32567227 -0.3295787 0
-0.742764 -0.30437666 -0.3437402 0
-0.64144874 -0.31582642 -0.34319931 0
-0.56497788 -0.32041264 -0.35083044 0
-0.48752213 -0.35069537 -0.35553548 0
-0.36404562 -0.33618307 -0.360735 0
-0.27720308 -0.33982736 -0.35811013 0
-0.1549511 -0.31918094 -0.36517984 0
-0.068493366 -0.34002337 -0.3659465 0
0.031598568 -0.32819772 -0.36850196 0
0.13687611 -0.33640483 -0.36254114 0
0.20933986 -0.33579916 -0.36445141 0
0.3439467 -0.33538151 -0.36806092 0
0.45685577 -0.31993577 -0.36797881 0
0.51638365 -0.32160163 -0.36433485 0
-0.95228887 -0.26720661 -0.31517005 0
-0.87668872 -0.21002907 -0.3289451 0
-0.75143075 -0.22313508 -0.34447575 0
-0.58341885 -0.21752115 -0.35324234 0
-0.40030789 -0.24468406 -0.36036509 0
-0.29132366 -0.24227287 -0.36248916 0
-0.17711282 -0.2300722 -0.36727735 0
-0.051693916 -0.2290822 -0.36799023 0
0.049333096 -0.22603433 -0.3677527 0
0.11264968 -0.24402788 -0.36686936 0
0.23264718 -0.21486898 -0.36420909 0
0.32985663 -0.23896722 -0.36616057 0
0.42912793 -0.24939126 -0.36406571 0
0.50192928 -0.20416491 -0.36476624 0
-0.87393737 -0.17013969 -0.31879261 0
-0.76349783 -0.10395286 -0.33618888 0
-0.65382028 -0.15025762 -0.34559011 0
-0.52703667 -0.15258723 -0.35543251 0
-0.44241619 -0.14181364 -0.35582128 0
-0.40678406 -0.17439358 -0.36296919 0
-0.27634668 -0.12621026 -0.36508083 0
-0.17779016 -0.13269192 -0.37189597 0
-0.074138403 -0.13653064 -0.3724781 0
0.0057461262 -0.12734121 -0.3668921 0
0.13160944 -0.11776298 -0.36619389 0
0.23716927 -0.13176322 -0.36677706 0
0.37058377 -0.1276322 -0.3707436 0
0.44595861 -0.14711788 -0.36455226 0
0.52684712 -0.10349998 -0.37259609 0
-0.85917926 -0.0049683098 -0.31455457 0
-0.74911189 -0.025523121 -0.33290607 0
-0.6468153 -0.058964454 -0.35229778 0
-0.55311942 -0.055412311 -0.35524595 0
-0.44260955 -0.030641649 -0.36296535 0
-0.3159194 0.017048405 -0.37038672 0
-0.27422571 -0.024232544 -0.36947909 0
-0.16304255 -0.0084101446 -0.37635177 0
-0.071713448 -0.038539585 -0.36557859 0
0.048460245 -0.0454702 -0.36605984 0
0.16001463 -0.050157987 -0.36600316 0
0.26211667 -0.036495294 -0.36420467 0
0.34853697 -0.033110298 -0.36629671 0
0.42567706 -0.03326878 -0.36676905 0
0.51230383 -0.042529326 -0.36971757 0
-0.93803287 0.092164122 -0.34744528 0
-0.74350309 0.04636769 -0.33398587 0
-0.65797806 0.046196934 -0.35758215 0
-0.53771329 0.071767844 -0.36943781 0
-0.46626306 0.06550242 -0.36677092 0
-0.3363564 0.061423469 -0.36510795 0
-0.16178799 0.07957539 -0.37644449 0
-0.071024895 0.068604685 -0.36755586 0
0.0076951981 0.063518211 -0.36776739 0
0.10650539 0.061383054 -0.36812732 0
0.23149514 0.055044197 -0.36605316 0
0.34328985 0.070813365 -0.36473936 0
0.41064739 0.061026111 -0.36286622 0
0.50862098 0.056487352 -0.36878484 0
-0.96148562 0.17813011 -0.34880137 0
-0.82803893 0.16523951 -0.35544682 0
-0.65268826 0.16823563 -0.36649707 0
-0.57204795 0.16620257 -0.37097606 0
-0.45368624 0.14753063 -0.36900681 0
-0.3206749 0.15745082 -0.36781067 0
-0.25927091 0.15107398 -0.36725652 0
-0.18893909 0.15578613 -0.36861384 0
-0.090350389 0.18032405 -0.3677046 0
0.0090186596 0.16726445 -0.36677787 0
0.13976479 0.16155989 -0.3672922 0
0.236619 0.15899318 -0.36594605 0
0.35228801 0.16334513 -0.36554274 0
0.42201853 0.1517165 -0.36433476 0
0.50946474 0.15089954 -0.36770204 0
-0.95995045 0.27104872 -0.3557812 0
-0.83768129 0.28528967 -0.36247993 0
-0.73100376 0.27921203 -0.36512172 0
-0.70618463 0.23266892 -0.36619523 0
-0.57256603 0.27135321 -0.37311333 0
-0.44560027 0.24894212 -0.36912888 0
-0.29348588 0.28507155 -0.37209955 0
-0.16647172 0.24340279 -0.36388764 0
-0.091518641 0.27762374 -0.36491722 0
-0.0062232018 0.25372353 -0.36055735 0
0.12655807 0.25414973 -0.36346865 0
0.25312877 0.27446648 -0.36353946 0
0.33614564 0.25694266 -0.36684084 0
0.43544459 0.27078605 -0.3642621 0
0.51214528 0.24397029 -0.36579517 0
-0.96783543 0.3359237 -0.3606649 0
-0.88148689 0.38479915 -0.36374474 0
-0.73454762 0.34196633 -0.36682647 0
-0.70120978 0.4069075 -0.37348631 0
-0.57563329 0.3660619 -0.36951596 0
-0.41326332 0.37936467 -0.37374189 0
-0.40721083 0.34219539 -0.37662619 0
-0.29665065 0.36924046 -0.36844248 0
-0.14568329 0.36899361 -0.37422556 0
-0.07635498 0.36812794 -0.36554825 0
0.039638042 0.37707829 -0.36824876 0
0.13362145 0.37545449 -0.3669931 0
0.21857262 0.35538143 -0.36506718 0
0.35778189 0.37959582 -0.36749035 0
0.46810842 0.38357624 -0.3680163 0
0.5363102 0.34702498 -0.36789864 0
-0.8804698 0.48583543 -0.37185079 0
-0.69437766 0.48742509 -0.37206495 0
-0.55535412 0.47388592 -0.37069246 0
-0.41495395 0.47210693 -0.36930811 0
-0.27805161 0.46808338 -0.36914659 0
-0.1785388 0.44780803 -0.36159331 0
-0.054079056 0.47655985 -0.366359 0
0.043649673 0.45237207 -0.3655405 0
0.15305471 0.47571206 -0.36702207 0
0.25000501 0.47518286 -0.36725017 0
0.3409729 0.44325083 -0.36499801 0
0.43916273 0.4755013 -0.36244985 0
0.54938984 0.44070557 -0.36590752 0
-0.95431757 -0.20737553 -0.27621061 0
-0.92026591 -0.13363686 -0.27720195 0
-0.87036943 -0.11855201 -0.2970829 0
-0.79013109 -0.43983111 -0.3377077 0
-0.67414856 -0.41643524 -0.35634628 0
-0.55633283 -0.4354136 -0.36229998 0
-0.41665149 -0.4226152 -0.36587399 0
-0.28911948 -0.43829313 -0.36987793 0
-0.19177723 -0.40955085 -0.37082547 0
-0.10189676 -0.41130066 -0.36857069 0
-0.00032567978 -0.44841772 -0.37738296 0
0.13379359 -0.4184421 -0.37826946 0
0.23613787 -0.42354605 -0.37745538 0
0.33069658 -0.43139082 -0.37621522 0
0.4332974 -0.43078244 -0.37767935 0
0.52054214 -0.43480092 -0.37348178 0
0.62958336 -0.43829474 -0.3770375 0
0.73319387 -0.4381524 -0.37467033 0
-0.94547343 -0.28081197 -0.33370143 0
-0.88477111 -0.31407902 -0.33770198 0
-0.80136967 -0.36966309 -0.34406775 0
-0.71748042 -0.34152386 -0.35613981 0
-0.59624648 -0.34261841 -0.35959169 0
-0.46722221 -0.30200103 -0.36496228 0
-0.42506957 -0.34114116 -0.37017673 0
-0.31636786 -0.34112808 -0.3715176 0
-0.23605871 -0.32432508 -0.36844212 0
-0.09402895 -0.32745287 -0.37659347 0
0.030719995 -0.33552879 -0.3802765 0
0.1000824 -0.32436565 -0.37395456 0
0.20042372 -0.33491132 -0.37280369 0
0.32186723 -0.32886213 -0.37818843 0
0.4145298 -0.33957535 -0.37731215 0
0.51537967 -0.32448357 -0.37576741 0
0.6184876 -0.356208 -0.37430722 0
0.71462607 -0.34136218 -0.37524557 0
-0.8984282 -0.21620326 -0.34569353 0
-0.7567997 -0.24226002 -0.35158914 0
-0.60140967 -0.22467679 -0.36243507 0
-0.46213293 -0.21379152 -0.370942 0
-0.3460269 -0.27459174 -0.37074965 0
-0.27618861 -0.20244867 -0.37615329 0
-0.21066308 -0.25859174 -0.37830603 0
-0.10614705 -0.22882783 -0.38081676 0
0.0031576157 -0.22935519 -0.37721395 0
0.085867167 -0.21655111 -0.37341407 0
0.1992085 -0.22373824 -0.37549767 0
0.2917757 -0.24456522 -0.37390321 0
0.40505314 -0.24061298 -0.37380585 0
0.5124259 -0.23199697 -0.37449867 0
0.62864661 -0.2475978 -0.37621725 0
0.68953896 -0.23163114 -0.37350777 0
-0.86564064 -0.15917547 -0.3372409 0
-0.7963531 -0.13066626 -0.33794636 0
-0.62349987 -0.12154856 -0.36052692 0
-0.50268912 -0.15449145 -0.36364353 0
-0.37193346 -0.12794192 -0.37503868 0
-0.2975564 -0.14215578 -0.379493 0
-0.14327383 -0.1315271 -0.37443176 0
-0.10288644 -0.14969678 -0.38372159 0
0.0016720295 -0.13435806 -0.37845454 0
0.093633652 -0.1154262 -0.37681219 0
0.21107388 -0.13115402 -0.38000712 0
0.29305458 -0.13602234 -0.37631494 0
0.40195155 -0.14356677 -0.37239563 0
0.53610015 -0.1350368 -0.37489992 0
0.61980367 -0.14439882 -0.37673214 0
0.68058896 -0.116329 -0.3740451 0
-0.78267002 -0.01747424 -0.33561611 0
-0.68408823 -0.035402443 -0.36094221 0
-0.49516606 -0.031709991 -0.37212396 0
-0.3787148 -0.03981464 -0.37807286 0
-0.26310062 -0.04807933 -0.37876824 0
-0.12734914 -0.044219986 -0.37887624 0
-0.010987282 -0.029192345 -0.37620178 0
0.092666149 -0.033253435 -0.37720042 0
0.19371128 -0.037392948 -0.37660539 0
0.27521014 -0.048434507 -0.37293386 0
0.39442897 -0.049646929 -0.37284094 0
0.5055337 -0.044387832 -0.37595063 0
0.61021543 -0.027400261 -0.37578547 0
0.68124127 -0.030169955 -0.37510979 0
-0.9528017 0.094486326 -0.35548228 0
-0.6995492 0.068093091 -0.35915655 0
-0.46672082 0.097814836 -0.37655121 0
-0.42123675 0.044519279 -0.37491703 0
-0.27127194 0.04644499 -0.37677798 0
-0.12983036 0.0464398 -0.37827164 0
0.012396097 0.069480531 -0.37358981 0
0.076523542 0.062081795 -0.37301275 0
0.18552136 0.080809072 -0.37441206 0
0.29859161 0.068585657 -0.37851766 0
0.40142846 0.061241932 -0.37605178 0
0.50348735 0.069914326 -0.37403697 0
0.61153841 0.052709661 -0.36999089 0
0.68287301 0.051296476 -0.37543246 0
-0.96020174 0.19134001 -0.36092517 0
-0.82868099 0.16977534 -0.36515564 0
-0.67821479 0.1557024 -0.37041348 0
-0.53050828 0.1592481 -0.38095748 0
-0.40853763 0.17993948 -0.37670213 0
-0.25881267 0.17268643 -0.3785584 0
-0.12483525 0.16207138 -0.378346 0
0.007997036 0.17899173 -0.37948123 0
0.10650969 0.18704459 -0.3790105 0
0.20067286 0.1930223 -0.37655193 0
0.28108072 0.17170449 -0.37271026 0
0.4089787 0.16091365 -0.37371564 0
0.51307893 0.19373772 -0.37453905 0
0.60640931 0.15565783 -0.37347353 0
0.69383335 0.17168902 -0.37651026 0
-0.8381815 0.27097276 -0.37048274 0
-0.69475746 0.28634956 -0.38085744 0
-0.53959394 0.28632411 -0.37768224 0
-0.53461504 0.23336436 -0.38016319 0
-0.38703418 0.2694442 -0.38039255 0
-0.24557686 0.27674842 -0.37987503 0
-0.12734222 0.27472672 -0.37533557 0
0.0075228214 0.26348594 -0.37747207 0
0.13225746 0.28549409 -0.38333213 0
0.20282531 0.28948528 -0.37454504 0
0.32195687 0.29152155 -0.38025412 0
0.39331031 0.26508626 -0.3750841 0
0.51855803 0.27143332 -0.37501055 0
0.62084007 0.24517763 -0.36991361 0
0.69107223 0.291787 -0.37196323 0
-0.8275218 0.37450245 -0.38246 0
-0.70001316 0.36639151 -0.38100407 0
-0.54757977 0.33127341 -0.37437433 0
-0.5166676 0.39364159 -0.38053739 0
-0.37845492 0.36663082 -0.3798753 0
-0.23471832 0.35109118 -0.3805328 0
-0.088812828 0.38546151 -0.38189691 0
0.015188694 0.35227111 -0.37665114 0
0.1016221 0.36556232 -0.37230119 0
0.22049379 0.37547719 -0.37597665 0
0.33856249 0.37454867 -0.38154584 0
0.40274143 0.35594329 -0.37405163 0
0.52391934 0.36933461 -0.37438747 0
0.63400054 0.36025688 -0.37357658 0
0.70902109 0.37351477 -0.37282762 0
-0.89282751 0.44799078 -0.37754554 0
-0.6833663 0.4579902 -0.38227183 0
-0.51800299 0.47184187 -0.37713343 0
-0.34616876 0.48226789 -0.38407481 0
-0.19971299 0.46315441 -0.38563192 0
-0.10817862 0.45804873 -0.3734864 0
0.024295807 0.45863521 -0.37437537 0
0.14334249 0.47053069 -0.37882322 0
0.23110318 0.47221377 -0.37395251 0
0.33010507 0.47229382 -0.37402183 0
0.42320752 0.4699437 -0.37356696 0
0.51698565 0.4595609 -0.37278467 0
0.62567568 0.45909506 -0.37059957 0
0.73062444 0.47186652 -0.37251943 0
-0.98876834 -0.46675462 -0.30875558 0
-0.91253281 -0.44634086 -0.31977111 0
-0.99509406 -0.22443011 -0.28329352 0
-0.93473411 -0.2052781 -0.3050814 0
-0.88270473 -0.11935014 -0.30403805 0
-0.85481095 -0.03917484 -0.31022143 0
-0.14494205 -0.4958289 -0.36315453 0
-0.74213696 -0.40625957 -0.34476507 0
-0.64520335 -0.45123884 -0.35069263 0
-0.48662496 -0.43545997 -0.35615838 0
-0.34225178 -0.4426412 -0.35954693 0
-0.12651467 -0.42086548 -0.37062335 0
-0.0067002773 -0.43060958 -0.3646321 0
0.042271376 -0.44056612 -0.37443817 0
0.13898087 -0.44442898 -0.36992908 0
0.28087568 -0.42951122 -0.3751435 0
0.35939169 -0.46149781 -0.37023371 0
0.45840263 -0.4611468 -0.37025255 0
0.56426573 -0.42162818 -0.36807582 0
0.65392685 -0.45329162 -0.36897424 0
0.77788091 -0.44029349 -0.37113267 0
0.87012792 -0.44931415 -0.36770222 0
0.93771172 -0.42868173 -0.37149075 0
-0.75911093 -0.34012601 -0.34964651 0
-0.6512804 -0.35247141 -0.35354507 0
-0.55235481 -0.34508055 -0.35025567 0
-0.4668777 -0.3501212 -0.36661774 0
-0.3778975 -0.34907579 -0.35920256 0
-0.23188424 -0.35280761 -0.36421937 0
-0.094967365 -0.33640394 -0.37352431 0
0.028395653 -0.32591933 -0.37737328 0
0.1496923 -0.32561234 -0.36692181 0
0.2503612 -0.3609868 -0.37061226 0
0.35114408 -0.34928176 -0.3668257 0
0.45123339 -0.35606503 -0.37263805 0
0.56353498 -0.33683029 -0.36965185 0
0.68593693 -0.33824366 -0.36826485 0
0.77384448 -0.31973463 -0.36795533 0
0.87046981 -0.34779871 -0.36838272 0
-0.81173134 -0.2368041 -0.34513742 0
-0.75365138 -0.26685593 -0.35723367 0
-0.67538738 -0.24224272 -0.35169864 0
-0.52364492 -0.27000964 -0.36018527 0
-0.37037945 -0.21868345 -0.37016222 0
-0.27047873 -0.23451197 -0.36513758 0
-0.1283567 -0.24856405 -0.37274265 0
0.0062880516 -0.21187854 -0.37465751 0
0.075678587 -0.2508367 -0.37046608 0
0.2213819 -0.2352047 -0.36702511 0
0.35284138 -0.21685769 -0.37047505 0
0.43079019 -0.24025585 -0.37118632 0
0.5600667 -0.23452809 -0.36971027 0
0.65950799 -0.255218 -0.37047029 0
0.7436583 -0.24332844 -0.36753106 0
0.86245799 -0.2426143 -0.36855954 0
-0.79489207 -0.16253346 -0.35108569 0
-0.77643824 -0.097606011 -0.34936821 0
-0.67033887 -0.14977923 -0.35549212 0
-0.51464152 -0.13804252 -0.36602435 0
-0.40457177 -0.12447032 -0.36782286 0
-0.27128243 -0.14812927 -0.37086993 0
-0.11336541 -0.13453804 -0.3786245 0
0.0051727295 -0.14026886 -0.37530714 0
0.11026669 -0.12067945 -0.37050423 0
0.12796855 -0.1607462 -0.37429845 0
0.26625705 -0.14259437 -0.36793002 0
0.40293908 -0.12851557 -0.36644071 0
0.50161123 -0.12310018 -0.36826694 0
0.58557653 -0.139522 -0.37221599 0
0.67354369 -0.16518402 -0.36566877 0
0.7714467 -0.14711845 -0.36767623 0
0.86838341 -0.15873967 -0.36943087 0
-0.68653417 -0.028296582 -0.35954845 0
-0.66858435 -0.084278762 -0.35761851 0
-0.54038572 -0.035029866 -0.36635286 0
-0.44888163 0.010783805 -0.36892319 0
-0.32066011 -0.019837005 -0.37186074 0
-0.24628234 -0.074701741 -0.37894869 0
-0.12673807 -0.042326856 -0.37593788 0
-0.029499531 -0.040327925 -0.36739576 0
0.057198048 -0.023067217 -0.37329724 0
0.17757654 -0.070693649 -0.372711 0
0.23762488 -0.025536347 -0.37299141 0
0.35297608 -0.032463577 -0.3704946 0
0.47127366 -0.039916594 -0.36692709 0
0.58336949 -0.031658433 -0.36720473 0
0.66676402 -0.047881208 -0.36959773 0
0.76696754 -0.029813971 -0.3693586 0
0.86129904 -0.052530978 -0.37160999 0
-0.69558859 0.058094289 -0.36029604 0
-0.5613904 0.056366511 -0.37069768 0
-0.4142797 0.089474767 -0.37812427 0
-0.28790998 0.073453404 -0.36827886 0
-0.14785576 0.066592813 -0.37030733 0
0.0035948753 0.0736847 -0.37520123 0
0.10714865 0.034803383 -0.36992347 0
0.20676184 0.039773621 -0.36513039 0
0.23032594 0.055264238 -0.37081382 0
0.35716891 0.037288792 -0.37137854 0
0.46091247 0.072817132 -0.36956859 0
0.56970572 0.069723085 -0.36326054 0
0.67174721 0.056832671 -0.36603132 0
0.75038362 0.065580726 -0.36747459 0
0.85947728 0.054262914 -0.36752999 0
-0.90151978 0.11881409 -0.35076362 0
-0.87166953 0.21366419 -0.36335355 0
-0.73464251 0.18506043 -0.36958957 0
-0.58569431 0.1720733 -0.37621403 0
-0.41101694 0.16634214 -0.3780005 0
-0.27293992 0.16750586 -0.37083393 0
-0.14516306 0.16303794 -0.36977869 0
-0.0022230148 0.16405545 -0.37245807 0
0.068289757 0.18553872 -0.37409702 0
0.16333961 0.13739347 -0.37302059 0
0.2433629 0.18792421 -0.37232691 0
0.34023881 0.15405387 -0.37384504 0
0.46195269 0.14984439 -0.36870402 0
0.58754373 0.16989899 -0.36611864 0
0.66705394 0.16271323 -0.36781785 0
0.78167129 0.1568625 -0.36769161 0
0.87785888 0.16836071 -0.36669937 0
-0.87954283 0.2787993 -0.36672002 0
-0.76210046 0.26704046 -0.37034011 0
-0.6062808 0.27380675 -0.37222758 0
-0.43471599 0.25687835 -0.37016016 0
-0.27004504 0.24206278 -0.37003222 0
-0.1279695 0.24825968 -0.37240589 0
-0.0033240318 0.27626151 -0.36965561 0
0.13674879 0.27043331 -0.37349105 0
0.24536753 0.25028455 -0.37129241 0
0.3377037 0.27573916 -0.37018162 0
0.45681834 0.25628972 -0.37063116 0
0.5886867 0.27068955 -0.37281832 0
0.66918421 0.26346588 -0.36538261 0
0.77099609 0.26957819 -0.36452675 0
0.87415886 0.26267245 -0.36889678 0
0.91821671 0.25394523 -0.37486017 0
-0.93080401 0.35922056 -0.36535543 0
-0.79822803 0.3845295 -0.37086946 0
-0.77297282 0.33394 -0.37487125 0
-0.5802784 0.37503681 -0.3762511 0
-0.40360975 0.37869498 -0.37478453 0
-0.26198912 0.36482346 -0.36844885 0
-0.12998724 0.341254 -0.3691147 0
-0.0088942051 0.36383536 -0.36516699 0
0.14956307 0.36366892 -0.37376681 0
0.25136495 0.35430646 -0.36928236 0
0.34616041 0.37313318 -0.36874476 0
0.45155358 0.36306551 -0.37136596 0
0.5691154 0.36145544 -0.36866891 0
0.69347835 0.37686422 -0.36690888 0
0.78566051 0.37107298 -0.36564985 0
0.8880353 0.36156973 -0.36633706 0
0.91792822 0.3918868 -0.36805844 0
-0.95194149 0.46272898 -0.3715252 0
-0.78494573 0.44553685 -0.37230039 0
-0.59557748 0.4402577 -0.36987501 0
-0.41390824 0.49341473 -0.36747086 0
-0.3773241 0.46460032 -0.37866494 0
-0.22492266 0.47946918 -0.37387615 0
-0.099752188 0.44681141 -0.37310296 0
0.0075280666 0.47461465 -0.36460724 0
0.034190178 0.45190588 -0.37310535 0
0.14871645 0.44335377 -0.37002048 0
0.26723504 0.46070188 -0.3686384 0
0.35553598 0.45398617 -0.36726749 0
0.47404528 0.46388122 -0.37242126 0
0.55694747 0.45971105 -0.36998194 0
0.65651274 0.44909242 -0.36805964 0
0.77167535 0.46822143 -0.36768129 0
0.85990119 0.44602892 -0.36839122 0
0.9454608 0.47783405 -0.37000209 0
-0.84971595 -0.41056162 -0.33022079 0
-0.73340869 -0.47241193 -0.33846393 0
-0.90946484 -0.33289745 -0.32925183 0
-0.94914126 -0.23348559 -0.32049245 0
-0.92945576 -0.16761982 -0.29796714 0
-0.84740162 -0.090310939 -0.31068298 0
-0.8080399 -0.021634262 -0.32581991 0
-0.77374148 -0.050143786 -0.33929756 0
-0.78000736 0.058893926 -0.33514172 0
0.19144058 -0.41187772 -0.36206084 0
0.29185009 -0.44194853 -0.35817838 0
0.42397261 -0.41814989 -0.36298299 0
0.53984284 -0.42501125 -0.35623407 0
0.65249705 -0.44941598 -0.35570514 0
0.77090216 -0.4461872 -0.35373017 0
0.86639786 -0.44360241 -0.35687637 0
0.95696211 -0.44451055 -0.3554695 0
0.17508698 -0.3224189 -0.36056525 0
0.29564619 -0.39030218 -0.36060023 0
0.37240696 -0.30483431 -0.35424763 0
0.44362116 -0.38131365 -0.35612667 0
0.54630852 -0.32539198 -0.35677099 0
0.64686108 -0.36240697 -0.35431489 0
0.72868943 -0.34790826 -0.34763587 0
0.84670067 -0.33470041 -0.35281342 0
0.95923781 -0.35151112 -0.35594922 0
0.18244934 -0.26735929 -0.36341807 0
0.48728609 -0.24743666 -0.35685402 0
0.59383202 -0.23653458 -0.35783693 0
0.66445065 -0.26447868 -0.35463667 0
0.75327516 -0.23227569 -0.34994236 0
0.85886002 -0.23454185 -0.35289443 0
0.96770835 -0.24343303 -0.3535693 0
0.36809063 -0.14722872 -0.35571846 0
0.5596652 -0.15179849 -0.35917118 0
0.64482856 -0.14445323 -0.35686183 0
0.75214934 -0.13952357 -0.35268021 0
0.86649466 -0.14498037 -0.35158664 0
0.94970274 -0.14845829 -0.3511773 0
0.26773 -0.026951469 -0.35928363 0
0.34315205 -0.060643606 -0.36384693 0
0.47918487 -0.054673187 -0.35701293 0
0.55950928 -0.047144696 -0.35149521 0
0.63962698 -0.056081988 -0.35129365 0
0.7511692 -0.049835157 -0.35143638 0
0.84078646 -0.048796505 -0.34880817 0
0.93922353 -0.069064386 -0.34931704 0
0.16453099 0.015549332 -0.36132714 0
0.26379323 0.017190732 -0.3582167 0
0.37406135 0.034816027 -0.35756829 0
0.47274709 0.067595363 -0.35499927 0
0.53895903 0.032844435 -0.3590017 0
0.6506927 0.048661336 -0.35370168 0
0.75233817 0.054256313 -0.35802364 0
0.85692739 0.05746894 -0.35441488 0
0.94711185 0.037794366 -0.35107392 0
0.4868083 0.15843239 -0.35736075 0
0.56115794 0.12883374 -0.35055941 0
0.67839193 0.16112031 -0.35932523 0
0.75480556 0.13549642 -0.35078931 0
0.86799049 0.12726136 -0.35126093 0
0.95849061 0.14310975 -0.35247001 0
0.28562808 0.23109779 -0.36100268 0
0.44672894 0.2344449 -0.35940835 0
0.58430672 0.28249773 -0.35282609 0
0.64980125 0.24576235 -0.35833758 0
0.74031568 0.24469429 -0.35118872 0
0.84774947 0.24543878 -0.35321298 0
0.94196892 0.2500236 -0.35204244 0
0.28999949 0.38534105 -0.35754383 0
0.56201601 0.35678786 -0.35333872 0
0.65533185 0.32862607 -0.34820008 0
0.77510095 0.37057367 -0.35585403 0
0.85247588 0.34393844 -0.35058576 0
0.95143151 0.36149782 -0.35161567 0
0.41125011 0.41563886 -0.35841233 0
0.54374647 0.45790651 -0.35310772 0
0.65411162 0.43503618 -0.35421246 0
0.75810862 0.454651 -0.35473284 0
0.84932089 0.46188933 -0.3487536 0
0.95697355 0.45869267 -0.34732425 0
-0.93700337 -0.43953568 -0.29758292 0
-0.76219153 -0.44292399 -0.3209247 0
-0.53279495 -0.45035118 -0.33841404 0
-0.35206079 -0.44831023 -0.34546137 0
-0.22048926 -0.44551358 -0.34988976 0
-0.08945775 -0.43449846 -0.35338801 0
0.057240486 -0.4621236 -0.35905999 0
0.18165398 -0.47637439 -0.35787773 0
0.38969469 -0.48656011 -0.35293272 0
-0.97953773 -0.3421362 -0.30180329 0
-0.85656428 -0.35645318 -0.31708592 0
-0.72028375 -0.31381729 -0.33265084 0
-0.6987071 -0.3652994 -0.3358759 0
-0.56427884 -0.32966834 -0.33929649 0
-0.35680366 -0.35883281 -0.35116631 0
-0.25771117 -0.35313168 -0.3488043 0
-0.15409613 -0.35394311 -0.34606063 0
0.034724236 -0.36692044 -0.35958847 0
0.14684176 -0.38909498 -0.35245275 0
0.25110817 -0.34755328 -0.35143661 0
0.36896944 -0.35039344 -0.35237864 0
0.45883131 -0.31363133 -0.34882405 0
0.55272293 -0.3068285 -0.34673914 0
-0.93295336 -0.23170924 -0.29571617 0
-0.8651216 -0.23626699 -0.32972407 0
-0.74269462 -0.25554979 -0.32933098 0
-0.53872275 -0.21660309 -0.34850261 0
-0.38418365 -0.25006962 -0.35364419 0
-0.27758336 -0.2357578 -0.35322991 0
-0.13331199 -0.22859593 -0.35785669 0
0.015124083 -0.27096164 -0.35698628 0
0.16004157 -0.23528412 -0.35867229 0
0.25424361 -0.24772453 -0.35417193 0
0.36043835 -0.24159041 -0.35264552 0
0.45882225 -0.21897225 -0.35063708 0
-0.84258342 -0.15395707 -0.31329244 0
-0.72450089 -0.14609091 -0.33649436 0
-0.55612063 -0.13541862 -0.34674978 0
-0.41160631 -0.10552114 -0.35377857 0
-0.35597062 -0.1273991 -0.35533285 0
-0.26870108 -0.14291713 -0.36137277 0
-0.12910271 -0.13902128 -0.36018419 0
-0.0054471493 -0.10565949 -0.35381699 0
0.022178888 -0.1623804 -0.36009127 0
0.13900828 -0.14821799 -0.35461986 0
0.24941802 -0.17932497 -0.35397196 0
0.45069933 -0.13342558 -0.34968671 0
-0.75855994 -0.051679175 -0.32324666 0
-0.603019 0.002023126 -0.34784257 0
-0.59340858 -0.058559082 -0.34402263 0
-0.46665144 -0.041081794 -0.34831309 0
-0.31201196 -0.047543578 -0.35565397 0
-0.1276176 -0.061099183 -0.36085692 0
0.013118505 -0.016504642 -0.35846594 0
0.14336371 -0.043086398 -0.35617334 0
0.23289061 -0.097228535 -0.35060155 0
0.35055995 -0.094574742 -0.35186106 0
-0.95015454 0.089269087 -0.33517194 0
-0.75920343 0.039047956 -0.32115427 0
-0.70141792 0.031350832 -0.33989161 0
-0.59179902 0.082408518 -0.35727304 0
-0.46916342 0.081893042 -0.35575175 0
-0.31249142 0.0091218967 -0.355405 0
-0.285815 0.079846501 -0.36163229 0
-0.1626184 0.025340648 -0.35202971 0
0.0052993298 0.081674844 -0.35596785 0
0.13769841 0.069875382 -0.35427779 0
0.23672056 0.067370988 -0.35105133 0
0.347471 0.084895417 -0.35044768 0
0.54105401 0.063034341 -0.34634852 0
-0.9571197 0.15454924 -0.33857995 0
-0.8292644 0.19784102 -0.34388196 0
-0.78575516 0.15491152 -0.3495346 0
-0.64121175 0.16327819 -0.35521209 0
-0.47964644 0.1684085 -0.35207418 0
-0.30825663 0.14931318 -0.35517213 0
-0.1470139 0.16248934 -0.35444969 0
0.016041756 0.15815333 -0.35777867 0
0.15175033 0.16987157 -0.35654232 0
0.2603488 0.1498858 -0.35604483 0
0.35058928 0.12764753 -0.35065138 0
0.76910043 0.15159449 -0.34024107 0
-0.9514029 0.24124001 -0.34597892 0
-0.83531022 0.26647526 -0.34854034 0
-0.66820645 0.25127202 -0.35564858 0
-0.44963694 0.26998615 -0.35789052 0
-0.30649185 0.28472126 -0.35304844 0
-0.286304 0.24304125 -0.3592211 0
-0.13071394 0.2754679 -0.3564887 0
0.021550894 0.24140544 -0.35760707 0
0.14862776 0.26006934 -0.35379317 0
0.25435376 0.27458587 -0.35169137 0
0.36635065 0.26331261 -0.35175669 0
0.46885753 0.28671727 -0.34942281 0
-0.85905647 0.36844793 -0.35438988 0
-0.64712548 0.35190755 -0.35882723 0
-0.44924927 0.37863868 -0.35522944 0
-0.29148746 0.3472231 -0.35532463 0
-0.11181045 0.36050493 -0.35913435 0
0.032544851 0.35904193 -0.35727251 0
0.15489197 0.35378987 -0.35262179 0
0.26298594 0.32718363 -0.35236207 0
0.36904621 0.32713449 -0.35039821 0
0.47801423 0.33016557 -0.35034302 0
-0.85742116 0.47661802 -0.36034727 0
-0.63907027 0.46730083 -0.35755423 0
-0.42046165 0.47625676 -0.35970724 0
-0.26966357 0.43482861 -0.35834441 0
-0.10911369 0.46076065 -0.35633171 0
0.039937973 0.48093492 -0.35463831 0
0.18196321 0.46111059 -0.35572723 0
0.2783103 0.43938544 -0.3520807 0
0.37805033 0.44913486 -0.347653 0
0.49103141 0.45425785 -0.34832293 0
-0.97284079 -0.23049484 -0.2656973 0
-0.93103123 -0.1257643 -0.26370949 0
-0.86654186 -0.13628386 -0.28617066 0
-0.86044168 -0.067266077 -0.28753185 0
0.90570688 0.49516922 -0.36334011 0
-0.7025485 -0.45888978 -0.33164257 0
-0.59202528 -0.4059619 -0.33792269 0
-0.38408089 -0.40260071 -0.3494333 0
-0.23606467 -0.39837906 -0.35115686 0
-0.22109985 -0.45470703 -0.35036409 0
-0.055292368 -0.45488688 -0.35772157 0
0.061888218 -0.42895257 -0.36079413 0
0.18864298 -0.44512254 -0.35604987 0
0.32842541 -0.45424587 -0.35619509 0
0.45315313 -0.43383935 -0.35588551 0
0.55186486 -0.45712814 -0.3540349 0
0.64820337 -0.44827205 -0.3523947 0
0.74561095 -0.43187845 -0.35210803 0
0.8418982 -0.46009362 -0.3510446 0
0.92060995 -0.45657492 -0.35588613 0
-0.75983286 -0.33016989 -0.33073461 0
-0.72787166 -0.38906887 -0.33554846 0
-0.58218241 -0.30087516 -0.34467643 0
-0.4126451 -0.35408372 -0.34737313 0
-0.23528433 -0.32922083 -0.35642403 0
-0.081681013 -0.3483755 -0.35932568 0
0.032070398 -0.33092305 -0.35652301 0
0.1666317 -0.29892924 -0.35405144 0
0.19603038 -0.36031267 -0.35977644 0
0.29725647 -0.37077934 -0.35112494 0
0.44494891 -0.34179097 -0.35638383 0
0.54709196 -0.34239596 -0.35613394 0
0.65280771 -0.3526018 -0.35627335 0
0.75219011 -0.34197649 -0.35629874 0
0.84214807 -0.33224377 -0.35521635 0
0.91782284 -0.35442626 -0.35429415 0
-0.74361682 -0.25078967 -0.33677754 0
-0.63638473 -0.26644555 -0.33336657 0
