# .PCD v0.7 - Point Cloud Data file format
VERSION 0.7
FIELDS x y z intensity
SIZE 4 4 4 4
TYPE F F F F
COUNT 1 1 1 1
WIDTH 343
HEIGHT 1
VIEWPOINT 0 0 0 1 0 0 0
POINTS 343
DATA ascii
0.5369668 0.074206114 -0.37003642 0
0.59544897 0.20960534 -0.36612305 0
0.6490469 0.33828342 -0.37052116 0
0.65986872 0.42873108 -0.36393672 0
0.9269042 -0.47789025 -0.36354074 0
0.19137669 -0.42829561 -0.37012658 0
0.26137018 -0.34534502 -0.36955246 0
0.84185028 -0.19259679 -0.3476294 0
-0.45304298 -0.48088241 -0.37205046 0
-0.31027174 -0.42320037 -0.3222869 0
0.35777378 -0.23150039 -0.36757565 0
-0.82361078 -0.49184847 -0.38569111 0
-0.39053965 -0.36648202 -0.36921743 0
-0.17794132 -0.28438783 -0.38624004 0
0.4419055 -0.10895419 -0.36499751 0
-0.76323557 -0.36132061 -0.38390946 0
-0.14327812 -0.16333795 -0.37578681 0
-0.71308279 -0.23435795 -0.37879556 0
-0.68083572 -0.13502312 -0.37136564 0
-0.070694447 0.037368536 -0.3746227 0
-0.63650131 -0.028168559 -0.37284082 0
-0.61468172 0.046090364 -0.36860731 0
-0.017801285 0.23178244 -0.36832768 0
-0.58568621 0.13428378 -0.36680669 0
-0.54215765 0.24682736 -0.36987668 0
0.029133797 0.42393196 -0.36345506 0
-0.95269108 0.21624362 -0.37010852 0
-0.49776602 0.36149085 -0.37412262 0
-0.8932848 0.36605144 -0.37420616 0
-0.47504377 0.47764993 -0.3671478 0
-0.89405918 0.41459036 -0.36421236 0
-0.98794556 -0.42922616 -0.38195682 0
-0.92230606 -0.29582083 -0.38234282 0
-0.88536644 -0.19325519 -0.37296319 0
-0.46053314 -0.45767713 -0.38316327 0
-0.82765961 -0.076315522 -0.37827826 0
-0.41876554 -0.37846553 -0.38000947 0
-0.37883377 -0.41275704 -0.329418 0
-0.80890989 -0.010474563 -0.37149388 0
-0.36700058 -0.30390978 -0.37749776 0
-0.27182245 -0.35275471 -0.33312142 0
-0.78347397 0.064637661 -0.36806589 0
-0.32413435 -0.19721258 -0.37602162 0
0.095722198 -0.40084445 -0.36443806 0
-0.7438221 0.18839812 -0.36335295 0
-0.28900337 -0.10166132 -0.37390435 0
0.17281628 -0.31118011 -0.3626129 0
0.34869003 -0.36052978 -0.32410127 0
-0.241395 0.038224459 -0.3704626 0
0.24710798 -0.2199825 -0.36640242 0
0.42806625 -0.26806712 -0.32721838 0
-0.70391226 0.3222214 -0.35864249 0
0.29219294 -0.10963595 -0.36657965 0
-0.66966581 0.41182017 -0.36141825 0
-0.19712782 0.18366206 -0.36591837 0
0.6414175 -0.22286606 -0.34132215 0
-0.16187572 0.28777933 -0.36663726 0
0.3611331 0.015253305 -0.37143436 0
0.82020521 -0.16644812 -0.34828746 0
-0.14520359 0.36968553 -0.36142582 0
0.41464806 0.13728893 -0.36390412 0
0.49692774 0.33024228 -0.36730447 0
0.51173973 0.42082989 -0.36160541 0
-0.24023104 -0.47586417 -0.2889663 0
-0.60219431 -0.35945582 -0.38558677 0
-0.54582644 -0.23538864 -0.37998068 0
-0.94786596 0.05410707 -0.37646407 0
-0.91202497 0.13538468 -0.37349576 0
-0.48814774 -0.12309444 -0.38228786 0
0.01645565 -0.32679462 -0.38388142 0
-0.87524939 0.2171005 -0.37162507 0
-0.45840311 -0.048291922 -0.37570941 0
-0.84581232 0.28898537 -0.3679094 0
-0.41204023 0.046896577 -0.37612128 0
-0.79354191 0.39916217 -0.36898971 0
-0.36928892 0.1406914 -0.37423033 0
-0.75294065 0.48656869 -0.3696115 0
-0.33394575 0.22663653 -0.36933559 0
-0.29472256 0.31822503 -0.36599392 0
-0.24301195 0.42491817 -0.36788312 0
0.30233097 0.17552388 -0.37667793 0
0.39536476 0.38506031 -0.36989468 0
-0.38385439 -0.41983461 -0.35185057 0
-0.25502205 -0.44031143 -0.30312753 0
-0.28027058 -0.35183382 -0.35611394 0
0.052258015 -0.25919735 -0.37450618 0
0.10716772 -0.14669621 -0.37415341 0
0.37909508 -0.35019398 -0.35169196 0
0.16468096 -0.035592794 -0.37532145 0
0.45473146 -0.27660489 -0.3506774 0
0.63937426 -0.20826173 -0.3617045 0
0.22537136 0.057412744 -0.37324181 0
0.86152887 -0.13280618 -0.37548161 0
0.33470154 0.2582463 -0.36965132 0
0.95220137 -0.038169742 -0.37464908 0
0.43095732 0.46898127 -0.36602801 0
-0.82281828 -0.20502198 -0.38407403 0
-0.95770931 0.23449397 -0.36686051 0
-0.87920904 0.3266536 -0.37045413 0
-0.82202291 0.38726676 -0.36134303 0
-0.44366455 0.18501329 -0.3684161 0
-0.75196075 0.47025156 -0.36315691 0
-0.27515316 0.36966455 -0.36740878 0
-0.91986465 -0.31463516 -0.37477085 0
-0.40540981 -0.4254638 -0.37012383 0
-0.74821043 -0.134673 -0.37601739 0
-0.28987169 -0.32842731 -0.37892628 0
-0.67850256 -0.062492132 -0.37438369 0
-0.15792084 -0.29413354 -0.37611505 0
-0.60850334 0.0097851753 -0.37199301 0
-0.062560081 -0.1915971 -0.37393999 0
0.28279161 -0.44556355 -0.36456448 0
-0.51825333 0.1050899 -0.36988494 0
0.013894081 -0.10957801 -0.37129968 0
0.37874508 -0.35411024 -0.35978729 0
0.47831249 -0.26460004 -0.35668391 0
-0.37873459 0.25102758 -0.36209577 0
0.11420918 -0.0055165291 -0.37159771 0
0.21153593 0.075250149 -0.36936724 0
0.71143436 -0.1905216 -0.37135109 0
-0.23099089 0.41164756 -0.35752499 0
0.316576 0.16865897 -0.36726785 0
0.87489319 -0.13599896 -0.36877 0
0.40189075 0.25451708 -0.36502936 0
0.52839327 0.39230108 -0.3717576 0
-0.32017708 -0.45598614 -0.32476062 0
-0.22791767 -0.371912 -0.32416981 0
-0.71290159 -0.4221251 -0.38292098 0
-0.72398949 -0.27369857 -0.38743702 0
-0.760499 -0.13761067 -0.38485342 0
-0.79400253 -0.011389971 -0.38274342 0
-0.38665581 -0.39006925 -0.36972034 0
-0.29530716 -0.42329085 -0.32465893 0
-0.32553387 -0.33971179 -0.37422618 0
-0.85219526 0.10807776 -0.37412882 0
-0.24061251 -0.20045483 -0.39047295 0
-0.20326471 -0.31960213 -0.33989924 0
-0.87395763 0.22315729 -0.37483197 0
-0.31152391 -0.1107744 -0.37863582 0
0.16700935 -0.38602185 -0.37346742 0
-0.91092873 0.35792506 -0.37284786 0
-0.3364892 0.065851927 -0.38368466 0
0.18832016 -0.26526332 -0.37818736 0
-0.94929647 0.44633365 -0.36813483 0
-0.39740324 0.16994607 -0.37552518 0
0.15390205 -0.11749125 -0.3778137 0
-0.4416194 0.3136481 -0.37413609 0
0.11870241 0.014684796 -0.3768881 0
-0.4844017 0.43777835 -0.37204701 0
0.084951878 0.14175773 -0.37620109 0
0.022732735 0.30216014 -0.37365323 0
-0.029016972 0.42395985 -0.370776 0
0.38148689 -0.31419325 -0.3356545 0
0.48788023 -0.254426 -0.34372982 0
0.71654034 -0.1814177 -0.37058756 0
0.78003263 -0.048423767 -0.38236439 0
0.7346487 0.10347903 -0.38207212 0
0.59667873 0.37864745 -0.37217677 0
0.67818451 0.26455402 -0.38099015 0
-0.76809072 -0.41678786 -0.3874768 0
-0.78643227 -0.28290761 -0.38679355 0
-0.47202587 -0.45912886 -0.35934871 0
-0.41589594 -0.37269509 -0.36486065 0
-0.29742527 -0.3048985 -0.37874895 0
0.11553097 -0.45255482 -0.3623502 0
-0.31995249 -0.12600076 -0.38339123 0
-0.3732338 -0.010240555 -0.37733114 0
0.16226006 -0.31339717 -0.37461144 0
0.13500738 -0.20147645 -0.36791027 0
0.41001749 -0.26989532 -0.33033609 0
0.1186614 -0.0013592243 -0.3772161 0
0.07448101 0.111094 -0.37281272 0
0.60151911 -0.2072314 -0.35056648 0
5.0067902e-05 0.25570464 -0.36807424 0
0.80677223 -0.14677179 -0.37379849 0
0.77754116 0.038013935 -0.37792224 0
0.69426489 0.18480217 -0.3726978 0
0.63379478 0.35100687 -0.37531009 0
-0.83899307 -0.17901278 -0.37623239 0
-0.31324673 -0.48656583 -0.32337308 0
-0.85814428 -0.06771636 -0.37584388 0
-0.30641222 -0.3665694 -0.32333022 0
-0.89079952 0.07567966 -0.37408984 0
-0.94786167 0.18864882 -0.36529872 0
-0.97269678 0.33357453 -0.36734951 0
-0.40787554 0.15739977 -0.37992269 0
-0.4715929 0.30730093 -0.37520269 0
-0.52647734 0.42236495 -0.37086719 0
-0.052045345 0.39747488 -0.36873919 0
0.2505064 -0.37479496 -0.36850786 0
0.32475853 -0.31194198 -0.36456162 0
0.46882725 -0.19319844 -0.37232915 0
0.53940964 -0.12644005 -0.36488366 0
0.63946724 0.02120471 -0.37059972 0
0.95055962 -0.1933198 -0.34030917 0
0.73758316 0.17345691 -0.38155875 0
0.77452517 0.26209819 -0.37197143 0
0.81559324 0.39819002 -0.37093109 0
0.81255531 0.47904706 -0.3566213 0
-0.4764533 -0.45436537 -0.3877722 0
-0.39068413 -0.32915902 -0.39346659 0
-0.35289383 -0.42011702 -0.3278906 0
-0.93448782 0.056826591 -0.36911041 0
-0.33637047 -0.25748825 -0.38835824 0
-0.25984383 -0.34785247 -0.32822901 0
-0.29513645 -0.17267966 -0.37981582 0
-0.85625505 0.19537354 -0.37723875 0
-0.83109426 0.26944518 -0.36795574 0
-0.2291832 -0.050104618 -0.38190347 0
-0.790205 0.36511052 -0.36690199 0
-0.18057156 0.060808182 -0.37714547 0
-0.76391172 0.45044148 -0.36061338 0
-0.13905144 0.16299617 -0.37367368 0
-0.10062885 0.26231015 -0.37164032 0
-0.070549011 0.3612237 -0.36637998 0
-0.036292553 0.47576642 -0.36278766 0
-0.94049788 -0.44615149 -0.38363156 0
-0.99143839 -0.28711796 -0.38346606 0
-0.55441761 -0.34425032 -0.38062274 0
-0.62066031 -0.19762683 -0.37856472 0
-0.36077452 -0.3941164 -0.34070984 0
-0.69827747 -0.032812953 -0.37590268 0
-0.27235842 -0.31760061 -0.3528201 0
-0.051156044 -0.3280313 -0.37399602 0
-0.77339649 0.11292934 -0.37244892 0
-0.84792805 0.26188624 -0.36978817 0
-0.11005497 -0.14047706 -0.37822479 0
0.38040161 -0.3326087 -0.35603917 0
0.52185678 -0.49448478 -0.36463827 0
-0.92071104 0.4150368 -0.36822829 0
-0.19711971 0.029158711 -0.37679583 0
-0.30831575 0.18911994 -0.37017179 0
0.46561003 -0.1998328 -0.37285331 0
-0.39338827 0.37067342 -0.37121421 0
0.39993811 -0.050803542 -0.3726258 0
-0.50444937 0.48103857 -0.36039966 0
0.30951834 0.080744386 -0.36691093 0
0.21534014 0.27369046 -0.36876574 0
0.093017578 0.44249511 -0.36445245 0
0.95535898 0.17632937 -0.37055829 0
0.81941462 0.40671933 -0.37401757 0
-0.89300251 -0.44727206 -0.38194987 0
-0.8708005 -0.34836924 -0.37763041 0
-0.40994072 -0.49793696 -0.36869144 0
-0.83362007 -0.22309804 -0.37880102 0
-0.42694712 -0.42994308 -0.35421503 0
-0.80732679 -0.098706961 -0.37592685 0
-0.34849787 -0.38639665 -0.34986901 0
-0.78345537 0.01872766 -0.37407357 0
-0.77882481 0.11225498 -0.36710531 0
-0.058689117 -0.24075305 -0.38871929 0
0.43404865 -0.48490322 -0.35807812 0
-0.74378967 0.25146794 -0.3709119 0
-0.040581226 -0.11343467 -0.38330555 0
-0.74155855 0.35637283 -0.36434221 0
-0.03480196 -0.014456749 -0.37646723 0
0.37460423 -0.30399656 -0.35230905 0
-0.72449875 0.46390164 -0.36473674 0
-0.033220768 0.086429954 -0.36830795 0
0.58062124 -0.18370879 -0.36948174 0
0.67784023 -0.14138198 -0.36391509 0
-0.0023350716 0.24114025 -0.37287849 0
-0.012326241 0.35843945 -0.36425227 0
0.76433372 0.038502216 -0.37674633 0
-0.025230408 0.46636367 -0.35616416 0
0.79816103 0.18244672 -0.3767193 0
0.78430271 0.29548144 -0.36685839 0
0.80983448 0.46727598 -0.37402171 0
-0.32838392 -0.49698079 -0.29588366 0
-0.59538984 -0.48079991 -0.38056228 0
-0.52632809 -0.34711087 -0.38456553 0
-0.375494 -0.39558053 -0.33832303 0
-0.4763875 -0.23085916 -0.38113177 0
0.091887951 -0.4294256 -0.37323052 0
-0.41465473 -0.073775291 -0.37484491 0
0.19624138 -0.31782389 -0.37588584 0
-0.32635784 0.13116241 -0.37722844 0
0.28394938 -0.22900784 -0.37114573 0
-0.29652166 0.23138392 -0.3705551 0
0.34649944 -0.13221288 -0.36623996 0
-0.25580883 0.35001826 -0.3681199 0
0.44169235 0.017179132 -0.37519109 0
-0.2235322 0.45807266 -0.36408719 0
0.50711632 0.13402855 -0.36998123 0
0.58995485 0.27246213 -0.37595472 0
0.63681173 0.40002716 -0.37231085 0
-0.65575504 -0.39757621 -0.38770127 0
-0.40257931 -0.46335244 -0.35303837 0
-0.6143117 -0.29433215 -0.38090417 0
-0.36685848 -0.38460243 -0.34219524 0
-0.56530714 -0.18473208 -0.38026863 0
0.081220627 -0.38601434 -0.37762624 0
-0.48358679 -0.019317865 -0.38785636 0
0.15766287 -0.31251884 -0.37067944 0
-0.45852995 0.070474744 -0.3784095 0
-0.42440701 0.17767596 -0.37197623 0
0.28434086 -0.15035367 -0.38410914 0
-0.40441942 0.2578342 -0.36470813 0
0.33957434 -0.031039 -0.38261011 0
-0.32205391 0.44294119 -0.3746419 0
0.39224911 0.065605521 -0.37292051 0
0.4737606 0.20216739 -0.3773005 0
0.52848053 0.32541871 -0.37477764 0
0.56599474 0.46559238 -0.36976349 0
-0.89753294 -0.42782474 -0.38836199 0
-0.84758091 -0.32148314 -0.3867135 0
-0.81542969 -0.23431766 -0.37917557 0
-0.40563917 -0.40691805 -0.36512047 0
-0.75499105 -0.1006043 -0.37940022 0
-0.037403107 -0.36363053 -0.38444319 0
-0.69572973 0.037129164 -0.37967938 0
0.047119617 -0.24947345 -0.37945938 0
-0.64336634 0.16402805 -0.3798421 0
-0.6213479 0.25609708 -0.37003726 0
0.10413361 -0.10871351 -0.37776113 0
0.16366577 0.012925506 -0.37870014 0
-0.55953121 0.40524328 -0.37401018 0
0.23193884 0.13215375 -0.37579751 0
0.26131868 0.23987544 -0.36602136 0
0.32868099 0.41084182 -0.37245941 0
-0.25519419 -0.45414722 -0.29171032 0
-0.46086836 -0.43408227 -0.38675001 0
-0.38894892 -0.34575832 -0.37785262 0
-0.28499079 -0.23628592 -0.3833279 0
-0.98443413 0.20763087 -0.38120008 0
-0.25200891 -0.13478053 -0.37232912 0
-0.98352194 0.26100397 -0.36356446 0
-0.93236065 0.38118541 -0.36424619 0
-0.1869235 0.01158452 -0.37416077 0
-0.1467042 0.12680733 -0.36839688 0
-0.085934162 0.27499449 -0.37024868 0
-0.046037674 0.39608395 -0.36614358 0
-0.32702875 -0.44258273 -0.30439705 0
-0.96584082 0.27302516 -0.36398607 0
-0.88664436 0.44057226 -0.3730633 0
-0.62997913 0.039661288 -0.37384135 0
-0.58133268 0.18091941 -0.36602476 0
-0.52087831 0.32512665 -0.3683674 0
-0.48580217 0.44236302 -0.36225784 0
-0.91865063 0.054852366 -0.37087026 0
-0.88883543 0.14764154 -0.36029801 0
-0.82076359 0.2933377 -0.36389643 0
-0.78517485 0.41009116 -0.35417432 0
