# .PCD v0.7 - Point Cloud Data file format
VERSION 0.7
FIELDS x y z intensity
SIZE 4 4 4 4
TYPE F F F F
COUNT 1 1 1 1
WIDTH 1293
HEIGHT 1
VIEWPOINT 0 0 0 1 0 0 0
POINTS 1293
DATA ascii
0.5764696 -0.029957294 -0.34632182 0
0.70456362 -0.012472689 -0.33843052 0
0.80161107 -0.030749261 -0.32918656 0
0.926476 -0.021036148 -0.31757724 0
0.10490948 0.063957453 -0.37742236 0
0.18157369 0.055992931 -0.37452039 0
0.25510669 0.052208602 -0.36852959 0
0.32784307 0.03359288 -0.3590045 0
0.45766741 0.056074739 -0.35588884 0
0.59604055 0.05664289 -0.34158662 0
0.70130587 0.067182839 -0.33667776 0
0.79531866 0.037894011 -0.3240062 0
0.92455286 0.043471277 -0.31674051 0
0.10310006 0.18827146 -0.38308969 0
0.15696174 0.1749571 -0.37738061 0
0.25057042 0.16897261 -0.37069142 0
0.35304928 0.155855 -0.36253512 0
0.45310378 0.15714872 -0.35659865 0
0.59821409 0.17221504 -0.34839588 0
0.6948638 0.17780882 -0.33708429 0
0.7997148 0.17129332 -0.33325717 0
0.92175871 0.14967728 -0.31902945 0
-0.095856607 0.29116043 -0.34429467 0
0.10129291 0.22582042 -0.38478303 0
0.16510946 0.27509379 -0.37780625 0
0.23962963 0.25636512 -0.37067041 0
0.34502363 0.25532371 -0.36454871 0
0.49648297 0.28221399 -0.35947922 0
0.55934203 0.24251193 -0.3507911 0
0.68073714 0.26251137 -0.33394256 0
0.7841447 0.28480357 -0.33074942 0
0.91502762 0.28373647 -0.32300144 0
-0.052430749 0.3535251 -0.34664953 0
0.15713054 0.31925249 -0.37770784 0
0.25987625 0.3603887 -0.36805961 0
0.36499512 0.36872268 -0.36555648 0
0.48326212 0.3542012 -0.35831004 0
0.56964159 0.35502809 -0.34559694 0
0.67567205 0.38252783 -0.34162897 0
0.78582603 0.3683399 -0.33857724 0
0.89722222 0.34288967 -0.31747255 0
0.043997645 0.45414376 -0.38144714 0
0.1480031 0.45914602 -0.37570721 0
0.25227433 0.46230167 -0.37555134 0
0.3611359 0.4500615 -0.36156675 0
0.45236409 0.46970075 -0.35529226 0
0.54714334 0.47897768 -0.34734786 0
0.65975213 0.47061509 -0.34253669 0
0.75894713 0.43008512 -0.33013943 0
0.88092947 0.43578064 -0.31789279 0
-0.11770093 0.21725649 -0.33324939 0
-0.13473624 -0.48281339 -0.39812633 0
-0.026726164 -0.47277358 -0.38970336 0
0.081739381 -0.45200869 -0.38316089 0
0.18176642 -0.44214177 -0.37605849 0
0.26934174 -0.47696996 -0.36689368 0
0.37101793 -0.45642537 -0.35975027 0
0.48033845 -0.42628488 -0.35438824 0
0.57479596 -0.45884529 -0.34580809 0
0.70969748 -0.41613919 -0.33570114 0
0.84146553 -0.44427198 -0.32493481 0
0.98244554 -0.4630338 -0.31545383 0
-0.1087209 -0.36031681 -0.39981627 0
-0.031917378 -0.34763038 -0.39225268 0
0.076607034 -0.34451798 -0.38468862 0
0.19500798 -0.36680526 -0.37482935 0
0.29208934 -0.35086226 -0.37120184 0
0.39087728 -0.3428719 -0.36526069 0
0.49075177 -0.35056925 -0.35116583 0
0.59139764 -0.34623066 -0.34481886 0
0.7192319 -0.33325797 -0.33276567 0
0.85643846 -0.34201139 -0.3284831 0
-0.11127053 -0.27240676 -0.39356357 0
-0.017207041 -0.24571303 -0.39148262 0
0.054746091 -0.25484157 -0.38292196 0
0.17858636 -0.2612251 -0.37709981 0
0.30762696 -0.22842076 -0.37071884 0
0.3963598 -0.27161267 -0.35726213 0
0.50205302 -0.24192357 -0.35028824 0
0.60543817 -0.23557717 -0.34873724 0
0.72713453 -0.25674754 -0.33324528 0
0.86515188 -0.26450461 -0.32965732 0
-0.12724303 -0.20250486 -0.38564411 0
-0.0055278242 -0.13081351 -0.39308256 0
0.065105528 -0.15236753 -0.38494158 0
0.16740084 -0.1527192 -0.37797779 0
0.31201735 -0.14393169 -0.36684135 0
0.40715179 -0.15552968 -0.35936916 0
0.51138526 -0.13839424 -0.3530724 0
0.6069687 -0.16854215 -0.34342158 0
0.73583877 -0.14693612 -0.33581042 0
0.87357944 -0.160303 -0.33048242 0
-0.25532806 -0.058231533 -0.35495824 0
-0.0079002678 -0.072568536 -0.38700595 0
0.071778327 -0.03450799 -0.38717631 0
0.20064989 -0.057174325 -0.37246224 0
0.28446621 -0.076843798 -0.36993194 0
0.41146702 -0.069141567 -0.36035925 0
0.51663238 -0.058937132 -0.35593104 0
0.61808747 -0.036778927 -0.35093346 0
0.74070179 -0.021491408 -0.33739671 0
0.87226152 -0.087397993 -0.32517868 0
-0.25844806 0.047986895 -0.35460117 0
-0.0031128824 0.00016984344 -0.39124444 0
0.0671525 0.057689875 -0.38422284 0
0.17263025 0.040651053 -0.37475514 0
0.29331076 0.04450345 -0.37037846 0
0.4092505 0.052364171 -0.35941216 0
0.51529413 0.042859018 -0.35479271 0
0.61182696 0.046338201 -0.34557837 0
0.73708194 0.064692259 -0.33548313 0
0.87988263 0.052222729 -0.33245891 0
-0.19935095 0.12279516 -0.358383 0
-0.16080683 0.16174445 -0.34785858 0
0.16053528 0.14405274 -0.3748689 0
0.30949241 0.15827245 -0.36820459 0
0.40998089 0.17731655 -0.36506683 0
0.50857931 0.13927269 -0.35292721 0
0.60549396 0.151263 -0.34471318 0
0.62476128 0.10954148 -0.35798323 0
0.7278899 0.13938761 -0.3315661 0
0.87015957 0.14666271 -0.3276577 0
-0.18066049 0.19410041 -0.37718338 0
-0.12193751 0.25626782 -0.36173058 0
0.20183575 0.22729373 -0.37063473 0
0.29927427 0.25445622 -0.36835068 0
0.40425199 0.24523234 -0.3657279 0
0.49639654 0.23369038 -0.35095227 0
0.59508348 0.26998699 -0.34596083 0
0.73005646 0.25008303 -0.33987588 0
0.85845613 0.26655531 -0.32684612 0
-0.11560586 0.32814828 -0.39294749 0
-0.059133887 0.3596586 -0.36937299 0
0.19356203 0.3147136 -0.37377435 0
0.28917086 0.34152097 -0.3703661 0
0.38869685 0.3367852 -0.36428589 0
0.4860841 0.3557328 -0.35523358 0
0.58059973 0.38294214 -0.34753022 0
0.7126385 0.38637841 -0.34061107 0
0.72366339 0.32717162 -0.34180191 0
0.84719741 0.36154813 -0.32780182 0
0.99928319 0.38668048 -0.32462513 0
-0.11660683 0.44526803 -0.39850748 0
-0.026754141 0.45421427 -0.3906765 0
0.073118985 0.45153564 -0.38468996 0
0.17044455 0.4557389 -0.37758824 0
0.27340007 0.40710348 -0.36909944 0
0.36450285 0.44681984 -0.36315429 0
0.46760535 0.47052866 -0.35763955 0
0.56442428 0.42218035 -0.34325543 0
0.70107222 0.45658046 -0.34140781 0
0.83229077 0.46713471 -0.3298122 0
0.98037624 0.42757368 -0.31773877 0
-0.35144776 -0.1479671 -0.33392408 0
-0.2268194 0.022977769 -0.34128723 0
-0.10244235 0.18224412 -0.33104968 0
-0.10440168 0.22998878 -0.33373564 0
-0.051968664 0.3110351 -0.3279976 0
-0.29208201 -0.44195542 -0.39769047 0
-0.1776312 -0.4738642 -0.4018743 0
-0.061614119 -0.47358024 -0.39258251 0
0.021426156 -0.4492507 -0.38880217 0
0.11703214 -0.44193017 -0.38378796 0
0.21270823 -0.44487375 -0.37262478 0
0.31180194 -0.4664841 -0.36154777 0
0.41723862 -0.43296513 -0.35612115 0
0.54405546 -0.43419421 -0.34719741 0
0.67166805 -0.48982018 -0.34243533 0
0.68011296 -0.42920387 -0.33797139 0
0.81947339 -0.44991529 -0.32846937 0
0.96206927 -0.44267374 -0.31396782 0
-0.4345631 -0.30614826 -0.36230785 0
-0.36184812 -0.34622583 -0.37705299 0
-0.20936634 -0.34167415 -0.37962681 0
-0.071735725 -0.36624959 -0.39553848 0
0.039644867 -0.3433888 -0.3859438 0
0.13089481 -0.35077181 -0.37737879 0
0.23183638 -0.32115841 -0.37124041 0
0.33606395 -0.32611641 -0.37125641 0
0.43611374 -0.32203162 -0.36442372 0
0.56089234 -0.31915215 -0.35005328 0
0.68215626 -0.39237666 -0.32997823 0
0.83568323 -0.3301543 -0.33056596 0
0.97097802 -0.38204527 -0.31743136 0
0.97719216 -0.32541728 -0.31752169 0
-0.43411136 -0.27175927 -0.37283707 0
-0.38541847 -0.24653697 -0.37153161 0
-0.17555627 -0.25352326 -0.37783444 0
-0.067492843 -0.29060036 -0.39569476 0
0.013840824 -0.24696262 -0.38859448 0
0.14491627 -0.2310743 -0.37623647 0
0.24127278 -0.23462003 -0.3709166 0
0.34367684 -0.22694921 -0.36391592 0
0.44269046 -0.24878523 -0.3607465 0
0.56360817 -0.26997721 -0.34555447 0
0.70092064 -0.25084472 -0.3387939 0
0.84281564 -0.23595613 -0.3276431 0
0.98577017 -0.25119519 -0.3207148 0
-0.35764602 -0.14853308 -0.37054956 0
0.012358844 -0.16701615 -0.38755774 0
0.15503156 -0.13132784 -0.38038784 0
0.24973848 -0.14121714 -0.37315744 0
0.34950399 -0.14839181 -0.3645665 0
0.44831115 -0.14878666 -0.35738021 0
0.57569122 -0.15154731 -0.35060778 0
0.70409191 -0.14628071 -0.33383971 0
0.84840053 -0.13560694 -0.32735533 0
0.99036044 -0.16917837 -0.31950194 0
-0.33472657 -0.081702054 -0.38426682 0
-0.29948992 -0.032598078 -0.37108502 0
-0.22975314 -0.016810507 -0.34733739 0
0.027808368 -0.057433963 -0.39021102 0
0.1368933 -0.029017329 -0.38372436 0
0.25286883 -0.054849058 -0.37288415 0
0.34796393 -0.053842127 -0.35895413 0
0.45021999 -0.066096961 -0.35612398 0
0.57557708 -0.050989211 -0.34665704 0
0.71038783 -0.019683659 -0.33792305 0
0.85118467 -0.028993189 -0.32786244 0
0.99282736 -0.039173067 -0.31807211 0
-0.2723043 0.054913461 -0.37319398 0
-0.22763973 0.073333174 -0.35753515 0
0.062197715 0.034185112 -0.38396606 0
0.15512344 0.037671089 -0.37775597 0
0.25264573 0.045367002 -0.37306306 0
0.35248208 0.062111616 -0.36462528 0
0.45018399 0.053346395 -0.3569276 0
0.57409102 0.070526838 -0.34667385 0
0.70612687 0.059687316 -0.33532193 0
0.84828883 0.068431556 -0.32659531 0
0.99086213 0.063690901 -0.31693044 0
-0.24890932 0.12135002 -0.39841241 0
-0.20479417 0.1383974 -0.3653447 0
0.1527673 0.12415653 -0.3793157 0
0.24268341 0.12309211 -0.36815259 0
0.35174078 0.16623944 -0.36832812 0
0.44582778 0.16760147 -0.35815504 0
0.57256448 0.14846534 -0.34858891 0
0.70742327 0.16057193 -0.34024838 0
0.84273064 0.16982561 -0.32647949 0
0.99055523 0.15680504 -0.32011279 0
-0.24906009 0.24260697 -0.40972534 0
-0.16603088 0.24653739 -0.38473862 0
-0.11857483 0.2594319 -0.35458159 0
0.14506406 0.22397679 -0.38014129 0
0.23570204 0.23862535 -0.37115145 0
0.34318709 0.24456972 -0.36749303 0
0.43500578 0.25040925 -0.35641941 0
0.56100309 0.29823709 -0.35059747 0
0.57158273 0.23990256 -0.35319895 0
0.69936985 0.25448233 -0.34043807 0
0.83394903 0.27556574 -0.32719472 0
0.98267663 0.2662378 -0.32053566 0
-0.26900068 0.33732358 -0.4086642 0
-0.20066097 0.33838302 -0.40067372 0
-0.092535734 0.3387109 -0.37205973 0
0.22539741 0.36190665 -0.3757301 0
0.32967901 0.34894156 -0.36809665 0
0.42200732 0.36096668 -0.35826567 0
0.54984021 0.34543556 -0.34807175 0
0.68868786 0.35393149 -0.3412773 0
0.825324 0.35175771 -0.32785785 0
0.96879697 0.35696471 -0.31853938 0
-0.28501919 0.41856304 -0.4105275 0
-0.17856202 0.4510774 -0.40345961 0
-0.062732518 0.45560807 -0.39586559 0
-0.006136775 0.40504855 -0.36291039 0
0.098715007 0.45880961 -0.37874323 0
0.19550782 0.44657248 -0.3699137 0
0.30862212 0.44541788 -0.36674061 0
0.41222757 0.48167384 -0.36491737 0
0.53681368 0.4517749 -0.35119072 0
0.65581238 0.49597025 -0.33773494 0
0.67642343 0.41744781 -0.34025168 0
0.81861287 0.44911766 -0.33280304 0
0.96277595 0.47438645 -0.32526422 0
-0.40112171 -0.27419215 -0.35138372 0
-0.37065008 -0.15438715 -0.34776846 0
-0.34823596 -0.088998377 -0.34656933 0
-0.32979411 -0.051183447 -0.34640947 0
-0.19305322 0.08211273 -0.33570459 0
-0.17437091 0.1262823 -0.33872458 0
-0.4715912 -0.48873156 -0.4212144 0
-0.36445993 -0.44765505 -0.40436932 0
-0.27530563 -0.42192456 -0.38577238 0
-0.15947014 -0.45160055 -0.39912742 0
-0.064323202 -0.44150361 -0.39498788 0
0.026411608 -0.4672296 -0.38353738 0
0.13243383 -0.44955215 -0.37966153 0
0.22957322 -0.45375428 -0.36806938 0
0.34954795 -0.49170211 -0.36173034 0
0.49253646 -0.43950564 -0.35214409 0
0.63460767 -0.42454934 -0.33944449 0
0.77175283 -0.45494276 -0.33089554 0
0.9453848 -0.47773355 -0.31270504 0
-0.43846521 -0.36175227 -0.40730232 0
-0.38812461 -0.35608086 -0.37634605 0
-0.2408089 -0.34538794 -0.38004464 0
-0.048138902 -0.34790209 -0.39270169 0
0.041898206 -0.37432265 -0.38016039 0
0.14560527 -0.36183864 -0.37460953 0
0.24695906 -0.33998558 -0.3676796 0
0.36990878 -0.36605421 -0.3621234 0
0.49908876 -0.39434955 -0.35131454 0
0.50644451 -0.32999098 -0.349033 0
0.64496499 -0.34458083 -0.33945394 0
0.78223151 -0.36294144 -0.32626969 0
0.95707887 -0.3865158 -0.31296402 0
-0.42709881 -0.25816539 -0.38804236 0
-0.29496574 -0.27872482 -0.36502525 0
-0.035263464 -0.24108082 -0.39005598 0
0.05833739 -0.25356975 -0.3828035 0
0.15961888 -0.24867794 -0.37485147 0
0.25651217 -0.25291976 -0.36692381 0
0.37849021 -0.27378556 -0.35628432 0
0.50898266 -0.27980012 -0.34357163 0
0.65514904 -0.25502998 -0.34084246 0
0.79670942 -0.21476263 -0.32750848 0
0.79893988 -0.2407161 -0.33440232 0
0.97074163 -0.26152974 -0.31544018 0
-0.41570976 -0.17081039 -0.40901986 0
-0.36306435 -0.14504078 -0.37900418 0
-0.027842373 -0.14399073 -0.38981649 0
0.064577132 -0.14518699 -0.37902614 0
0.16846922 -0.13800898 -0.37539825 0
0.26682237 -0.14682671 -0.36997658 0
0.38668799 -0.17365277 -0.35667893 0
0.51877165 -0.16548896 -0.34624973 0
0.66206634 -0.15466768 -0.34054658 0
0.79572755 -0.13614005 -0.32091665 0
0.80220056 -0.15107441 -0.32977965 0
0.97506022 -0.15393466 -0.31203875 0
-0.41222149 -0.068150423 -0.41721186 0
-0.33015931 -0.060140714 -0.38808259 0
-0.27834198 -0.032082573 -0.36111027 0
0.065432012 -0.0565525 -0.37661847 0
0.1656867 -0.08335197 -0.36925891 0
0.26799452 -0.065005988 -0.36716631 0
0.39037985 -0.081908464 -0.35626128 0
0.51927125 -0.085151196 -0.34288979 0
0.66516471 -0.050662935 -0.33925581 0
0.80322349 -0.03040421 -0.32698408 0
0.98193908 -0.052514374 -0.31620133 0
-0.41375512 0.03873761 -0.41606134 0
-0.33447737 0.052249908 -0.41661766 0
-0.27991819 0.03199704 -0.37269717 0
0.065179795 0.0036203563 -0.37655532 0
0.17197064 0.055698395 -0.37619948 0
0.26782376 0.047142863 -0.36722881 0
0.39243418 0.068585992 -0.35858577 0
0.39854842 0.024465859 -0.36328951 0
0.52319795 0.039578319 -0.34707969 0
0.66729528 0.03327179 -0.34109631 0
0.80829239 0.078563571 -0.33236045 0
0.98567265 0.053841233 -0.31962603 0
-0.42300677 0.14572161 -0.41452521 0
-0.34395009 0.13658202 -0.41326612 0
-0.23597205 0.14046735 -0.38817757 0
-0.18385664 0.1588361 -0.3571848 0
0.16780192 0.12012398 -0.37472087 0
0.25916147 0.13518816 -0.36344522 0
0.3863762 0.15407521 -0.35707378 0
0.5206697 0.16566908 -0.34928352 0
0.66245329 0.12173051 -0.33897236 0
0.79420859 0.14261961 -0.32287416 0
0.80332452 0.12080836 -0.32921022 0
0.97601867 0.13673872 -0.31338835 0
-0.43183136 0.2336925 -0.41600671 0
-0.36225891 0.25100169 -0.41035455 0
-0.26588148 0.24124795 -0.40489376 0
-0.14890435 0.24070632 -0.36936575 0
-0.1005272 0.27290881 -0.33895612 0
0.16646671 0.22135156 -0.37893802 0
0.25808257 0.25716329 -0.37020364 0
0.38092601 0.26044434 -0.3598083 0
0.51431286 0.24140519 -0.34903708 0
0.65423626 0.25312603 -0.33984801 0
0.79143012 0.26957077 -0.32807106 0
0.79748118 0.235681 -0.33010083 0
0.96903962 0.25107592 -0.31396177 0
-0.43995059 0.33277783 -0.42121732 0
-0.37582195 0.33892876 -0.41187128 0
-0.24212047 0.33182308 -0.40632871 0
-0.14488226 0.33693513 -0.39658368 0
-0.068658054 0.35176933 -0.36183524 0
0.24735165 0.35138303 -0.37127048 0
0.3706497 0.35452306 -0.36098573 0
0.50673413 0.35080749 -0.35252005 0
0.63835716 0.36960781 -0.33851534 0
0.78104609 0.34295708 -0.32689351 0
0.95758224 0.35666633 -0.31388193 0
-0.47127283 0.4483403 -0.42057839 0
-0.35509482 0.44177213 -0.41305211 0
-0.2569693 0.44859412 -0.40803948 0
-0.16078264 0.43321151 -0.3987602 0
-0.069052398 0.45403969 -0.393361 0
0.0187217 0.4471035 -0.38148367 0
0.13302368 0.45580578 -0.38030362 0
0.22111136 0.45093137 -0.36723763 0
0.34964627 0.4591369 -0.3597607 0
0.48556912 0.45956808 -0.35061726 0
0.63288569 0.47892207 -0.34517726 0
0.76992059 0.46736497 -0.33124962 0
0.9461261 0.44721079 -0.31468046 0
-0.37149483 -0.21852747 -0.3495447 0
-0.37182075 -0.16526914 -0.33852634 0
-0.28297836 0.043173611 -0.3410289 0
-0.18609533 0.043761671 -0.33688316 0
-0.18492079 0.1079663 -0.33669317 0
-0.12242615 0.2067132 -0.3305445 0
-0.64843762 -0.45377058 -0.43251857 0
-0.53483576 -0.48486924 -0.42246616 0
-0.4160428 -0.4347108 -0.41784999 0
-0.33486712 -0.47901464 -0.40495828 0
-0.2704061 -0.46611482 -0.38721675 0
-0.054007165 -0.49339801 -0.38495508 0
0.046428174 -0.49365926 -0.37878665 0
0.17450157 -0.48366812 -0.36173108 0
0.31998631 -0.43746644 -0.36175755 0
0.6032567 -0.45515409 -0.33786577 0
0.785864 -0.46919602 -0.33325648 0
0.98419249 -0.46165627 -0.31405118 0
-0.63215935 -0.37307829 -0.42754722 0
-0.55888408 -0.38288823 -0.42812839 0
-0.44576171 -0.36836377 -0.40997258 0
-0.37108609 -0.39513296 -0.378629 0
-0.24752967 -0.36590946 -0.37853682 0
-0.034711927 -0.3813715 -0.38871691 0
0.07119827 -0.34476236 -0.38529956 0
0.1938746 -0.36693284 -0.37102339 0
0.33148557 -0.3419548 -0.35977566 0
0.47246724 -0.36911672 -0.35360646 0
0.62044036 -0.33663136 -0.34492189 0
0.79422653 -0.38393402 -0.32712531 0
0.99295878 -0.36336964 -0.30972648 0
-0.61933136 -0.28153911 -0.42533776 0
-0.54060131 -0.26325154 -0.42640066 0
-0.4387714 -0.27060014 -0.39586058 0
-0.33645532 -0.30326632 -0.37208959 0
-0.020884722 -0.25828904 -0.38719571 0
0.073835522 -0.27755573 -0.37474748 0
0.19964144 -0.30604053 -0.36827958 0
0.21081766 -0.22315359 -0.37447453 0
0.34681833 -0.22523177 -0.36701986 0
0.48712617 -0.22940809 -0.35479712 0
0.62652481 -0.2446599 -0.34109151 0
0.79819608 -0.28044313 -0.31832555 0
0.80149812 -0.30153191 -0.32566774 0
0.99693787 -0.24203521 -0.30260506 0
-0.60606283 -0.15477157 -0.4272798 0
-0.53129721 -0.1516891 -0.42381832 0
-0.46073821 -0.1634471 -0.41479838 0
-0.37217009 -0.17567453 -0.38808051 0
0.085161388 -0.16360536 -0.37935951 0
0.20808086 -0.17149061 -0.36638308 0
0.34535602 -0.16594625 -0.35982472 0
0.48921376 -0.14266908 -0.35080296 0
0.62784171 -0.15458381 -0.33631486 0
0.80801964 -0.17070925 -0.32384986 0
-0.60373837 -0.045112174 -0.42590344 0
-0.56598687 -0.089265615 -0.425001 0
-0.45817819 -0.062406786 -0.41448653 0
-0.33821756 -0.075832248 -0.39528614 0
-0.28140116 -0.029875755 -0.36773342 0
-0.0077927709 -0.084594309 -0.38950107 0
0.085260242 -0.063932389 -0.37626487 0
0.20657542 -0.071316808 -0.36198923 0
0.34711373 -0.046990633 -0.35824886 0
0.48965603 -0.073554814 -0.34907568 0
0.63119209 -0.039056063 -0.33777833 0
0.81327093 -0.058823764 -0.3266055 0
-0.60486799 0.022774808 -0.42611891 0
-0.52498144 0.017175995 -0.42663839 0
-0.45759726 0.030839533 -0.4163388 0
-0.34789518 0.021861538 -0.41088733 0
-0.27316421 0.031574711 -0.36908117 0
0.084960908 0.024146229 -0.37655482 0
0.2069197 0.033010423 -0.36405331 0
0.34780407 0.035305619 -0.35972029 0
0.49413925 0.029999018 -0.35367727 0
0.63476044 0.068495989 -0.34248251 0
0.81092423 0.013177097 -0.32481343 0
-0.60863036 0.13443689 -0.42917722 0
-0.5331248 0.12406118 -0.42454824 0
-0.46709764 0.11446187 -0.41319534 0
-0.36285648 0.11842999 -0.40765202 0
-0.22446421 0.13397086 -0.38559428 0
-0.18308541 0.14959243 -0.35717508 0
0.20220101 0.12798601 -0.36465555 0
0.34470797 0.10743582 -0.35973901 0
0.48312926 0.13152272 -0.34820488 0
0.62981331 0.13997316 -0.3412137 0
0.80734104 0.13514662 -0.32571959 0
0.99832898 0.11258072 -0.30535731 0
-0.62280822 0.21822567 -0.42706224 0
-0.54471672 0.2240603 -0.42465588 0
-0.44368663 0.22787946 -0.41504195 0
-0.31260985 0.20240214 -0.40861791 0
-0.22623962 0.2438561 -0.40098429 0
-0.14481843 0.23590809 -0.36928812 0
-0.091571361 0.25586307 -0.3317098 0
0.19650447 0.1957708 -0.3649154 0
0.34072006 0.21855825 -0.36289102 0
0.46964765 0.24424213 -0.3457652 0
0.62078089 0.24521077 -0.34069246 0
0.80067724 0.25767934 -0.32776639 0
0.99845421 0.23537922 -0.3118785 0
-0.63497156 0.30713689 -0.42941758 0
-0.56400454 0.3430374 -0.42624703 0
-0.45821482 0.3186914 -0.41587409 0
-0.32748181 0.31846544 -0.41028112 0
-0.24068242 0.33624461 -0.40151611 0
-0.14589566 0.31152248 -0.39085761 0
-0.081636131 0.32102156 -0.36311084 0
0.32396358 0.33000159 -0.36097193 0
0.4619419 0.36104918 -0.35046422 0
0.607162 0.34421974 -0.33955836 0
0.78239846 0.34414595 -0.32275563 0
0.98030925 0.32270253 -0.30614525 0
0.99559283 0.30032885 -0.31420594 0
-0.65410602 0.41619039 -0.43303072 0
-0.54302454 0.4258149 -0.42148566 0
-0.4269391 0.4172276 -0.41592309 0
-0.34952542 0.42352924 -0.4103494 0
-0.26138869 0.42637795 -0.4009434 0
-0.15692449 0.40712625 -0.3948496 0
-0.04902339 0.44674963 -0.38676476 0
0.041791499 0.47240657 -0.38423806 0
0.17364407 0.43844867 -0.37305182 0
0.30673277 0.41909051 -0.3596226 0
0.4465223 0.43169409 -0.34859598 0
0.58803737 0.48220921 -0.34161317 0
0.59493965 0.41936505 -0.33921635 0
0.7672267 0.41270339 -0.32011414 0
0.97584116 0.44985998 -0.31426895 0
-0.39185292 -0.2848419 -0.34379074 0
-0.37218469 -0.18145716 -0.34374991 0
-0.20800868 0.035655707 -0.33102897 0
-0.8211686 -0.46526212 -0.45304826 0
-0.71418756 -0.46465373 -0.44286796 0
-0.59578431 -0.47410923 -0.43337658 0
-0.51540875 -0.46262729 -0.43069428 0
-0.40546924 -0.465312 -0.41528121 0
-0.31266317 -0.46766731 -0.4114117 0
-0.12494076 -0.47839713 -0.40073499 0
0.00061424077 -0.49142456 -0.39450192 0
0.14260501 -0.44001108 -0.37966657 0
0.2868422 -0.42943561 -0.37197277 0
0.42087296 -0.48173127 -0.35827142 0
0.60509962 -0.44973886 -0.34479764 0
0.79835016 -0.47915727 -0.33039933 0
-0.80319023 -0.37933671 -0.44935867 0
-0.72315627 -0.34374791 -0.44409847 0
-0.62123626 -0.36574823 -0.43912363 0
-0.49796328 -0.35954922 -0.42673868 0
-0.40855482 -0.36748645 -0.40291068 0
-0.35890001 -0.38788664 -0.38447055 0
-0.22951974 -0.36493197 -0.3841812 0
0.019608513 -0.36810386 -0.39444032 0
0.15673268 -0.34446913 -0.3836391 0
0.2921676 -0.38286865 -0.37026799 0
0.42983758 -0.40380874 -0.35548115 0
0.44146281 -0.32300541 -0.36155903 0
0.62114346 -0.33267635 -0.35081151 0
0.81554633 -0.33842498 -0.33442581 0
-0.78421944 -0.26447725 -0.45186147 0
-0.7142424 -0.2699433 -0.44071147 0
-0.60253263 -0.28050628 -0.43475279 0
-0.4881379 -0.27616504 -0.42422587 0
-0.41592088 -0.26779824 -0.39780894 0
-0.29587787 -0.3079159 -0.37097609 0
0.02844058 -0.27145529 -0.38994712 0
0.16569549 -0.2492041 -0.38306093 0
0.30750728 -0.25139537 -0.37468559 0
0.44773689 -0.24190015 -0.36078212 0
0.62650889 -0.25410271 -0.34884542 0
0.81897569 -0.23853046 -0.32862508 0
-0.77408218 -0.17701921 -0.45231745 0
-0.70316857 -0.16875651 -0.44303614 0
-0.63242584 -0.17778255 -0.43488154 0
-0.51529342 -0.15209648 -0.4288967 0
-0.38721019 -0.18625253 -0.40193534 0
-0.34686184 -0.15716153 -0.38008133 0
0.02816394 -0.14953575 -0.37979618 0
0.035895109 -0.1885049 -0.39136249 0
0.17122719 -0.15528145 -0.38173732 0
0.30387977 -0.17864424 -0.36323351 0
0.45300996 -0.13421398 -0.36026931 0
0.63085836 -0.17045665 -0.34790316 0
0.82361466 -0.14326334 -0.32929641 0
-0.76777506 -0.088908896 -0.45301273 0
-0.69842327 -0.082794428 -0.4436951 0
-0.62759364 -0.066013254 -0.43535432 0
-0.51745659 -0.065578811 -0.42334008 0
-0.37997293 -0.069074363 -0.42125469 0
-0.3074148 -0.053604826 -0.38838729 0
0.036927819 -0.066694677 -0.3874521 0
0.17039204 -0.06784445 -0.37820014 0
0.30996683 -0.054498017 -0.36692518 0
0.45485139 -0.056461871 -0.36029941 0
0.62793928 -0.023359299 -0.34208816 0
0.6342631 -0.079440475 -0.34872231 0
0.82766652 -0.072493255 -0.33217388 0
-0.77138448 0.026911214 -0.44912139 0
-0.69794655 0.023169268 -0.44400358 0
-0.63082427 0.012961071 -0.43319809 0
-0.52281785 0.039127268 -0.42772549 0
-0.38134468 0.029564232 -0.42045432 0
-0.27990434 0.029349759 -0.39161608 0
-0.24879529 -0.0051080883 -0.35199299 0
0.1713964 0.067284167 -0.38066894 0
0.30667144 0.046135426 -0.36557999 0
0.45185226 0.019630611 -0.35802862 0
0.63298309 0.060034871 -0.34804118 0
0.82232767 0.032092154 -0.32822719 0
-0.78333884 0.14021428 -0.44601837 0
-0.71067613 0.12939301 -0.44008955 0
-0.63355815 0.13987085 -0.43748513 0
-0.51889259 0.15558955 -0.43031615 0
-0.39280218 0.12523855 -0.41603577 0
-0.29154018 0.12707612 -0.41307363 0
-0.21257761 0.12629583 -0.37808463 0
0.16667986 0.13155931 -0.37947774 0
0.30316216 0.1545164 -0.36749977 0
0.44611841 0.1191321 -0.35657161 0
0.61153853 0.1677202 -0.33635992 0
0.634956 0.13142896 -0.3519038 0
-0.79359287 0.24527597 -0.44856921 0
-0.7114529 0.18357009 -0.44294906 0
-0.62078339 0.23455922 -0.43184716 0
-0.49431315 0.2435393 -0.42569456 0
-0.39788455 0.24529129 -0.42110324 0
-0.30011702 0.23577294 -0.41465187 0
-0.19137681 0.24016839 -0.40391302 0
-0.12261587 0.24703142 -0.36463043 0
0.29345852 0.22119737 -0.36488378 0
0.44224393 0.24154681 -0.36063719 0
0.61259568 0.25517333 -0.34266517 0
0.63729894 0.23053521 -0.35811514 0
0.82337183 0.22568929 -0.33678189 0
-0.80636489 0.33425871 -0.45091408 0
-0.70184743 0.32920587 -0.44344938 0
-0.60390174 0.33399972 -0.43414748 0
-0.50722069 0.31506935 -0.42519799 0
-0.4099482 0.31930709 -0.42093492 0
-0.32120198 0.33999479 -0.41206554 0
-0.21391109 0.30276796 -0.40359727 0
-0.11021468 0.3128624 -0.39023551 0
-0.033929884 0.37162519 -0.36740637 0
0.28918517 0.31335765 -0.3691743 0
0.42122072 0.35058784 -0.35591736 0
0.43282449 0.32621056 -0.36072713 0
0.60466206 0.35439575 -0.34533054 0
0.80653775 0.31876266 -0.33151951 0
-0.81166565 0.42522979 -0.44961721 0
-0.725155 0.42661637 -0.44261721 0
-0.6056087 0.41047218 -0.43135735 0
-0.52286243 0.41992432 -0.42891803 0
-0.4289161 0.40913016 -0.42084676 0
-0.33953792 0.4460668 -0.41417047 0
-0.22858423 0.4317117 -0.4088774 0
-0.12578881 0.42423189 -0.4021582 0
-0.013486564 0.46787423 -0.39013928 0
0.13327724 0.42367315 -0.38139108 0
0.26521403 0.4138459 -0.36486712 0
0.41100687 0.43848604 -0.35833794 0
0.58960718 0.41542155 -0.34201586 0
0.79283118 0.4428072 -0.33346254 0
-0.38194844 -0.25497669 -0.35699463 0
-0.38600075 -0.18458377 -0.35448316 0
-0.34534472 -0.15265995 -0.33531511 0
-0.26195365 0.015870079 -0.34712708 0
-0.14229584 0.14340186 -0.33508146 0
-0.88862991 -0.46501887 -0.45351174 0
-0.77769279 -0.48139149 -0.44452968 0
-0.69886529 -0.47530949 -0.44116884 0
-0.60759896 -0.48413926 -0.4330579 0
-0.5062058 -0.45429343 -0.42021558 0
-0.3968859 -0.45329517 -0.41023213 0
-0.28779212 -0.44779494 -0.39494812 0
-0.044392876 -0.45266896 -0.39133385 0
0.092231363 -0.48238456 -0.38202935 0
0.23796958 -0.45582274 -0.37270007 0
0.42137721 -0.4217853 -0.36018068 0
0.60983926 -0.4640055 -0.34348339 0
0.8249709 -0.4592818 -0.32774869 0
-0.97684324 -0.35261163 -0.46063575 0
-0.885387 -0.35704529 -0.45544016 0
-0.78049314 -0.362948 -0.44570616 0
-0.67657501 -0.35568905 -0.44097987 0
-0.5848453 -0.36587378 -0.43629849 0
-0.47433999 -0.35753196 -0.41968215 0
-0.38899201 -0.37544715 -0.39979595 0
-0.028786764 -0.33522105 -0.38960397 0
0.10848597 -0.36786658 -0.38222668 0
0.2506355 -0.35196319 -0.37034851 0
0.43638596 -0.31038457 -0.36396459 0
0.61943775 -0.37465721 -0.34071276 0
0.83905226 -0.34852147 -0.33146027 0
-0.9628669 -0.25953764 -0.45839146 0
-0.88840222 -0.24957225 -0.45426533 0
-0.7849974 -0.25597423 -0.44760138 0
-0.66173416 -0.24629629 -0.43937376 0
-0.57656193 -0.29292431 -0.43004999 0
-0.47910348 -0.26860723 -0.42217848 0
-0.42259637 -0.27007845 -0.38661546 0
-0.018659338 -0.23227346 -0.38979965 0
0.11763126 -0.24163309 -0.3760435 0
0.25553021 -0.28554025 -0.36676335 0
0.26273516 -0.21852732 -0.36984387 0
0.43633321 -0.26388279 -0.35664156 0
0.62895381 -0.27980179 -0.34227642 0
0.84013331 -0.28319609 -0.32329935 0
-0.95523137 -0.17044903 -0.45614702 0
-0.88106275 -0.14380279 -0.45079422 0
-0.80652583 -0.15707389 -0.44838685 0
-0.69514024 -0.15527168 -0.43743998 0
-0.56378919 -0.16534035 -0.4309783 0
-0.47124508 -0.16847153 -0.42103949 0
-0.36647579 -0.1573534 -0.3932814 0
0.12721837 -0.1176953 -0.379186 0
0.26181096 -0.18165284 -0.36556458 0
0.43757349 -0.17433932 -0.35058421 0
0.63652223 -0.15880686 -0.34213233 0
0.85061961 -0.16249132 -0.32802022 0
-0.94639295 -0.035492077 -0.45936745 0
-0.8797766 -0.03363359 -0.44864273 0
-0.79716694 -0.044371322 -0.45290717 0
-0.70435977 -0.053489208 -0.43767154 0
-0.56093544 -0.057435844 -0.42889249 0
-0.46615934 -0.057691433 -0.42210767 0
-0.37237674 -0.095415711 -0.40808213 0
-0.30298829 -0.048129663 -0.37711632 0
0.12592357 -0.054379374 -0.37639323 0
0.27027833 -0.050256968 -0.37065527 0
0.44886643 -0.021171987 -0.35880306 0
0.63685042 -0.050455809 -0.33921307 0
0.85521072 -0.028220832 -0.32899758 0
-0.94673711 0.049898162 -0.45991826 0
-0.8784067 0.065925702 -0.45199877 0
-0.80358583 0.015617136 -0.44678432 0
-0.68167484 0.032415006 -0.43911904 0
-0.56074619 0.04831709 -0.42971936 0
-0.47228953 0.016538739 -0.41680205 0
-0.35983169 0.023335934 -0.41987634 0
-0.27311471 0.038868651 -0.38155973 0
-0.19725773 0.084795445 -0.34421071 0
0.13461199 0.065136343 -0.38499254 0
0.26958495 0.054894567 -0.36999083 0
0.63757753 0.04053247 -0.34016228 0
0.85474849 0.061713517 -0.32872525 0
-0.95548457 0.13439797 -0.45781124 0
-0.87872797 0.15364829 -0.45619982 0
-0.80817354 0.12190323 -0.44733858 0
-0.70173347 0.12594083 -0.44011533 0
-0.56647271 0.14477757 -0.42965868 0
-0.474776 0.13612664 -0.41999382 0
-0.36407328 0.12739712 -0.41929701 0
-0.27202141 0.12710059 -0.40802106 0
-0.19329372 0.14646012 -0.3675887 0
0.26775503 0.11329263 -0.3700754 0
0.44852567 0.13337058 -0.36098579 0
0.63923621 0.11961889 -0.34356362 0
0.84630883 0.1313687 -0.32339621 0
-0.9704932 0.23913674 -0.45689821 0
-0.89072454 0.25387061 -0.45653194 0
-0.77626044 0.24245965 -0.44413102 0
-0.68226957 0.21786951 -0.43935955 0
-0.57797426 0.26228237 -0.43059456 0
-0.48433396 0.23321913 -0.4202289 0
-0.37666467 0.21341357 -0.41530642 0
-0.2803174 0.24392292 -0.40925127 0
-0.16001514 0.25990057 -0.39414355 0
-0.10424998 0.25917351 -0.34444228 0
0.26456815 0.23160362 -0.37335083 0
0.43288589 0.24053091 -0.35430434 0
0.63814586 0.23126984 -0.34739199 0
0.84371883 0.2395978 -0.32627141 0
-0.98647714 0.34256878 -0.45917106 0
-0.91246855 0.33215192 -0.45272601 0
-0.81512976 0.32799485 -0.4496288 0
-0.67951643 0.32919419 -0.43834457 0
-0.58560067 0.36060536 -0.43496233 0
-0.49623731 0.3502678 -0.42376858 0
-0.38097098 0.35730588 -0.42401513 0
-0.29422641 0.34742653 -0.40962142 0
-0.16619235 0.34558496 -0.40132552 0
-0.091192186 0.31539688 -0.37313691 0
-0.045392454 0.36373836 -0.34448344 0
0.42557842 0.32236356 -0.3549605 0
0.62011361 0.30609292 -0.33948022 0
0.8377254 0.34937233 -0.32899928 0
-0.88570923 0.42376733 -0.45511383 0
-0.77804041 0.43278667 -0.44489858 0
-0.69747442 0.46062636 -0.44340372 0
-0.6002388 0.43695712 -0.43563974 0
-0.51140964 0.463792 -0.42777681 0
-0.41206464 0.4420765 -0.41648051 0
-0.30461454 0.45353612 -0.41417778 0
-0.1872327 0.44261485 -0.39944217 0
-0.052597165 0.44584626 -0.38988185 0
-0.024113297 0.42768526 -0.37569776 0
0.094004929 0.45511103 -0.38299918 0
0.23074281 0.44541627 -0.36906505 0
0.41892439 0.42376357 -0.35909647 0
0.61016279 0.44288415 -0.34395504 0
0.82157922 0.47084963 -0.32846221 0
-0.36170995 -0.13244432 -0.34911469 0
-0.30930087 -0.12429078 -0.34837756 0
-0.33758378 -0.10045899 -0.34132907 0
-0.95335209 -0.44099319 -0.45724541 0
-0.86468494 -0.46582565 -0.44764912 0
-0.76554507 -0.44192466 -0.44647452 0
-0.66650558 -0.43423647 -0.44105649 0
-0.56781328 -0.45614523 -0.4323498 0
-0.46620786 -0.44793808 -0.42424542 0
-0.3367888 -0.44139001 -0.41711053 0
-0.29488042 -0.46870023 -0.3886109 0
-0.059554964 -0.44533801 -0.39530843 0
0.080730125 -0.47410661 -0.38791853 0
0.083985597 -0.43844393 -0.38249665 0
0.26051843 -0.47130907 -0.36866805 0
0.46026888 -0.46243569 -0.3554731 0
0.67865264 -0.47401968 -0.34393886 0
0.89690155 -0.44842726 -0.32228383 0
-0.96818447 -0.34698915 -0.45690563 0
-0.84596771 -0.36503571 -0.45234394 0
-0.75216049 -0.34904069 -0.44003505 0
-0.65295768 -0.34924266 -0.44005701 0
-0.55787987 -0.38766301 -0.42609909 0
-0.45178735 -0.34368607 -0.41214398 0
-0.39136797 -0.36103392 -0.38831368 0
-0.045293257 -0.33650601 -0.39605799 0
0.089566842 -0.37931997 -0.37911138 0
0.27366915 -0.37220091 -0.37151128 0
0.47329256 -0.36197051 -0.35860199 0
0.69295782 -0.34345645 -0.34387824 0
0.90348381 -0.36101282 -0.31910938 0
-0.96611714 -0.28399557 -0.45403334 0
-0.85223562 -0.2649343 -0.45218548 0
-0.73490328 -0.23262957 -0.44686189 0
-0.64542884 -0.26926744 -0.43517816 0
-0.54069704 -0.26502934 -0.43145558 0
-0.44166982 -0.2648024 -0.40128523 0
-0.40938452 -0.2422588 -0.38255292 0
-0.043974757 -0.28989351 -0.38998583 0
0.10324723 -0.24688876 -0.38201222 0
0.27821168 -0.2992892 -0.36699331 0
0.28197497 -0.24022067 -0.36628604 0
0.47880337 -0.25861582 -0.35344958 0
0.48287475 -0.27408239 -0.36134198 0
0.69694066 -0.26269883 -0.33985218 0
0.91506088 -0.23261338 -0.32375959 0
-0.97772282 -0.16095155 -0.46030548 0
-0.87539184 -0.19114964 -0.44912508 0
-0.73217881 -0.18282935 -0.44444534 0
-0.63882488 -0.15471686 -0.43221825 0
-0.53450114 -0.16885687 -0.42865717 0
-0.43534011 -0.12624022 -0.41974637 0
-0.35924664 -0.14489385 -0.37653553 0
0.11060607 -0.12923011 -0.38333482 0
0.2887882 -0.14425924 -0.36916509 0
0.47778857 -0.10716552 -0.34551811 0
0.48150986 -0.19615263 -0.3524662 0
0.70486969 -0.14712811 -0.34262532 0
0.91598034 -0.14338088 -0.32027864 0
-0.97632205 -0.085805878 -0.45780134 0
-0.85055739 -0.074010715 -0.45277834 0
-0.72728842 -0.07999973 -0.44424903 0
-0.62726986 -0.026424412 -0.44059795 0
-0.52881235 -0.047902882 -0.43047374 0
-0.43580425 -0.062015146 -0.41771799 0
-0.3313081 -0.088754445 -0.38949519 0
-0.31100142 -0.045229554 -0.38366258 0
0.11548761 -0.030979723 -0.38617277 0
0.29352039 -0.017711163 -0.37177765 0
0.49082971 -0.098246276 -0.35923705 0
0.70118964 -0.049642205 -0.33658484 0
0.92807794 -0.025590539 -0.33125943 0
-0.97372842 0.041556194 -0.461216 0
-0.87567163 0.035234675 -0.45093253 0
-0.74627542 0.045878191 -0.44563258 0
-0.63247263 0.034546681 -0.43664894 0
-0.52317894 0.065291286 -0.4360646 0
-0.43565837 0.02973333 -0.41907263 0
-0.32559866 0.061246499 -0.39838696 0
-0.27526048 0.049241871 -0.37944546 0
-0.21129897 0.076928884 -0.34555036 0
0.11493617 0.017281711 -0.38576517 0
0.28824347 0.059853554 -0.36801022 0
0.48930192 0.039619505 -0.35730204 0
0.7034291 0.061595619 -0.33981416 0
0.91927838 0.045268297 -0.32339358 0
-0.98153639 0.13911816 -0.45992607 0
-0.87434942 0.13915937 -0.4525272 0
-0.74167931 0.14544524 -0.43856603 0
-0.63622874 0.13367128 -0.43740031 0
-0.53428042 0.14629513 -0.43096429 0
-0.44294673 0.1311882 -0.41754571 0
-0.27809808 0.14964309 -0.40149069 0
-0.19069171 0.15835729 -0.36597914 0
0.28223073 0.12544006 -0.36565915 0
0.48216951 0.1507839 -0.35490623 0
0.69006968 0.11395687 -0.33080691 0
0.91403186 0.13999712 -0.32181042 0
-0.97379512 0.22285511 -0.45782238 0
-0.83282769 0.23455156 -0.45270643 0
-0.74510604 0.25041071 -0.44403085 0
-0.65598953 0.23053563 -0.43154144 0
-0.54533172 0.25269294 -0.43037054 0
-0.44880658 0.23580194 -0.4204779 0
-0.32178795 0.28399467 -0.4150036 0
-0.31376308 0.25020894 -0.41749224 0
-0.15575701 0.24433899 -0.37926108 0
0.27215129 0.2642656 -0.36648324 0
0.28431767 0.24727607 -0.37344724 0
0.47265005 0.21487981 -0.35116547 0
0.68891728 0.23359692 -0.33600324 0
0.90812951 0.23956287 -0.32233635 0
-0.96896058 0.33980423 -0.45973507 0
-0.87107223 0.30368263 -0.45344275 0
-0.75763595 0.32409981 -0.44363755 0
-0.66602135 0.35422647 -0.43676043 0
-0.55196095 0.35126629 -0.43492091 0
-0.46328592 0.30586255 -0.41782236 0
-0.33442309 0.33752087 -0.41222283 0
-0.19647864 0.33973905 -0.40424791 0
-0.072281122 0.34811628 -0.36167222 0
0.46221149 0.34651339 -0.35368907 0
0.68289113 0.34874511 -0.33976012 0
0.90203583 0.35642785 -0.325562 0
-0.9548887 0.41664729 -0.4539966 0
-0.86467302 0.41074619 -0.45288682 0
-0.77078962 0.44567752 -0.44960022 0
-0.67474902 0.42488936 -0.43963122 0
-0.57903779 0.45704496 -0.43192926 0
-0.47645053 0.44228396 -0.42421001 0
-0.34941131 0.43104917 -0.41322401 0
-0.21524474 0.45642745 -0.40501454 0
-0.070874035 0.45371312 -0.39512455 0
0.067130685 0.44392383 -0.38067591 0
0.25163245 0.45842767 -0.37028271 0
0.45016378 0.47675949 -0.35748553 0
0.66981184 0.42691773 -0.33800447 0
0.88623941 0.44028807 -0.32246536 0
-0.93141311 -0.43739507 -0.45945704 0
-0.84503299 -0.48980749 -0.44243574 0
-0.73394299 -0.45467615 -0.44283846 0
-0.63199031 -0.43759754 -0.43087804 0
-0.50804317 -0.46084806 -0.42134944 0
-0.33708662 -0.4670735 -0.40243408 0
-0.082833283 -0.43857598 -0.3904613 0
0.097887605 -0.45184901 -0.38024867 0
0.29617357 -0.45402691 -0.36637235 0
0.50728196 -0.49054694 -0.34355953 0
0.51949275 -0.39695707 -0.34746593 0
0.73480225 -0.43293333 -0.33421078 0
-0.91654277 -0.34821281 -0.45679393 0
-0.82122624 -0.35268581 -0.44836053 0
-0.71753752 -0.34780675 -0.44087273 0
-0.62058699 -0.35252351 -0.428684 0
-0.49037242 -0.33631927 -0.42261556 0
-0.4268392 -0.34671405 -0.38360628 0
-0.38087428 -0.39027444 -0.41315964 0
-0.22611707 -0.38077825 -0.37147686 0
0.11046885 -0.35553917 -0.38261628 0
0.30635464 -0.36106688 -0.36529946 0
0.52124947 -0.35670093 -0.3438918 0
0.7370398 -0.36853695 -0.32700217 0
-0.90661359 -0.2637198 -0.45368356 0
-0.80631745 -0.22888348 -0.44772604 0
-0.70715696 -0.24926931 -0.4383015 0
-0.60650653 -0.23905101 -0.43240601 0
-0.43265936 -0.23676561 -0.39486235 0
-0.30040443 -0.29612666 -0.36830026 0
0.11546355 -0.24716526 -0.37527311 0
0.11984381 -0.26474732 -0.38377407 0
0.31244907 -0.23503888 -0.35988703 0
0.31985912 -0.26669359 -0.37385833 0
0.53436255 -0.24758875 -0.35157844 0
0.74575865 -0.24964285 -0.32820162 0
-0.8956126 -0.14997572 -0.45555642 0
-0.8032366 -0.15777749 -0.44441521 0
-0.69922924 -0.1554752 -0.43949544 0
-0.60344887 -0.14510086 -0.42825678 0
-0.4477402 -0.15129486 -0.39837199 0
-0.35805282 -0.13357127 -0.38885206 0
0.12708351 -0.12298891 -0.38227725 0
0.32362562 -0.10730299 -0.36679882 0
0.5411672 -0.14044541 -0.35326698 0
0.75977182 -0.10211802 -0.33797941 0
-0.91914719 -0.05814825 -0.45258999 0
-0.80246413 -0.065851919 -0.44196588 0
-0.69492704 -0.044673897 -0.44007221 0
-0.59127659 -0.0092638731 -0.43733066 0
-0.47446492 -0.034471668 -0.4194164 0
-0.32984683 -0.06215629 -0.38541493 0
0.12325773 -0.059764475 -0.37644821 0
0.32137215 -0.032478631 -0.36348516 0
0.53925478 -0.029193223 -0.34890229 0
0.76405799 -0.016741157 -0.3410731 0
-0.89166111 0.052283131 -0.4554587 0
-0.80031472 0.0534118 -0.44505674 0
-0.70092201 0.039078556 -0.43525615 0
-0.5969792 0.061552867 -0.43321308 0
-0.4794302 0.046937183 -0.41650429 0
-0.30928609 0.016605437 -0.39005423 0
-0.25386691 0.056903809 -0.36315346 0
0.32561415 0.088076234 -0.36877978 0
0.54145449 0.084068418 -0.35209611 0
0.75454426 0.045966625 -0.33248475 0
-0.90182543 0.12823801 -0.45115912 0
-0.80851936 0.14820074 -0.44339305 0
-0.69749111 0.16196731 -0.44282743 0
-0.604285 0.16186783 -0.43174979 0
-0.47984278 0.16213684 -0.4212265 0
-0.34118176 0.15634096 -0.41441643 0
-0.23375687 0.13605714 -0.3868818 0
-0.18461552 0.17033058 -0.36257827 0
0.30900937 0.15875435 -0.35834685 0
0.32126194 0.1396805 -0.36679235 0
0.53554261 0.17017585 -0.35033736 0
0.74803221 0.17905933 -0.33159715 0
-0.91804326 0.25261673 -0.449604 0
-0.81385779 0.27245218 -0.44852009 0
-0.70873678 0.23333775 -0.43980604 0
-0.61549854 0.23748018 -0.42933011 0
-0.48801458 0.25988153 -0.42217711 0
-0.35472739 0.26557088 -0.4119201 0
-0.20689529 0.23968181 -0.40500596 0
-0.13191 0.25305173 -0.36022797 0
0.31336474 0.25456452 -0.36665672 0
0.52746469 0.25562489 -0.34875581 0
0.73807532 0.26669937 -0.32904828 0
-0.92898864 0.37398136 -0.45485908 0
-0.82313073 0.36097711 -0.45105457 0
-0.72370797 0.33620349 -0.43964064 0
-0.61983573 0.36332655 -0.43698046 0
-0.49934885 0.35116875 -0.42301586 0
-0.36685827 0.32448217 -0.40931231 0
-0.22068977 0.3241629 -0.40121579 0
-0.11068791 0.3241795 -0.38826868 0
-0.051973522 0.3785131 -0.35969737 0
0.3083306 0.31453782 -0.36716643 0
0.52210063 0.36960226 -0.35281992 0
0.72885877 0.37605441 -0.33061332 0
-0.94501954 0.44902518 -0.4552581 0
-0.84198713 0.46693003 -0.4525525 0
-0.74085188 0.44306535 -0.44130632 0
-0.64229429 0.45183095 -0.43419078 0
-0.50627398 0.47943461 -0.43140316 0
-0.37092814 0.42074439 -0.41566744 0
-0.23920357 0.4508996 -0.40244943 0
-0.096352756 0.45729291 -0.3919549 0
0.087281227 0.46887124 -0.38072062 0
0.28255206 0.48164737 -0.36546582 0
0.50225091 0.41929305 -0.34471771 0
-0.24534595 0.03711006 -0.33937803 0
-0.92427158 -0.47104844 -0.4510752 0
-0.82502699 -0.46887839 -0.44534409 0
-0.69570065 -0.45838696 -0.44292557 0
-0.55416119 -0.4164058 -0.43697122 0
-0.42332274 -0.4615944 -0.41811162 0
-0.29995328 -0.46881926 -0.40569729 0
-0.10709949 -0.48680761 -0.39690858 0
0.095523059 -0.42994642 -0.38269925 0
0.3000617 -0.48486146 -0.36161 0
0.51642275 -0.46084055 -0.34643003 0
0.79982513 -0.46879876 -0.33114034 0
-0.90497911 -0.35256085 -0.45276088 0
-0.80703247 -0.35287338 -0.44561642 0
-0.68545067 -0.38508183 -0.43899575 0
-0.55315542 -0.39660925 -0.43064743 0
-0.54608148 -0.34247676 -0.43035895 0
-0.4237031 -0.35520387 -0.40229231 0
-0.34287998 -0.32787898 -0.36989674 0
-0.25469679 -0.38568029 -0.38049924 0
0.10383701 -0.34898695 -0.3809633 0
0.31552142 -0.36344743 -0.36528337 0
0.53194273 -0.33287972 -0.35061538 0
0.81003994 -0.34041578 -0.32603267 0
-0.99925309 -0.28457215 -0.45717686 0
-0.89314181 -0.25658178 -0.45370141 0
-0.79137027 -0.24885251 -0.45245153 0
-0.66801292 -0.25191101 -0.44161007 0
-0.53545147 -0.25914863 -0.43320453 0
-0.41421393 -0.25602609 -0.39187929 0
0.11598691 -0.23615101 -0.38427415 0
0.31865692 -0.28940329 -0.35928282 0
0.52931762 -0.29939324 -0.3420395 0
0.82140136 -0.20982414 -0.32936734 0
-0.9887163 -0.15717916 -0.45745981 0
-0.88617069 -0.1547453 -0.45247397 0
-0.78784639 -0.17550653 -0.44837427 0
-0.6680972 -0.19012196 -0.43393391 0
-0.53156894 -0.1802762 -0.42916548 0
-0.38536987 -0.15258479 -0.4095906 0
-0.35769892 -0.16786265 -0.36626315 0
0.11125222 -0.21008143 -0.37525982 0
0.33000895 -0.16807327 -0.36493453 0
0.54437613 -0.15557241 -0.35131934 0
0.82375395 -0.14068216 -0.32834202 0
-0.98507893 -0.073465034 -0.45773292 0
-0.88479006 -0.058844067 -0.45005128 0
-0.78781891 -0.067864224 -0.44300246 0
-0.66164863 -0.08402051 -0.43601987 0
-0.52901143 -0.064783394 -0.42668879 0
-0.38876668 -0.041719481 -0.41717243 0
-0.3234022 -0.075797856 -0.38041097 0
-0.22914341 -0.030705571 -0.34628907 0
0.11499551 -0.10004902 -0.37467998 0
0.33464515 -0.068005711 -0.36613113 0
0.53835917 -0.066057384 -0.34181184 0
0.8216325 -0.053698957 -0.32388616 0
-0.98360264 0.019205861 -0.4593226 0
-0.88748574 0.023343876 -0.44822249 0
-0.78799081 0.044925518 -0.44347367 0
-0.66178674 0.057484839 -0.43617907 0
-0.65419525 0.015512921 -0.44215643 0
-0.52624553 0.040969603 -0.42892897 0
-0.39137346 0.024576873 -0.41480815 0
-0.27939385 0.04756844 -0.39627346 0
0.33303958 0.023262262 -0.36395401 0
0.53791416 0.033780575 -0.34172946 0
0.81962752 0.052664816 -0.32223514 0
-0.99255019 0.098693028 -0.45490652 0
-0.88835651 0.14522451 -0.45245209 0
-0.79304075 0.1327953 -0.44301009 0
-0.66917086 0.1351506 -0.43343124 0
-0.52853251 0.11051916 -0.42890042 0
-0.39336121 0.13378263 -0.41659936 0
-0.21788234 0.13120067 -0.37394333 0
-0.1605489 0.1685971 -0.34882301 0
0.33159089 0.1531229 -0.36556971 0
0.54914683 0.16291732 -0.35444295 0
0.81798625 0.15437859 -0.32374588 0
-0.99619228 0.22525284 -0.46030596 0
-0.89801538 0.25413787 -0.45311618 0
-0.79778427 0.23104525 -0.4457452 0
-0.67318606 0.24723887 -0.43740222 0
-0.53894478 0.19656214 -0.4254508 0
-0.40232542 0.22467971 -0.41485411 0
-0.26067743 0.22655937 -0.40558255 0
-0.17989415 0.20387861 -0.38316232 0
-0.13130933 0.27120933 -0.37505633 0
0.32599854 0.23818123 -0.36498123 0
0.53509158 0.26698351 -0.34821048 0
0.54280496 0.21784729 -0.35143551 0
0.81121302 0.26259881 -0.32329085 0
-0.9153493 0.34785512 -0.45152423 0
-0.80757326 0.32525826 -0.44719642 0
-0.68442661 0.29612708 -0.43424743 0
-0.54795778 0.33244953 -0.42941102 0
-0.4082652 0.31377214 -0.41732952 0
-0.28063011 0.32978708 -0.40029699 0
-0.25577086 0.3720822 -0.41828728 0
-0.09303838 0.34553254 -0.38351452 0
-0.056558013 0.32279709 -0.33421469 0
0.52898502 0.32702774 -0.34746867 0
0.81362927 0.388219 -0.33249179 0
-0.92727679 0.43530273 -0.45403641 0
-0.83073425 0.43579295 -0.44594246 0
-0.69160956 0.41637874 -0.44092694 0
-0.57698369 0.43897107 -0.42331719 0
-0.55620044 0.45764199 -0.43554401 0
-0.42959255 0.42105222 -0.41454303 0
-0.28103849 0.41661179 -0.40730646 0
-0.11235911 0.46049702 -0.39272684 0
-0.016538918 0.39600599 -0.37102503 0
0.31007153 0.45555156 -0.36908728 0
0.51889688 0.43232411 -0.34855309 0
0.79742664 0.45814955 -0.32719135 0
-0.4166176 -0.28823423 -0.35744148 0
-0.35136843 -0.13890883 -0.33458567 0
-0.26676995 0.052416354 -0.34710136 0
-0.092149645 0.2316097 -0.32485265 0
-0.97963446 -0.43892846 -0.45488143 0
-0.84996843 -0.42834511 -0.44808298 0
-0.72246993 -0.47146034 -0.43447763 0
-0.57969522 -0.46895534 -0.42464292 0
-0.42904052 -0.42679578 -0.41883302 0
-0.30785337 -0.46262693 -0.39813438 0
-0.053948589 -0.45031792 -0.39171791 0
0.16458082 -0.42966747 -0.37335891 0
0.37908974 -0.44530654 -0.35602131 0
0.67325282 -0.40907627 -0.34159812 0
-0.96564078 -0.34131083 -0.45504701 0
-0.8401984 -0.3553654 -0.44711939 0
-0.70468879 -0.34902051 -0.43803906 0
-0.56730062 -0.38041586 -0.42577639 0
-0.44800252 -0.30723029 -0.41365677 0
-0.4072876 -0.36000553 -0.39956659 0
-0.03970854 -0.34431094 -0.39575607 0
0.17234027 -0.34149605 -0.37130067 0
0.38476321 -0.36303937 -0.35208496 0
0.67659765 -0.32748115 -0.33580151 0
-0.95563906 -0.24840933 -0.45518172 0
-0.83206016 -0.26943374 -0.44486749 0
-0.69656402 -0.25875527 -0.43562761 0
-0.5554536 -0.26672751 -0.42662749 0
-0.43530142 -0.27325615 -0.39842448 0
-0.40985805 -0.23374298 -0.38277882 0
-0.29191762 -0.2541306 -0.37257478 0
0.18035576 -0.23431325 -0.3722142 0
0.39834648 -0.22717848 -0.35864764 0
0.67828864 -0.23973507 -0.33072275 0
-0.95076996 -0.18447244 -0.45504174 0
-0.82197881 -0.15846093 -0.44773167 0
-0.69125026 -0.18122658 -0.43568766 0
-0.5494653 -0.12460738 -0.42383021 0
-0.3728241 -0.14428625 -0.388183 0
0.18593165 -0.12853926 -0.37328875 0
0.4056139 -0.10701823 -0.36130089 0
0.68877226 -0.12875789 -0.33846104 0
-0.94204843 -0.070452929 -0.45957273 0
-0.82086974 -0.053841516 -0.44544807 0
-0.68373519 -0.065994859 -0.43928677 0
-0.54355502 0.0015112087 -0.4279069 0
-0.37809196 -0.067271605 -0.4091669 0
-0.30631807 -0.029930174 -0.3643769 0
0.18850982 -0.025130808 -0.37441304 0
0.40492147 -0.042688131 -0.35946572 0
0.6875577 -0.069650173 -0.33602116 0
-0.94513822 0.028857544 -0.45612866 0
-0.81985903 0.071788341 -0.44764882 0
-0.68557376 0.052460525 -0.43807095 0
-0.55286467 0.045546286 -0.42078468 0
-0.40688908 0.021346226 -0.41359398 0
-0.28597322 0.056225821 -0.39019886 0
0.40401208 0.058534622 -0.35951081 0
0.68899763 0.053096533 -0.33812085 0
-0.9556936 0.11025765 -0.45083177 0
-0.82547468 0.16584045 -0.44743773 0
-0.68944037 0.14705727 -0.43820477 0
-0.55534333 0.15732022 -0.42358539 0
-0.41120946 0.1585798 -0.41509745 0
-0.24380338 0.1281465 -0.39068335 0
-0.19042692 0.15882546 -0.35776168 0
0.39721638 0.18289912 -0.3579632 0
0.67554033 0.16529298 -0.33066458 0
0.99701953 0.12683886 -0.30551735 0
-0.95804483 0.25808403 -0.45829058 0
-0.83489633 0.25317925 -0.44681534 0
-0.69737011 0.25017154 -0.4390001 0
-0.56325394 0.26500112 -0.42503566 0
-0.23871207 0.2539582 -0.40248105 0
-0.14638123 0.26344556 -0.37159646 0
0.39067966 0.28492355 -0.35856336 0
0.67489624 0.29421258 -0.33687162 0
-0.97986031 0.36227578 -0.4551349 0
-0.84670603 0.34677666 -0.44744995 0
-0.70872986 0.34806573 -0.43942243 0
-0.57812554 0.31778589 -0.42023891 0
-0.41430119 0.3331354 -0.42365515 0
-0.2539407 0.34548837 -0.39973867 0
-0.082625687 0.35444877 -0.36842799 0
0.38345695 0.3495512 -0.35800636 0
0.98920643 0.34554148 -0.31134754 0
-0.97905988 0.41521508 -0.46017918 0
-0.85617131 0.4640829 -0.45348996 0
-0.73961735 0.4612959 -0.43402964 0
-0.71894133 0.41932851 -0.44029072 0
-0.58066607 0.42669055 -0.4284482 0
-0.4406631 0.43311265 -0.41688275 0
-0.42610395 0.40471622 -0.42228913 0
-0.25958505 0.46587524 -0.40672335 0
-0.062486351 0.45323974 -0.39083558 0
0.14866072 0.46237975 -0.37213993 0
0.3705973 0.45380706 -0.35816151 0
0.66389441 0.46255153 -0.34136271 0
0.67748493 0.41370064 -0.34628057 0
0.98048246 0.4781158 -0.31516916 0
-0.4049882 -0.19408545 -0.35223222 0
-0.21862918 0.053478271 -0.33665547 0
-0.88771302 -0.49732125 -0.4462916 0
-0.74017054 -0.46724784 -0.43671906 0
-0.5989002 -0.48201329 -0.42562255 0
-0.41699719 -0.47930717 -0.41344577 0
-0.25701749 -0.46761006 -0.39613536 0
0.00051392615 -0.45487213 -0.37929431 0
0.21901499 -0.46065658 -0.3661283 0
0.50637972 -0.47984096 -0.3468262 0
0.83298379 -0.44900388 -0.32283723 0
-0.87173057 -0.37697309 -0.4454757 0
-0.73089248 -0.37919781 -0.43279439 0
-0.58907044 -0.37080729 -0.41991043 0
-0.44023958 -0.35493088 -0.388695 0
-0.36697066 -0.34781632 -0.38901073 0
0.011064589 -0.35266417 -0.38130909 0
0.22599059 -0.36258632 -0.3632105 0
0.51704848 -0.36797151 -0.34830973 0
0.83379287 -0.36707735 -0.31507689 0
-0.9922322 -0.24762845 -0.45741504 0
