# .PCD v0.7 - Point Cloud Data file format
VERSION 0.7
FIELDS x y z intensity
SIZE 4 4 4 4
TYPE F F F F
COUNT 1 1 1 1
WIDTH 191
HEIGHT 1
VIEWPOINT 0 0 0 1 0 0 0
POINTS 191
DATA ascii
0.24278927 -0.40685868 -0.36871958 0
0.23345518 -0.12868571 -0.36066055 0
0.42323351 -0.047777653 -0.36197686 0
0.54261684 0.023919582 -0.35622782 0
0.58695602 0.1724484 -0.35650545 0
-0.26416063 0.066384077 -0.3992275 0
0.61072588 0.28779244 -0.35271263 0
-0.20659494 0.20205832 -0.39236581 0
0.63344908 0.41358829 -0.34843421 0
-0.15338469 0.33096135 -0.39406466 0
-0.14335823 0.42147851 -0.38718224 0
0.12708712 -0.48392284 -0.3677603 0
-0.60697889 -0.43766773 -0.41785961 0
-0.53749943 -0.35440052 -0.41346276 0
0.040016651 -0.19896412 -0.35792434 0
-0.44187117 -0.24011707 -0.40622139 0
-0.97532082 -0.2954818 -0.45623118 0
-0.35856533 -0.11718404 -0.39913458 0
-0.94185591 -0.17424202 -0.44419277 0
-0.87033176 0.026791573 -0.43948179 0
-0.81873751 0.22146249 -0.43078619 0
-0.77299929 0.41383684 -0.42385352 0
-0.70292044 -0.41062987 -0.41791755 0
-0.62645388 -0.32061267 -0.41187775 0
-0.45294619 -0.36903822 -0.36288983 0
-0.55246115 -0.22909391 -0.41161358 0
-0.37392235 -0.27623022 -0.36165947 0
-0.50791883 -0.11854613 -0.4095341 0
-0.99768686 0.17254221 -0.43877429 0
-0.16030741 -0.23011529 -0.36332977 0
-0.96290112 0.2768147 -0.43779224 0
-0.43935061 0.0066348314 -0.41077089 0
0.018335819 -0.17291629 -0.35995167 0
-0.94691849 0.35881257 -0.43190473 0
-0.38689899 0.12893569 -0.40054297 0
0.29071045 -0.10668206 -0.36444569 0
-0.30539274 0.32224512 -0.39978904 0
0.38984728 0.0017240047 -0.35990375 0
-0.29133129 0.41291714 -0.3935557 0
0.43911839 0.13648391 -0.36125207 0
0.76051998 0.036789417 -0.30349052 0
0.46315479 0.24390745 -0.35726184 0
0.4715519 0.34244251 -0.34840828 0
-0.78122044 -0.33700335 -0.44226694 0
-0.49843121 0.16662014 -0.42005223 0
-0.40686178 0.37659574 -0.40855873 0
-0.74632502 -0.26921451 -0.43104351 0
-0.69201517 -0.15646625 -0.42786372 0
-0.4210124 -0.35865867 -0.38867819 0
-0.63501215 -0.045109153 -0.42604375 0
-0.34588432 -0.28472662 -0.38347524 0
-0.16120815 -0.21558881 -0.38384998 0
-0.5749507 0.048175812 -0.4207288 0
0.061044216 -0.13917971 -0.38478529 0
-0.466887 0.24951053 -0.41143042 0
0.15110302 -0.04413271 -0.37895429 0
0.22694254 0.037419558 -0.37187135 0
-0.37191963 0.46068895 -0.40290582 0
0.29108524 0.16182733 -0.36766547 0
0.35411978 0.29009843 -0.36435938 0
0.39708519 0.39259815 -0.35538352 0
0.26056337 -0.20552111 -0.32418853 0
0.75231934 -0.45769119 -0.35167038 0
0.45570135 -0.12815046 -0.32459581 0
0.66030598 -0.039896965 -0.32318109 0
-0.95589161 -0.30510342 -0.4449088 0
-0.86126614 -0.20213079 -0.43748981 0
-0.51597834 -0.45450437 -0.40685737 0
-0.78545427 -0.11975896 -0.43064636 0
-0.42086792 -0.3626045 -0.39676577 0
-0.32204199 -0.27263594 -0.38812506 0
-0.68574476 -0.015248775 -0.42540991 0
-0.58906698 0.065963745 -0.41774094 0
-0.088781834 -0.19755661 -0.38929766 0
-0.48473692 0.15985143 -0.40979421 0
0.074004173 -0.14228892 -0.3772862 0
-0.4000721 0.24610031 -0.40284353 0
0.225348 -0.046371937 -0.37080282 0
-0.27398682 0.38443017 -0.40260518 0
0.38615513 0.059536219 -0.36550391 0
0.48610163 0.14612079 -0.35249513 0
0.5987854 0.25263166 -0.34495741 0
0.7534256 0.41004348 -0.34311914 0
0.83523369 0.4791348 -0.32992661 0
-0.63128948 -0.39551604 -0.42278385 0
-0.61025667 -0.27467918 -0.42667812 0
-0.64527225 -0.12706339 -0.42886961 0
-0.68103361 0.0049549341 -0.43049955 0
-0.71531296 0.13187563 -0.43226397 0
-0.77826357 0.29200411 -0.43396926 0
-0.83061695 0.41357815 -0.43458867 0
-0.41972494 -0.32259393 -0.37265843 0
-0.3132987 -0.26237512 -0.37466675 0
-0.083768845 -0.18842769 -0.38826752 0
-0.020265579 -0.055189252 -0.39676481 0
0.26027918 -0.19079447 -0.32671326 0
-0.066241741 0.096507788 -0.39969879 0
0.40026855 -0.098905087 -0.33336538 0
-0.20573759 0.37108278 -0.3989501 0
-0.12336397 0.25732899 -0.40253091 0
0.62531662 0.006136179 -0.34884423 0
0.6344552 0.15110779 -0.35167879 0
0.55769777 0.3231144 -0.35727477 0
0.45585775 0.45440602 -0.35533637 0
-0.68304729 -0.4622426 -0.41447824 0
-0.63627529 -0.32291806 -0.42446935 0
-0.66435719 -0.21109867 -0.41979212 0
-0.39174891 -0.27815008 -0.36582881 0
-0.68098688 -0.011089683 -0.43077123 0
-0.72583389 0.10117722 -0.42938721 0
-0.19965792 -0.21469176 -0.37496597 0
-0.80103493 0.24546576 -0.42956793 0
0.0063443184 -0.15338647 -0.38628119 0
-0.023387432 0.031251073 -0.39279097 0
0.34744644 -0.10994935 -0.32602161 0
-0.10745668 0.17767942 -0.39301586 0
-0.16838169 0.34359968 -0.39979029 0
0.54738045 -0.030226469 -0.33659518 0
-0.26868486 0.49921358 -0.40184242 0
0.61459351 0.25350356 -0.35128695 0
0.50800133 0.45166612 -0.36052382 0
-0.85361004 0.38699591 -0.43381625 0
-0.54827929 -0.38389611 -0.41295338 0
-0.47465944 -0.32069588 -0.40486622 0
-0.33089638 -0.20133102 -0.40456128 0
-0.26116323 -0.13422978 -0.39321154 0
-0.16157866 0.013844013 -0.39355701 0
0.14810801 -0.19917226 -0.34420794 0
0.27393532 -0.12858963 -0.33692944 0
-0.063643932 0.16649926 -0.39926755 0
-0.027712345 0.25533795 -0.38784146 0
0.012636662 0.39161706 -0.38487673 0
0.0084123611 0.472507 -0.37106436 0
-0.97996855 0.049727798 -0.44856024 0
-0.93916512 0.15211272 -0.44301862 0
-0.90135717 0.25160503 -0.43908489 0
-0.87206507 0.35067046 -0.43242007 0
-0.83857346 0.46537769 -0.42723095 0
-0.84929228 -0.33851182 -0.43637866 0
-0.90864515 -0.15124035 -0.44475168 0
-0.41952705 -0.34108305 -0.3930046 0
-0.99637222 0.018004656 -0.44907159 0
-0.33404779 -0.20798123 -0.40525001 0
-0.40025949 -0.059250236 -0.40943366 0
-0.49142408 0.071907997 -0.40953469 0
-0.58615923 0.26441967 -0.41763651 0
-0.70924807 0.43268454 -0.42115188 0
0.15309095 0.17039061 -0.37546301 0
0.016597271 0.40015268 -0.38776356 0
-0.85631895 -0.25131845 -0.45183676 0
-0.36519861 -0.49313915 -0.39132595 0
-0.8391099 -0.12390196 -0.4458276 0
-0.83416939 -0.024876356 -0.4390198 0
-0.42565727 -0.31248498 -0.38972646 0
-0.83350658 0.076042771 -0.43114769 0
-0.21950483 -0.19132757 -0.39516521 0
-0.12296724 -0.14854419 -0.38403267 0
-0.80307102 0.23087442 -0.4344517 0
-0.81405687 0.34815621 -0.42685491 0
-0.036642075 0.031683922 -0.39239734 0
-0.82787991 0.45604753 -0.41993308 0
-0.0034947395 0.17577839 -0.39089912 0
-0.018396854 0.2887826 -0.38228238 0
0.0067739487 0.46066499 -0.38855213 0
-0.70610714 -0.43925667 -0.42681682 0
-0.60225916 -0.32719529 -0.42372292 0
-0.51536608 -0.23796916 -0.41414487 0
-0.45362997 -0.1408776 -0.4059127 0
-0.35871935 0.008911252 -0.40978074 0
-0.29421997 0.12607169 -0.4011485 0
-0.21176958 0.26485646 -0.40273219 0
-0.16575861 0.39264321 -0.39679646 0
-0.71668243 -0.39590907 -0.43199098 0
-0.64110041 -0.32204628 -0.42081839 0
-0.51454926 -0.1593585 -0.42734796 0
-0.46001434 -0.039791346 -0.4230296 0
-0.40841913 0.057121515 -0.41060358 0
-0.32737923 0.19403446 -0.41066802 0
-0.27343369 0.3175391 -0.4053722 0
-0.23688364 0.45789671 -0.39866483 0
-0.83479404 -0.3740834 -0.4458679 0
-0.75120401 -0.2595309 -0.43632615 0
-0.69499493 -0.11850965 -0.43178183 0
-0.63603544 0.0033925772 -0.42965251 0
-0.56856585 0.12293613 -0.42316425 0
-0.54027748 0.23082209 -0.41206467 0
-0.4733882 0.40206802 -0.4151423 0
-0.98627329 0.00048613548 -0.44577646 0
-0.9469595 0.11590755 -0.43807065 0
-0.88682413 0.26435995 -0.43687582 0
-0.8477602 0.38564134 -0.43086618 0
