# .PCD v0.7 - Point Cloud Data file format
VERSION 0.7
FIELDS x y z intensity
SIZE 4 4 4 4
TYPE F F F F
COUNT 1 1 1 1
WIDTH 1287
HEIGHT 1
VIEWPOINT 0 0 0 1 0 0 0
POINTS 1287
DATA ascii
-0.54452896 0.032914877 -0.36677533 0
-0.46992683 0.11443162 -0.36224636 0
-0.434659 0.14563775 -0.36771578 0
-0.96643603 -0.26362777 -0.36547279 0
-0.88447869 -0.1848135 -0.36341125 0
-0.80555046 -0.087548256 -0.36360824 0
-0.74876237 0.030018091 -0.35651785 0
-0.68335545 0.017025232 -0.3640053 0
-0.58885574 0.10236955 -0.36412388 0
-0.53165472 0.17193365 -0.36674461 0
-0.48639393 0.24189568 -0.36573178 0
-0.96259093 -0.10846376 -0.36877358 0
-0.89194489 -0.040685654 -0.36603385 0
-0.82240319 0.029160976 -0.36503696 0
-0.75427747 0.11247754 -0.35969573 0
-0.66104662 0.14631009 -0.36091018 0
-0.59389234 0.25149465 -0.36421579 0
-0.52713776 0.31549597 -0.36188424 0
-0.94762933 0.056104183 -0.3622331 0
-0.8685118 0.096909523 -0.35979372 0
-0.83445263 0.19799089 -0.36242479 0
-0.72899652 0.25144768 -0.36618161 0
-0.67081976 0.30483484 -0.36502856 0
-0.60067534 0.36912417 -0.36072275 0
-0.97711849 0.17292762 -0.35880497 0
-0.89762259 0.22582006 -0.36698189 0
-0.84133375 0.29357839 -0.36010343 0
-0.73551559 0.38658333 -0.36361182 0
-0.65361035 0.47772431 -0.36263609 0
-0.93908691 0.31834316 -0.36279219 0
-0.86951828 0.42498016 -0.36439693 0
-0.80586624 0.46275139 -0.36183843 0
-0.97077549 0.44086099 -0.36359286 0
0.37687922 -0.45137072 -0.36780328 0
0.28258657 -0.44655585 -0.36059341 0
0.13789606 -0.43084657 -0.36147872 0
0.20244718 -0.37510359 -0.3673282 0
-0.071235657 -0.48490036 -0.36056858 0
-0.0078346729 -0.42426562 -0.36357933 0
0.049766779 -0.34576714 -0.36798209 0
0.098395109 -0.30812466 -0.3651785 0
-0.22893882 -0.48823071 -0.35726035 0
-0.15760541 -0.43086982 -0.36136252 0
-0.089927197 -0.35039711 -0.36775655 0
-0.030900002 -0.29264355 -0.3640281 0
0.02845335 -0.23319745 -0.36682135 0
-0.34871173 -0.47066045 -0.36200178 0
-0.29539514 -0.4171679 -0.36157447 0
-0.21115518 -0.34970903 -0.36781597 0
-0.13784671 -0.29047942 -0.36830577 0
-0.083640337 -0.19561267 -0.36670655 0
-0.042268276 -0.16041422 -0.36662221 0
-0.50873208 -0.48441362 -0.35750639 0
-0.44496131 -0.42442679 -0.36322194 0
-0.36351943 -0.33972716 -0.36464107 0
-0.28590512 -0.26921678 -0.3678453 0
-0.21649027 -0.2169652 -0.37070194 0
-0.15611553 -0.11805248 -0.36548075 0
-0.092246532 -0.087082624 -0.36937124 0
-0.66325355 -0.47196794 -0.36034626 0
-0.56877565 -0.41319942 -0.36545253 0
-0.51216173 -0.33878589 -0.36951247 0
-0.4469161 -0.27648807 -0.36800349 0
-0.35278153 -0.19773507 -0.36589456 0
-0.28448367 -0.12887788 -0.36621171 0
-0.23130798 -0.055431843 -0.36458078 0
-0.15447092 -0.015523911 -0.36816043 0
-0.77660298 -0.47386074 -0.35960442 0
-0.72283983 -0.37297487 -0.37028965 0
-0.64355683 -0.33844995 -0.36849627 0
-0.57316375 -0.27120614 -0.36709732 0
-0.49588299 -0.21958852 -0.36653811 0
-0.42673945 -0.12334919 -0.36665988 0
-0.35332608 -0.075472832 -0.36464137 0
-0.27784705 0.016002417 -0.36536238 0
-0.21602607 0.056159019 -0.36556548 0
-0.95811892 -0.47319913 -0.35421211 0
-0.85433102 -0.41698813 -0.36474776 0
-0.78301144 -0.31790853 -0.36723506 0
-0.71120763 -0.26761937 -0.36425483 0
-0.64703751 -0.17713833 -0.36479211 0
-0.54975104 -0.12146902 -0.36963391 0
-0.49400806 -0.053193569 -0.3672024 0
-0.42804813 0.027768373 -0.37395674 0
-0.36025739 0.056507111 -0.36859757 0
-0.29285645 0.16014194 -0.37132069 0
-0.99816322 -0.38193107 -0.37354305 0
-0.91343379 -0.35052371 -0.3667883 0
-0.82009101 -0.25845456 -0.36765116 0
-0.79492879 -0.22191024 -0.36516678 0
-0.7146908 -0.11986661 -0.36664653 0
-0.61592984 -0.044896364 -0.36480427 0
-0.5282377 0.029803514 -0.37140238 0
-0.49131763 0.08486414 -0.37080702 0
-0.43414211 0.13016438 -0.36490276 0
-0.34887433 0.20773435 -0.36783376 0
-0.33275473 0.2928443 -0.37100062 0
-0.96657372 -0.26974535 -0.36598665 0
-0.8753432 -0.15761542 -0.36902916 0
-0.78057313 -0.082411766 -0.3651644 0
-0.69081664 -0.017344952 -0.3635945 0
-0.67426324 0.067387581 -0.36572343 0
-0.56997395 0.1289928 -0.36883044 0
-0.49935865 0.23827362 -0.37014374 0
-0.42600965 0.29434156 -0.36722851 0
-0.36741257 0.33109736 -0.36584949 0
-0.92655563 -0.051137447 -0.37085313 0
-0.84464145 0.010355234 -0.37178928 0
-0.77696705 0.070669889 -0.36724856 0
-0.70772481 0.13996649 -0.36629152 0
-0.64109206 0.20116949 -0.36425352 0
-0.59102154 0.27832031 -0.36438888 0
-0.50006104 0.35584998 -0.36931929 0
-0.42280495 0.41352773 -0.36550093 0
-0.97632122 0.059760571 -0.37220472 0
-0.88961196 0.049335003 -0.36413845 0
-0.85693073 0.14515185 -0.37061709 0
-0.78729081 0.22895741 -0.36670834 0
-0.67602539 0.2948637 -0.36591274 0
-0.64716578 0.37845063 -0.36570218 0
-0.55390811 0.41951728 -0.36830473 0
-0.47030854 0.48573542 -0.36770201 0
-0.92101264 0.15339565 -0.36892956 0
-0.94838333 0.20681643 -0.36703968 0
-0.86548185 0.28781366 -0.36894652 0
-0.79296398 0.33502007 -0.36477694 0
-0.7208519 0.42918515 -0.36737791 0
-0.98459101 0.30378389 -0.36685941 0
-0.89152956 0.37281036 -0.3705042 0
-0.84358728 0.45918155 -0.37060127 0
-0.93634176 0.49876499 -0.36775976 0
0.63385677 -0.45484769 -0.37114716 0
0.51508188 -0.45431709 -0.36951119 0
0.57577252 -0.42021334 -0.37371671 0
0.35538816 -0.45790255 -0.36708981 0
0.44773269 -0.39340234 -0.37294161 0
0.22375846 -0.4398998 -0.36866239 0
0.29240847 -0.38899326 -0.36924383 0
0.35592961 -0.33043134 -0.37287712 0
0.093277693 -0.4429816 -0.36769024 0
0.17232776 -0.37853432 -0.37282404 0
0.22135353 -0.31224036 -0.36775857 0
0.26216769 -0.25608766 -0.37108213 0
-0.056776047 -0.43769658 -0.37182945 0
0.00079226494 -0.37436414 -0.37093693 0
0.076639891 -0.31039786 -0.37193644 0
0.16327405 -0.25227869 -0.37415639 0
0.17952132 -0.16223383 -0.37527245 0
-0.21691608 -0.42925358 -0.36839882 0
-0.15861464 -0.38684607 -0.37031931 0
-0.060611248 -0.30955076 -0.3727988 0
0.018369913 -0.22584653 -0.37286627 0
0.083878517 -0.16448689 -0.37064478 0
0.11802673 -0.098883867 -0.37612462 0
-0.37053323 -0.44325995 -0.36491805 0
-0.30153012 -0.38112783 -0.37097895 0
-0.19016147 -0.27566957 -0.37068141 0
-0.10737681 -0.22578263 -0.37417847 0
-0.071986437 -0.14384031 -0.37057665 0
0.00041484833 -0.096119404 -0.37360138 0
0.048872232 -0.041116714 -0.37346527 0
-0.49202847 -0.45106101 -0.3645469 0
-0.43468285 -0.35406542 -0.37689257 0
-0.35865855 -0.30373597 -0.37603158 0
-0.26484346 -0.23248434 -0.37552416 0
-0.1876986 -0.1408658 -0.37315881 0
-0.13144231 -0.080639362 -0.36951789 0
-0.067667484 -0.023123026 -0.37266606 0
-0.013817787 0.045823574 -0.37584543 0
-0.61678433 -0.44365263 -0.36498985 0
-0.538486 -0.35578084 -0.3790977 0
-0.49785924 -0.32129216 -0.37162 0
-0.41782928 -0.26871538 -0.36979741 0
-0.34869671 -0.17320395 -0.37443501 0
-0.27445841 -0.081510067 -0.36992371 0
-0.18359041 -0.0031716824 -0.37126863 0
-0.11902809 0.045221567 -0.37313208 0
-0.077042103 0.11650848 -0.37393799 0
-0.76873899 -0.45945191 -0.36626703 0
-0.72198272 -0.38322282 -0.37146276 0
-0.63191938 -0.28552818 -0.37531996 0
-0.56367445 -0.23201418 -0.37191904 0
-0.47550368 -0.16008854 -0.37509382 0
-0.41008282 -0.10065079 -0.37286171 0
-0.35370398 -0.008877039 -0.37455663 0
-0.26495862 0.060654163 -0.37383419 0
-0.19627857 0.13941431 -0.37591317 0
-0.14083457 0.16861343 -0.36739558 0
-0.91242981 -0.38990688 -0.36734599 0
-0.8476274 -0.38937378 -0.37416735 0
-0.77813244 -0.287606 -0.37701118 0
-0.70706892 -0.2392447 -0.36541927 0
-0.62545252 -0.14490128 -0.37153822 0
-0.54035974 -0.087965727 -0.3716099 0
-0.46568251 -0.010056496 -0.37421674 0
-0.40744281 0.049026251 -0.37071151 0
-0.3313365 0.12332368 -0.37307644 0
-0.25593567 0.17668605 -0.36881122 0
-0.20893312 0.27559495 -0.37100744 0
-0.94028771 -0.33625674 -0.36914212 0
-0.83357489 -0.2262032 -0.37341329 0
-0.75141978 -0.13615608 -0.37071994 0
-0.66841769 -0.055439949 -0.37490803 0
-0.59273648 0.011196375 -0.37398565 0
-0.52927887 0.08321619 -0.37251961 0
-0.45652008 0.14841819 -0.37341049 0
-0.4089098 0.18889737 -0.36849549 0
-0.32055664 0.24408603 -0.37143317 0
-0.2782743 0.35140753 -0.37233323 0
-0.98859477 -0.23769236 -0.37230867 0
-0.88204193 -0.14548111 -0.37362742 0
-0.80412698 -0.035706758 -0.37234056 0
-0.75531805 -0.017664671 -0.37291569 0
-0.6686995 0.027778625 -0.37209064 0
-0.61097503 0.15391755 -0.37061727 0
-0.53504145 0.18618894 -0.37195894 0
-0.47785926 0.26850414 -0.37310624 0
-0.38356686 0.34676576 -0.37453508 0
-0.34182048 0.41250777 -0.37178656 0
-0.27332199 0.47324991 -0.37667149 0
-0.94279134 -0.060187101 -0.3700459 0
-0.84910655 0.045147657 -0.3717528 0
-0.76237333 0.11879754 -0.37559968 0
-0.69081759 0.19102144 -0.37365818 0
-0.62939715 0.28111362 -0.37302589 0
-0.53923786 0.32779264 -0.36931437 0
-0.45395756 0.40322971 -0.37100646 0
-0.37526703 0.48376727 -0.37077323 0
-0.99206698 0.071162939 -0.3750183 0
-0.89887571 0.14397645 -0.37122789 0
-0.82302809 0.21804428 -0.3713941 0
-0.72042394 0.29176044 -0.37900642 0
-0.68833375 0.33816504 -0.37326777 0
-0.57748234 0.41382217 -0.37568581 0
-0.54440367 0.49283743 -0.37480557 0
-0.92604208 0.20782828 -0.3715803 0
-0.9011035 0.29388785 -0.36765552 0
-0.80322886 0.34576797 -0.37112728 0
-0.79441893 0.39982247 -0.36857286 0
-0.69764256 0.45258737 -0.37349832 0
-0.97567749 0.33738089 -0.37199926 0
-0.90731061 0.40627313 -0.36763686 0
-0.95467973 0.48057842 -0.37196147 0
0.92003798 -0.4634527 -0.3728179 0
0.99049103 -0.42722702 -0.37446213 0
0.78175426 -0.46729815 -0.36869252 0
0.84823895 -0.40097189 -0.37121436 0
0.63593626 -0.43609297 -0.37489924 0
0.71500301 -0.40131354 -0.37323788 0
0.76496243 -0.32479179 -0.37593669 0
0.48306894 -0.46270585 -0.36981112 0
0.56889749 -0.37879956 -0.37136096 0
0.63779497 -0.31978631 -0.37229863 0
0.70849371 -0.2845434 -0.37904152 0
0.35711956 -0.44336176 -0.37021744 0
0.42199326 -0.36555433 -0.37118 0
0.50843287 -0.32445014 -0.37001646 0
0.57299376 -0.24982464 -0.37475854 0
0.20214772 -0.44885385 -0.37122792 0
0.28907657 -0.37958145 -0.37012669 0
0.34936523 -0.29657114 -0.37215447 0
0.43045402 -0.2326988 -0.3765226 0
0.50591063 -0.18022978 -0.37546363 0
0.076439381 -0.45800197 -0.37152448 0
0.14175367 -0.38840353 -0.37175423 0
0.1778729 -0.32162607 -0.37227595 0
0.27192402 -0.24893141 -0.37451392 0
0.34279609 -0.15917099 -0.37780461 0
0.41479397 -0.11357903 -0.37528592 0
-0.06033802 -0.46092701 -0.37000564 0
0.00019431114 -0.39421213 -0.37127131 0
0.067873955 -0.31069911 -0.37315643 0
0.1501441 -0.23043323 -0.37231171 0
0.2112515 -0.16179299 -0.37619376 0
0.27527952 -0.082473159 -0.37692535 0
0.33438349 -0.052839041 -0.37423778 0
-0.18891001 -0.43988752 -0.36802018 0
-0.14505386 -0.38435006 -0.37140384 0
-0.056481838 -0.31462574 -0.37324461 0
-0.042574406 -0.24654388 -0.37190631 0
0.076315165 -0.16546631 -0.37466523 0
0.16662955 -0.10215259 -0.37327442 0
0.20778227 -0.030711651 -0.37037092 0
0.28965116 -0.00065422058 -0.37629157 0
-0.3594141 -0.44847822 -0.36701718 0
-0.26703668 -0.40560031 -0.3687562 0
-0.22798944 -0.31134677 -0.37591818 0
-0.13595319 -0.23787618 -0.37442604 0
-0.091812611 -0.14116764 -0.36943573 0
0.0059862137 -0.11899304 -0.3749935 0
0.067055225 -0.025952339 -0.37638652 0
0.14031911 0.058162928 -0.37355843 0
0.19933867 0.083121777 -0.37496147 0
-0.44884133 -0.43490243 -0.36341494 0
-0.42248201 -0.36847973 -0.3692396 0
-0.34907079 -0.30928874 -0.37783211 0
-0.30324602 -0.23872161 -0.3744109 0
-0.22110534 -0.16993475 -0.37591928 0
-0.15953183 -0.096215248 -0.37572345 0
-0.072863817 -0.022046566 -0.37483707 0
-0.0063774586 0.047279596 -0.37458813 0
0.090998888 0.11263013 -0.37161261 0
0.11155319 0.19417644 -0.37670329 0
-0.60483932 -0.40943146 -0.36826205 0
-0.56307602 -0.43566298 -0.36724022 0
-0.53021336 -0.32044435 -0.37345144 0
-0.42497301 -0.2231493 -0.37816584 0
-0.35953188 -0.17622471 -0.37342101 0
-0.29242945 -0.10962749 -0.371391 0
-0.22040415 -0.010892153 -0.37744772 0
-0.14218736 0.051528454 -0.37121493 0
-0.058343172 0.12669325 -0.37386894 0
0.019291639 0.19707561 -0.37715745 0
0.058626652 0.25038075 -0.37455881 0
-0.82330537 -0.47538018 -0.36594963 0
-0.75163603 -0.42021179 -0.36891812 0
-0.66512084 -0.36482215 -0.37167656 0
-0.58333969 -0.24554682 -0.37449765 0
-0.47879672 -0.16692543 -0.37595969 0
-0.42488217 -0.092090607 -0.37307906 0
-0.3525486 -0.012627602 -0.37418491 0
-0.27473521 0.025890827 -0.3714869 0
-0.23658109 0.097714663 -0.36587593 0
-0.1270082 0.19832253 -0.37533236 0
-0.062757015 0.26613879 -0.37478429 0
0.0070574284 0.30651641 -0.37175331 0
-0.91811562 -0.4262445 -0.36889327 0
-0.83271146 -0.34563041 -0.37618476 0
-0.74524713 -0.27729678 -0.36997098 0
-0.73472977 -0.25099158 -0.37653559 0
-0.63929009 -0.15790844 -0.37610132 0
-0.54709959 -0.079623938 -0.37460366 0
-0.48532271 0.003970623 -0.37457365 0
-0.41066098 0.07608366 -0.37470466 0
-0.33939338 0.13296103 -0.37329561 0
-0.27436495 0.17924905 -0.36976108 0
-0.19855833 0.24273658 -0.3704769 0
-0.13942385 0.32827783 -0.37089485 0
-0.050571442 0.40157628 -0.3766084 0
-0.90731478 -0.29493713 -0.3689788 0
-0.80208945 -0.14448977 -0.37764716 0
-0.69135165 -0.081722021 -0.37581414 0
-0.61206579 -0.0077292919 -0.37021494 0
-0.53623486 0.0634377 -0.37132466 0
-0.4716357 0.13421893 -0.36844671 0
-0.40332794 0.23419046 -0.37271237 0
-0.30849302 0.26919842 -0.37498298 0
-0.25893855 0.3278842 -0.37370193 0
-0.20378935 0.39933562 -0.37005901 0
-0.1383369 0.46960998 -0.37360805 0
-0.95890808 -0.20748711 -0.37003717 0
-0.86182523 -0.087015152 -0.37152314 0
-0.74744058 -0.027803659 -0.37005633 0
-0.63127267 0.12132668 -0.37527329 0
-0.54904318 0.19111967 -0.37199676 0
-0.49459517 0.29064846 -0.37092352 0
-0.42672431 0.29848695 -0.37607986 0
-0.34787297 0.38152766 -0.37510574 0
-0.27436817 0.47429633 -0.37903973 0
-0.91073132 0.012980938 -0.37367523 0
-0.79811525 0.10657668 -0.37682146 0
-0.69660306 0.18155527 -0.37663442 0
-0.63894665 0.25931716 -0.37292308 0
-0.55961728 0.35312819 -0.37659413 0
-0.48496413 0.39535427 -0.3732276 0
-0.41485941 0.46440768 -0.37332603 0
-0.95378828 0.097460508 -0.37401173 0
-0.85397732 0.2002337 -0.3744849 0
-0.74738061 0.27229238 -0.37498227 0
-0.66389883 0.31674981 -0.37381071 0
-0.62279868 0.42739987 -0.376084 0
-0.99448311 0.19689703 -0.37618187 0
-0.88963127 0.30366826 -0.37821835 0
-0.75247335 0.39791179 -0.37411433 0
-0.73110843 0.48290467 -0.37500712 0
-0.93202722 0.35243917 -0.37099451 0
-0.8385253 0.47026634 -0.37239772 0
-0.97258651 0.47852588 -0.37332129 0
0.83211875 -0.49532139 -0.37347215 0
0.89774728 -0.49032652 -0.37386259 0
0.95985568 -0.38627005 -0.37501815 0
0.76098394 -0.4737649 -0.37053627 0
0.84156942 -0.41411483 -0.36907235 0
0.91527665 -0.3637836 -0.36977065 0
0.97068524 -0.26019657 -0.37540966 0
0.69164133 -0.40560842 -0.37269706 0
0.75512528 -0.35025716 -0.37348071 0
0.83820152 -0.28257549 -0.37192902 0
0.88192713 -0.22513509 -0.37451515 0
0.48575735 -0.47988892 -0.36839563 0
0.54717398 -0.41304803 -0.36981115 0
0.61553454 -0.33016813 -0.3742258 0
0.66990995 -0.27349079 -0.37579322 0
0.76110578 -0.19951189 -0.37547225 0
0.82417953 -0.18563938 -0.3766607 0
0.31466269 -0.44970489 -0.36655587 0
0.41786265 -0.4003216 -0.37114784 0
0.4663949 -0.33525395 -0.37378851 0
0.53142452 -0.26678896 -0.37783176 0
0.60703754 -0.20954919 -0.37508512 0
0.69255495 -0.14747834 -0.37610143 0
0.1821599 -0.48851216 -0.36740449 0
0.24272513 -0.39539039 -0.37093303 0
0.33296943 -0.34773624 -0.37373495 0
0.39466 -0.27457583 -0.37166595 0
0.49136209 -0.19211864 -0.3761791 0
0.58050299 -0.12321341 -0.37681413 0
0.6125325 -0.058048248 -0.37638611 0
0.044376612 -0.48959279 -0.36443007 0
0.12763286 -0.42713809 -0.36954257 0
0.18799973 -0.37087858 -0.37068498 0
0.26375794 -0.26329923 -0.37245402 0
0.34940076 -0.15288508 -0.3739928 0
0.41292071 -0.12701559 -0.37458396 0
0.49061203 -0.041544676 -0.37622848 0
0.51903427 0.0014767647 -0.37448946 0
-0.096533775 -0.46736598 -0.36570308 0
-0.024266005 -0.37965274 -0.37316498 0
0.057098866 -0.36900294 -0.37403244 0
0.11185527 -0.27895689 -0.37789875 0
0.15912056 -0.1981585 -0.37677824 0
0.26954794 -0.11333597 -0.37982035 0
0.33823013 -0.036745787 -0.37498021 0
0.40333605 0.030773163 -0.3725861 0
0.46806955 0.064044118 -0.37826234 0
-0.26903319 -0.48257184 -0.36560148 0
-0.18816471 -0.41932869 -0.36949164 0
-0.0887568 -0.32436371 -0.37240407 0
-0.0083165169 -0.23712635 -0.37359375 0
0.048420668 -0.24568129 -0.37346673 0
0.12048364 -0.13404179 -0.37412372 0
0.20391488 -0.055033445 -0.37437895 0
0.26983762 0.0050752163 -0.37733537 0
0.34317541 0.11247122 -0.37525159 0
0.39917803 0.12843513 -0.37864804 0
-0.3815577 -0.45798707 -0.36483511 0
-0.27003837 -0.3586936 -0.37524164 0
-0.22271347 -0.33419275 -0.37166804 0
-0.16004014 -0.26423907 -0.37537619 0
-0.10174346 -0.22296929 -0.37655228 0
-0.01926446 -0.11076188 -0.37299001 0
0.063131332 -0.08084178 -0.37327653 0
0.13194823 0.015180349 -0.37509361 0
0.21293736 0.091388226 -0.37602165 0
0.27925134 0.15658104 -0.37324753 0
0.30054104 0.21033156 -0.37534535 0
-0.50233889 -0.46173 -0.36555833 0
-0.41472459 -0.38737035 -0.37324572 0
-0.33804488 -0.29510641 -0.37747228 0
-0.25114274 -0.18504286 -0.38023931 0
-0.18814993 -0.12049317 -0.37773496 0
-0.077254057 -0.051642895 -0.37441868 0
0.0030379295 0.03173542 -0.37726584 0
0.049306154 0.08332634 -0.37290239 0
0.13576603 0.16033769 -0.37295979 0
0.20589447 0.22595334 -0.37085631 0
0.25809991 0.25756979 -0.37517601 0
-0.68101811 -0.46347523 -0.36545169 0
-0.58126163 -0.38943553 -0.37424934 0
-0.49166894 -0.32083654 -0.37773487 0
-0.43422556 -0.20497227 -0.3733159 0
-0.38987064 -0.16778898 -0.38874406 0
-0.31157827 -0.13019276 -0.37733176 0
-0.2483089 -0.069903135 -0.37399733 0
-0.14889812 0.027589083 -0.37489954 0
-0.063615084 0.076680899 -0.37125015 0
-0.03968358 0.16923189 -0.37204257 0
0.064227104 0.21187258 -0.3770597 0
0.1342299 0.29881787 -0.37589473 0
0.18827736 0.36299121 -0.37816617 0
-0.78272104 -0.41025519 -0.36909175 0
-0.72537112 -0.41333079 -0.37245753 0
-0.67409086 -0.35443449 -0.37197858 0
-0.55418515 -0.24907899 -0.3769995 0
-0.445611 -0.11438823 -0.37428498 0
-0.35826397 -0.075534344 -0.37655127 0
-0.31258535 0.015117645 -0.37407553 0
-0.22390509 0.090295315 -0.37773454 0
-0.15785217 0.15343022 -0.37606704 0
-0.074999094 0.22573423 -0.37332368 0
0.0010745525 0.32054591 -0.37720484 0
0.063519001 0.38391137 -0.37353647 0
0.1290592 0.43342721 -0.37594748 0
-0.98277807 -0.48473954 -0.34337625 0
-0.95226216 -0.47307467 -0.34798837 0
-0.86324489 -0.32658219 -0.3748101 0
-0.81779814 -0.36004615 -0.37658846 0
-0.73479581 -0.25752211 -0.37505049 0
-0.63189268 -0.15976906 -0.37438101 0
-0.5374589 -0.090342522 -0.36926228 0
-0.436409 0.028071404 -0.375752 0
-0.37122369 0.12087703 -0.37760562 0
-0.28423691 0.17554951 -0.37754458 0
-0.22702909 0.24247646 -0.37392944 0
-0.14797926 0.27885365 -0.37190872 0
-0.089555264 0.38645458 -0.37481678 0
-0.012486219 0.44947743 -0.37603673 0
-0.89243829 -0.27954531 -0.37564051 0
-0.79913676 -0.18638206 -0.37152287 0
-0.69639397 -0.039166451 -0.37839103 0
-0.58704185 0.0087649822 -0.37325969 0
-0.49725223 0.11866236 -0.37537289 0
-0.4173286 0.1961863 -0.37808368 0
-0.34312344 0.24772882 -0.37425581 0
-0.29095817 0.34239697 -0.37313998 0
-0.18542635 0.36286116 -0.37561917 0
-0.16762972 0.44975829 -0.37579814 0
-0.93559086 -0.20671844 -0.37685293 0
-0.83878946 -0.11236691 -0.37355506 0
-0.85789728 -0.032595396 -0.38116884 0
-0.74404144 -0.0070209503 -0.3715077 0
-0.63096261 0.1148715 -0.37873596 0
-0.51050496 0.23207355 -0.37951517 0
-0.42723048 0.31096029 -0.37750903 0
-0.36001897 0.38871098 -0.37638211 0
-0.28350627 0.44618273 -0.37617537 0
-0.99078846 -0.08784008 -0.38154736 0
-0.89760566 0.021441221 -0.37903884 0
-0.78814793 0.10701561 -0.37728193 0
-0.69307303 0.19305444 -0.37386596 0
-0.56459451 0.30469084 -0.37554246 0
-0.51447427 0.35717726 -0.37619126 0
-0.43741775 0.44519639 -0.37800467 0
-0.36543989 0.48446751 -0.37311602 0
-0.96930051 0.11523461 -0.37325364 0
-0.84999156 0.20167542 -0.37404603 0
-0.74773312 0.29537916 -0.3732205 0
-0.63890719 0.37937212 -0.37548167 0
-0.57083714 0.48274636 -0.37730342 0
-0.88457918 0.31986237 -0.38074616 0
-0.78693795 0.39698815 -0.37556803 0
-0.6844703 0.49514294 -0.37743795 0
-0.93694162 0.37450099 -0.37163663 0
-0.81708407 0.45544696 -0.37380353 0
-0.96869063 0.48455691 -0.3756429 0
0.85878849 -0.49124348 -0.37331992 0
0.96141827 -0.43176055 -0.37899682 0
0.74710131 -0.48630786 -0.37078738 0
0.80965209 -0.412853 -0.37426063 0
0.88532841 -0.3547895 -0.37277988 0
0.95437181 -0.27408135 -0.37637478 0
0.65545988 -0.4208498 -0.37250334 0
0.75483108 -0.35394716 -0.37405372 0
0.84343648 -0.24160397 -0.38031131 0
0.90285051 -0.21747792 -0.37843788 0
0.94789147 -0.13261926 -0.37502402 0
0.54063559 -0.41106653 -0.37277368 0
0.614434 -0.30840111 -0.37894058 0
0.69636178 -0.25966907 -0.37771913 0
0.75747299 -0.22594774 -0.37968099 0
0.82475317 -0.15628099 -0.37795278 0
0.87105799 -0.069545865 -0.37774006 0
0.93155229 -0.029235959 -0.38126945 0
0.33383679 -0.492939 -0.36856914 0
0.39980626 -0.39574099 -0.37362826 0
0.45915508 -0.34206069 -0.37967518 0
0.52963352 -0.26917291 -0.37625983 0
0.60462213 -0.18027294 -0.37560004 0
0.67439234 -0.16342819 -0.38029081 0
0.73701382 -0.072280288 -0.37692428 0
0.82183921 0.0017844439 -0.37800372 0
0.17403054 -0.49866986 -0.36644375 0
0.24702787 -0.39848661 -0.3739593 0
0.32343149 -0.35297489 -0.37501627 0
0.38675284 -0.27457428 -0.37793317 0
0.46780086 -0.20685267 -0.372338 0
0.51920366 -0.15578365 -0.37450436 0
0.61518204 -0.061424613 -0.37858906 0
0.68514633 0.028530478 -0.3789162 0
0.72889531 0.068951368 -0.37548113 0
0.095744371 -0.43877459 -0.37084186 0
0.16889739 -0.35024512 -0.37604159 0
0.25791073 -0.26188922 -0.37719759 0
0.32804084 -0.18910527 -0.37731868 0
0.38590503 -0.15772319 -0.37664598 0
0.45136094 -0.052998185 -0.3744297 0
0.53772759 -0.0023050308 -0.37670711 0
0.61602092 0.059621811 -0.37495512 0
0.63648415 0.14284575 -0.37594447 0
-0.082518816 -0.47249293 -0.36371189 0
-0.034278393 -0.47091556 -0.37096247 0
0.025339365 -0.34530127 -0.37356833 0
0.10034871 -0.28108037 -0.38072658 0
0.17716742 -0.21139026 -0.38167167 0
0.22789407 -0.14897299 -0.37637407 0
0.31122565 -0.05415976 -0.37612665 0
0.3965106 0.0095963478 -0.37707233 0
0.48904073 0.10577667 -0.38151243 0
0.55658317 0.14453411 -0.37557328 0
0.58393979 0.23223758 -0.38393325 0
-0.22208118 -0.48805785 -0.3628071 0
-0.16036558 -0.39313316 -0.37093377 0
-0.10309362 -0.27050591 -0.37883574 0
-0.044420719 -0.27089214 -0.3780461 0
0.024031639 -0.18189406 -0.38532221 0
0.11043334 -0.13958645 -0.37484998 0
0.20123029 -0.060560465 -0.3757503 0
0.28429627 0.014047146 -0.37608391 0
0.34778023 0.095179319 -0.37465528 0
0.40722275 0.15798986 -0.3770546 0
0.46250749 0.21178496 -0.37779894 0
0.53093338 0.26569223 -0.38104653 0
-0.36809707 -0.4886694 -0.36484513 0
-0.2999723 -0.38636708 -0.37714303 0
-0.24448299 -0.3409071 -0.37472385 0
-0.14871287 -0.2530334 -0.37351626 0
-0.036561012 -0.11808562 -0.38548148 0
0.03604269 -0.062475443 -0.37690532 0
0.095901728 -0.011100292 -0.37739098 0
0.16806746 0.05642581 -0.37809801 0
0.2619009 0.13924813 -0.37646037 0
0.33084476 0.22865927 -0.37555215 0
0.38586581 0.26873791 -0.37390971 0
0.45910168 0.33394337 -0.38017076 0
-0.44962001 -0.39771008 -0.37386483 0
-0.39052987 -0.3428216 -0.37862685 0
-0.29281855 -0.273453 -0.37706199 0
-0.20461202 -0.17339802 -0.37634215 0
-0.15623498 -0.13504529 -0.37600014 0
-0.10922599 -0.082526922 -0.37760893 0
-0.055856943 0.0039262772 -0.37706482 0
0.024345875 0.064032793 -0.37647945 0
0.12184834 0.1513238 -0.377451 0
0.19291973 0.21717918 -0.37644476 0
0.27261198 0.3011291 -0.37645262 0
0.33061612 0.34154689 -0.37548244 0
0.39372635 0.40206516 -0.37915763 0
-0.66373348 -0.44325852 -0.36927775 0
-0.58318973 -0.37306118 -0.37229156 0
-0.53291297 -0.38900948 -0.37341976 0
-0.46439075 -0.26798058 -0.38083655 0
-0.35790777 -0.19526744 -0.37728423 0
-0.2743628 -0.063128233 -0.38081706 0
-0.15437865 -0.0041432381 -0.37302387 0
-0.12468576 0.072711945 -0.37434208 0
-0.046966076 0.11523962 -0.37026629 0
0.047702312 0.20833111 -0.37364632 0
0.12403345 0.31131709 -0.37417802 0
0.19565165 0.35679018 -0.37775987 0
0.25700593 0.43609536 -0.37554127 0
0.33060396 0.47051346 -0.37732598 0
-0.79220915 -0.49799609 -0.36703932 0
-0.76461148 -0.40270138 -0.37045828 0
-0.62958455 -0.33065748 -0.37402812 0
-0.65113783 -0.26092935 -0.38085145 0
-0.53276587 -0.20237255 -0.37729529 0
-0.42593551 -0.079396963 -0.38210344 0
-0.39563608 -0.10176134 -0.38498282 0
-0.33544183 -0.0051269531 -0.37720829 0
-0.22730112 0.10018396 -0.38352379 0
-0.17709136 0.14804101 -0.37509051 0
-0.10038757 0.23549724 -0.37820655 0
-0.032028437 0.30002046 -0.37728134 0
0.042765617 0.3450377 -0.37564093 0
0.1254077 0.45963717 -0.37857237 0
-0.94447923 -0.46549034 -0.35946476 0
-0.8345108 -0.32974768 -0.37863922 0
-0.70251942 -0.19855976 -0.37951106 0
-0.59361744 -0.11108208 -0.37861949 0
-0.4919498 -0.014230728 -0.37772924 0
-0.39121819 0.078567028 -0.37804788 0
-0.30585623 0.13363266 -0.37083137 0
-0.23693919 0.24116302 -0.37605643 0
-0.15013266 0.29216337 -0.37556568 0
-0.088195086 0.3853116 -0.37744966 0
-0.018481731 0.45268643 -0.37801948 0
0.068904042 0.49342728 -0.37606573 0
-0.99768555 -0.40840483 -0.3496722 0
-0.88578808 -0.257025 -0.37853456 0
-0.77018011 -0.13110328 -0.37445879 0
-0.65331531 -0.033617496 -0.37695119 0
-0.56767654 0.059870958 -0.37134117 0
-0.44727421 0.1404624 -0.37434584 0
-0.35824513 0.25449586 -0.37711009 0
-0.28143334 0.32346582 -0.37787926 0
-0.20489633 0.38734436 -0.37669414 0
-0.13012052 0.45246172 -0.37718135 0
-0.92556524 -0.13236785 -0.3888135 0
-0.8047322 -0.038882017 -0.38052538 0
-0.70327306 0.0075631142 -0.37110436 0
-0.71980643 0.085970402 -0.37901926 0
-0.59374189 0.1733706 -0.38240975 0
-0.49857831 0.22189641 -0.37389186 0
-0.40610552 0.334975 -0.37696919 0
-0.32513165 0.40799499 -0.37928548 0
-0.99034452 -0.083920002 -0.37995142 0
-0.85359526 0.027541637 -0.37824717 0
-0.75105023 0.10660982 -0.37392563 0
-0.77952099 0.15316296 -0.37327313 0
-0.63697314 0.2037046 -0.37557799 0
-0.55002332 0.35207319 -0.37956545 0
-0.4485929 0.40535665 -0.37577611 0
-0.37644994 0.49310756 -0.37745914 0
-0.92332721 0.11953545 -0.37317157 0
-0.81500173 0.22391319 -0.37380034 0
-0.69602442 0.32632542 -0.37719655 0
-0.69055974 0.34620476 -0.38186693 0
-0.60121775 0.46486712 -0.3811354 0
-0.96490645 0.25475478 -0.38107774 0
-0.85851681 0.31819677 -0.37466341 0
-0.75071979 0.42639828 -0.37519076 0
-0.89153886 0.396662 -0.37553811 0
-0.91004193 0.45836782 -0.37808973 0
0.87086129 -0.49613202 -0.38295037 0
0.95710099 -0.41876256 -0.38388485 0
0.78765941 -0.41514015 -0.38409048 0
0.86939502 -0.35396433 -0.38576829 0
0.94803369 -0.29268444 -0.38800517 0
0.67454219 -0.44747639 -0.38479978 0
0.71033144 -0.36429405 -0.38792172 0
0.79342651 -0.32030606 -0.38654503 0
0.85905755 -0.24272192 -0.38379809 0
0.93750036 -0.14181328 -0.38785154 0
0.47019958 -0.49194479 -0.37904853 0
0.52259922 -0.44252288 -0.38301945 0
0.57243037 -0.37717831 -0.3816019 0
0.66012216 -0.29652524 -0.3873471 0
0.72806895 -0.23994648 -0.38524628 0
0.80115795 -0.15689933 -0.38861501 0
0.86837983 -0.07183063 -0.38520658 0
0.92768908 -0.042210102 -0.38066339 0
0.99823225 0.043682098 -0.3845858 0
0.28383279 -0.48887718 -0.37941116 0
0.34934735 -0.42730856 -0.37747222 0
0.44791818 -0.38289928 -0.38661659 0
0.52289677 -0.26773143 -0.38799745 0
0.59966755 -0.19985545 -0.38754082 0
0.67278564 -0.13937998 -0.38662875 0
0.74574327 -0.067245603 -0.38845527 0
0.81096208 -0.0091362 -0.38456264 0
0.89138865 0.064558744 -0.38850063 0
0.96540141 0.13707614 -0.38649911 0
0.19260406 -0.45885825 -0.37693179 0
0.29636049 -0.36186111 -0.38558191 0
0.39122415 -0.28046679 -0.3896994 0
0.43304729 -0.22398901 -0.3836301 0
0.51218891 -0.16140425 -0.38282576 0
0.59481299 -0.072221994 -0.38864321 0
0.66857934 -0.015124083 -0.38808632 0
0.73016822 0.06615448 -0.38690796 0
0.82609022 0.11552536 -0.38578919 0
0.88447678 0.19332838 -0.38707721 0
0.078710318 -0.39975345 -0.38458741 0
0.1648097 -0.39412355 -0.38693166 0
0.21875906 -0.2998004 -0.38983214 0
0.29731512 -0.22377872 -0.38661456 0
0.34753323 -0.15680695 -0.38311559 0
0.43361926 -0.082744479 -0.38559398 0
0.51438642 -0.032945275 -0.38431138 0
0.59264684 0.049046755 -0.38461646 0
0.66342258 0.13024545 -0.38569418 0
0.75744927 0.20030344 -0.38781175 0
0.78984952 0.25428677 -0.38532838 0
-0.041839123 -0.41337061 -0.38318765 0
0.021283627 -0.37157166 -0.38789433 0
0.12421727 -0.25613284 -0.38338491 0
0.16578341 -0.24093163 -0.39280438 0
0.22986054 -0.15687323 -0.38791707 0
0.28240871 -0.079059482 -0.38661253 0
0.37739301 -0.0082445145 -0.39021063 0
0.43944013 0.045577526 -0.38680434 0
0.52260947 0.11629617 -0.38326389 0
0.61259305 0.21614051 -0.38624743 0
0.67900145 0.26793563 -0.38836834 0
0.70286679 0.33050108 -0.38591564 0
-0.19722867 -0.43065357 -0.37990612 0
-0.10828447 -0.35508537 -0.38626015 0
-0.019816637 -0.2802012 -0.38735759 0
0.074582815 -0.18257022 -0.38794723 0
0.14731383 -0.090493202 -0.38569391 0
0.22428823 -0.020962238 -0.3870554 0
0.29945517 0.046694994 -0.38681391 0
0.3654716 0.095764279 -0.3834222 0
0.45159054 0.17821419 -0.38374901 0
0.52737689 0.25961304 -0.38725433 0
0.59037924 0.34492171 -0.38747051 0
0.64311767 0.39257944 -0.38704345 0
-0.26741219 -0.31814432 -0.38452524 0
-0.19763017 -0.32447267 -0.3830139 0
-0.091716766 -0.218297 -0.38540527 0
0.0094501972 -0.11945748 -0.38739794 0
0.095085382 -0.0035676956 -0.3832342 0
0.1461246 0.035958052 -0.38287818 0
0.21099496 0.12552261 -0.3846752 0
0.30040276 0.19578719 -0.38917103 0
0.37909448 0.26241016 -0.38706285 0
0.44603574 0.33994389 -0.38541424 0
0.53535151 0.40316248 -0.38173723 0
0.58735049 0.4519881 -0.38742945 0
-0.45912695 -0.42452574 -0.37768233 0
-0.35597873 -0.31879544 -0.38874984 0
-0.28319073 -0.21874309 -0.38493949 0
-0.1710341 -0.11929965 -0.38731879 0
-0.067787886 -0.033260822 -0.38757157 0
0.015393496 0.071668625 -0.38918743 0
0.080228329 0.14627647 -0.38906991 0
0.14340615 0.21636593 -0.38694784 0
0.21582413 0.25732315 -0.38337481 0
0.31484282 0.33898461 -0.3848238 0
0.36635947 0.43521082 -0.38603759 0
0.45972931 0.47320151 -0.38527447 0
-0.65410185 -0.4538722 -0.37726861 0
-0.56228471 -0.34267163 -0.38816011 0
-0.45127916 -0.23424315 -0.38553232 0
-0.41071153 -0.26865101 -0.38799345 0
-0.33036923 -0.13970757 -0.38876894 0
-0.23429513 -0.035623074 -0.38875568 0
-0.14830518 0.045573711 -0.38463196 0
-0.043991566 0.13177848 -0.3872363 0
0.02983284 0.23467398 -0.39355195 0
0.077535391 0.28687179 -0.38501665 0
0.16130984 0.37156713 -0.39114746 0
0.23083091 0.40254068 -0.3862105 0
0.315979 0.49461091 -0.38658336 0
-0.84949684 -0.49376845 -0.3752107 0
-0.71885467 -0.37240815 -0.38935655 0
-0.62198257 -0.28909469 -0.38834473 0
-0.48839784 -0.20766425 -0.38222805 0
-0.50988674 -0.14147019 -0.38854414 0
-0.39215183 -0.064196825 -0.38835061 0
-0.27848506 0.025137663 -0.38950425 0
-0.19814873 0.15168405 -0.39140737 0
-0.10055518 0.20064235 -0.38650513 0
-0.04801321 0.27056646 -0.38246953 0
0.030073643 0.36072159 -0.38657135 0
0.11515963 0.44255412 -0.3925564 0
0.1740818 0.47412062 -0.38527554 0
-0.96091914 -0.48838377 -0.36308947 0
-0.81691313 -0.36546993 -0.38426363 0
-0.67409325 -0.21194816 -0.38973594 0
-0.56548667 -0.086460114 -0.38519078 0
-0.44988203 0.041063786 -0.3927457 0
-0.33177471 0.12974 -0.394806 0
-0.26271176 0.19009376 -0.38297987 0
-0.16837072 0.28309107 -0.38433665 0
-0.091544628 0.37478256 -0.38921285 0
-0.02993989 0.43733335 -0.38465294 0
-0.88806462 -0.26454711 -0.38703635 0
-0.73945403 -0.12943864 -0.38831359 0
-0.62601089 0.009581089 -0.38653621 0
-0.51717448 0.090941191 -0.38500655 0
-0.40506518 0.20928907 -0.39023992 0
-0.30974543 0.28948641 -0.387485 0
-0.21566653 0.3699491 -0.3866697 0
-0.18127489 0.42443419 -0.38442189 0
-0.10272145 0.48776495 -0.38917932 0
-0.94949365 -0.14525342 -0.39161858 0
-0.78286088 -0.042647123 -0.39187482 0
-0.68218315 0.11373067 -0.3891103 0
-0.56177413 0.15650797 -0.3843914 0
-0.57057512 0.25461888 -0.39736885 0
-0.47413599 0.29633331 -0.38648885 0
-0.35886061 0.36568403 -0.38687807 0
-0.2523582 0.47851849 -0.38400391 0
-0.82762551 0.055918217 -0.39617205 0
-0.72553658 0.16316962 -0.38560337 0
-0.6216011 0.2747829 -0.38702318 0
-0.5195092 0.39604449 -0.38947505 0
-0.41659558 0.46573544 -0.38641724 0
-0.90943372 0.14098144 -0.38775542 0
-0.76787603 0.24298668 -0.38627118 0
-0.67371869 0.36474967 -0.38608271 0
-0.56306434 0.42812395 -0.38201907 0
-0.58227611 0.49789882 -0.38655999 0
-0.97127604 0.21565771 -0.3816815 0
-0.81177866 0.35698414 -0.39074022 0
-0.72250152 0.45463109 -0.38487056 0
-0.86708272 0.42771792 -0.38435823 0
0.91525173 -0.49622679 -0.37982851 0
0.98633981 -0.3989135 -0.38340741 0
0.76901317 -0.47902107 -0.37495348 0
0.84275126 -0.43564546 -0.38013187 0
0.9177233 -0.34548366 -0.38007647 0
0.97498178 -0.29948294 -0.38124803 0
0.61598444 -0.45441103 -0.37674412 0
0.71741891 -0.38997722 -0.3776888 0
0.79669487 -0.3094089 -0.37987855 0
0.85029197 -0.23676348 -0.3795436 0
0.92503667 -0.2105478 -0.37888014 0
0.4753933 -0.4725163 -0.3814919 0
0.53504968 -0.39174533 -0.38137358 0
0.64247012 -0.33396757 -0.38183233 0
0.70098615 -0.26301277 -0.37717924 0
0.78402066 -0.16512322 -0.385075 0
0.87430453 -0.12590599 -0.38199487 0
0.91977036 -0.04844451 -0.38180503 0
0.99313903 0.02760303 -0.37729239 0
0.33841968 -0.45136011 -0.37943131 0
0.4309392 -0.37457895 -0.37385589 0
0.47290444 -0.34750545 -0.38382763 0
0.54478502 -0.28266883 -0.37965706 0
0.6358397 -0.17284977 -0.38538259 0
0.71436286 -0.14084232 -0.38072723 0
0.78493536 -0.071396947 -0.38109565 0
0.83304048 0.030858517 -0.37932029 0
0.91929734 0.070868611 -0.38051271 0
0.99886787 0.1667856 -0.38311759 0
0.21550369 -0.4763006 -0.37270367 0
0.30195117 -0.36891007 -0.38250315 0
0.3828516 -0.27520955 -0.38679475 0
0.46941614 -0.19018984 -0.37677151 0
0.56613421 -0.14514947 -0.38079214 0
0.63004708 -0.066332936 -0.3773694 0
0.70636487 -0.0012542009 -0.38353008 0
0.77325273 0.090995431 -0.38095364 0
0.86179149 0.17552984 -0.37999752 0
0.91173303 0.25020421 -0.3800112 0
0.022697926 -0.47717381 -0.37825263 0
0.10522437 -0.41866398 -0.37356928 0
0.21668291 -0.32941425 -0.38166577 0
0.28734589 -0.20908308 -0.38408157 0
0.36421227 -0.18844151 -0.38010746 0
0.45750952 -0.075424671 -0.3771916 0
0.53870726 0.029559135 -0.38111824 0
0.61081111 0.067296505 -0.38208804 0
0.69927657 0.16174352 -0.3810721 0
0.78486001 0.21643782 -0.38216829 0
0.83674574 0.28375983 -0.37953442 0
0.92121637 0.36729133 -0.38098252 0
-0.067595243 -0.43367565 -0.3758592 0
0.04426837 -0.35745692 -0.37935978 0
0.14770484 -0.23739719 -0.38768107 0
0.23650146 -0.15864539 -0.3847779 0
0.29798961 -0.071173906 -0.38035959 0
0.33864427 -0.0874722 -0.38418794 0
0.42488289 0.022174001 -0.37832028 0
0.51280892 0.12776947 -0.37732309 0
0.57959604 0.20059502 -0.37950128 0
0.65112102 0.24751735 -0.38373488 0
0.73198748 0.29065847 -0.37747994 0
0.78938353 0.37199402 -0.37984556 0
0.86683595 0.43142152 -0.38193399 0
-0.22724032 -0.4646132 -0.37397322 0
-0.19381428 -0.36790395 -0.37689874 0
-0.080709934 -0.30020595 -0.38026699 0
0.010817528 -0.28748989 -0.38757852 0
0.073702335 -0.18078065 -0.38501245 0
0.14187288 -0.11136961 -0.37681484 0
0.19180918 -0.03845191 -0.38303432 0
0.31119537 0.011611938 -0.38283914 0
0.32258582 0.085875392 -0.38336331 0
0.40993762 0.16154218 -0.38126856 0
0.49976599 0.23889506 -0.37811315 0
0.57417119 0.32313967 -0.37879211 0
0.64515185 0.36981022 -0.38146788 0
0.70419681 0.45276141 -0.38159502 0
-0.30614614 -0.41393328 -0.37830848 0
-0.22407794 -0.28746557 -0.38627741 0
-0.12247515 -0.21058154 -0.37686658 0
-0.017510414 -0.11761689 -0.37938437 0
0.085849047 -0.006716013 -0.38481754 0
0.1870997 0.037858963 -0.37987766 0
0.25488448 0.11104357 -0.37543958 0
0.26090145 0.13857412 -0.38121703 0
0.36418724 0.21436048 -0.38221651 0
0.41356432 0.31227982 -0.38079771 0
0.49355423 0.38611615 -0.37487131 0
0.57554245 0.44820035 -0.37799299 0
-0.5200026 -0.44295979 -0.37668002 0
-0.40440392 -0.34817505 -0.38382077 0
-0.27546382 -0.23020506 -0.38621944 0
-0.17750263 -0.13285542 -0.37954092 0
-0.082985401 -0.046750307 -0.37893331 0
0.018536568 0.053864241 -0.38211769 0
0.053953648 0.11850357 -0.38402057 0
0.15558743 0.15049696 -0.3832455 0
0.17751169 0.24256611 -0.38286984 0
0.27047002 0.28603804 -0.38470578 0
0.36047852 0.36810327 -0.37999129 0
0.43629789 0.47022533 -0.37786317 0
-0.68914747 -0.4771688 -0.37336552 0
-0.59693623 -0.40351439 -0.37739161 0
-0.4902184 -0.28978491 -0.37983364 0
-0.35567117 -0.18198776 -0.3783595 0
-0.22753549 -0.077502728 -0.37880206 0
-0.13025117 0.026212931 -0.38168135 0
-0.060662031 0.13335919 -0.37939063 0
0.043591022 0.22707009 -0.38371614 0
0.1353662 0.28857374 -0.38188645 0
0.18362319 0.37131345 -0.3811194 0
0.28241146 0.44064498 -0.38197544 0
-0.78201318 -0.45546675 -0.3718769 0
-0.7048862 -0.34472919 -0.37787649 0
-0.65147543 -0.363276 -0.38193166 0
-0.54237413 -0.19921947 -0.38402039 0
-0.41856503 -0.073132515 -0.38317966 0
-0.30756283 0.015937328 -0.37733382 0
-0.19667792 0.091327429 -0.37844875 0
-0.12583899 0.19211721 -0.37494421 0
-0.01240325 0.30271149 -0.38410297 0
0.066962957 0.36717343 -0.37997103 0
0.12160945 0.44688916 -0.37978125 0
-0.9711132 -0.45978761 -0.36637047 0
-0.86948228 -0.39622235 -0.3780452 0
-0.73802447 -0.29181528 -0.37939739 0
-0.77691376 -0.24605441 -0.37821522 0
-0.59888434 -0.16324282 -0.37763643 0
-0.50608945 0.0017459393 -0.37591076 0
-0.45980787 0.0066702366 -0.38721347 0
-0.36118412 0.12382603 -0.38297287 0
-0.24883056 0.18794608 -0.38261825 0
-0.19151115 0.28283143 -0.37452072 0
-0.15658832 0.2851963 -0.38309678 0
-0.068689823 0.35912633 -0.38040996 0
0.0039596558 0.45436621 -0.37945825 0
-0.94356918 -0.34853101 -0.37767276 0
-0.80068803 -0.17179632 -0.3848249 0
-0.68775463 -0.057712555 -0.37436444 0
-0.6396656 -0.065471649 -0.38432479 0
-0.55237186 0.069478989 -0.37583718 0
-0.4039259 0.20616746 -0.38613164 0
-0.35542369 0.31398916 -0.37716278 0
-0.30234432 0.28374457 -0.38543519 0
-0.22095776 0.39334488 -0.38490301 0
-0.12792945 0.46735883 -0.38323891 0
-0.85679638 -0.098926544 -0.38324243 0
-0.72966146 0.03920126 -0.37955737 0
-0.59321547 0.16215682 -0.38050133 0
-0.46524179 0.27332568 -0.38163519 0
-0.39323878 0.36683249 -0.37564993 0
-0.2706449 0.46207047 -0.38298526 0
-0.90745115 -0.043536425 -0.37963396 0
-0.78162777 0.094451427 -0.37516534 0
-0.63607538 0.23951578 -0.38158017 0
-0.52023256 0.3683846 -0.3820107 0
-0.43113089 0.42486405 -0.37444121 0
-0.95948172 0.055664062 -0.38175124 0
-0.8178755 0.19573593 -0.38119674 0
-0.68755817 0.33676696 -0.38265359 0
-0.5667007 0.46650934 -0.38407037 0
-0.87575507 0.29933596 -0.38090944 0
-0.72923899 0.39529037 -0.37977707 0
-0.74964142 0.45923615 -0.38328686 0
-0.92611814 0.40570712 -0.38193697 0
-0.78711343 0.47535443 -0.37443972 0
-0.98350453 0.4818182 -0.37519625 0
0.98197353 -0.39737546 -0.36739069 0
0.90424395 -0.34216714 -0.36731121 0
0.99391055 -0.29441464 -0.36413312 0
0.88447189 -0.20577788 -0.36787692 0
0.97431386 -0.15432572 -0.36441118 0
0.68275571 -0.31537557 -0.37084055 0
0.72916198 -0.21840072 -0.37084433 0
0.81220531 -0.15279543 -0.36854753 0
0.88861513 -0.083099365 -0.36707115 0
0.99093413 0.013260245 -0.36293492 0
0.55957413 -0.22270107 -0.37199694 0
0.65241575 -0.17402577 -0.36844748 0
0.73027515 -0.064683318 -0.37373498 0
0.81796026 0.011405587 -0.3673901 0
0.91559315 0.07268095 -0.36724138 0
0.99803042 0.15774429 -0.36568648 0
0.48536086 -0.17013943 -0.37050682 0
0.61903203 -0.13443995 -0.37091923 0
0.61421812 -0.019644856 -0.36489782 0
0.71859908 -0.024584055 -0.36697406 0
0.75296354 0.087175846 -0.36802018 0
0.85075724 0.13097966 -0.36589271 0
0.89916635 0.19855642 -0.35951263 0
0.97433329 0.29046094 -0.36511585 0
0.452142 -0.12562096 -0.37342453 0
0.65626729 0.1016854 -0.36795005 0
0.72485375 0.18394065 -0.36931658 0
0.79489934 0.21331537 -0.36634573 0
0.83593535 0.29843819 -0.36198756 0
0.91303301 0.37059724 -0.36531049 0
0.99709928 0.44030511 -0.36636314 0
0.50098324 0.090062618 -0.36646476 0
0.64119375 0.22066689 -0.37059012 0
0.69697881 0.28544462 -0.36858642 0
0.77030385 0.36398482 -0.36478695 0
0.85590518 0.43999612 -0.36409292 0
0.91785145 0.49566007 -0.36397472 0
0.34513545 0.10594332 -0.36976075 0
0.42261839 0.13454032 -0.37456635 0
0.51575756 0.23389864 -0.36821654 0
0.56795943 0.29543519 -0.36298755 0
0.63151038 0.34503388 -0.36306235 0
0.70692515 0.42745352 -0.36360303 0
0.77030373 0.490834 -0.36129171 0
0.24161577 0.064214945 -0.37147021 0
0.31147242 0.13476789 -0.36871117 0
0.37802577 0.22443819 -0.36846423 0
0.42570806 0.31685865 -0.36626652 0
0.49734426 0.33826375 -0.370478 0
0.56621897 0.42767835 -0.36558342 0
0.37227762 0.39165008 -0.36874184 0
0.44615591 0.42245936 -0.36218196 0
0.17759275 0.30301738 -0.37172529 0
0.29048467 0.41800249 -0.3707017 0
0.072931409 0.4164058 -0.36839083 0
0.89863992 -0.47899592 -0.3622905 0
0.8173542 -0.41649723 -0.36359027 0
0.93522978 -0.27217317 -0.36155227 0
0.69991946 -0.43963301 -0.35988796 0
0.82177734 -0.31922865 -0.36381331 0
0.4366138 -0.48206913 -0.36100823 0
0.58091927 -0.42533743 -0.36288127 0
0.62638521 -0.32499099 -0.36263046 0
0.68428588 -0.23927176 -0.36088049 0
0.7652632 -0.27204859 -0.36563939 0
0.9341737 -0.044337273 -0.35706994 0
0.37448716 -0.43516266 -0.36231714 0
0.49870849 -0.35241735 -0.36848712 0
0.59765744 -0.27565944 -0.36773378 0
0.75358748 -0.13753963 -0.36351556 0
0.19728875 -0.49453616 -0.35719734 0
0.27197218 -0.42269611 -0.35481867 0
0.41606832 -0.30006027 -0.36900344 0
0.51177239 -0.23754525 -0.36224765 0
0.55731916 -0.1349622 -0.36162874 0
0.64360309 -0.054628015 -0.36298457 0
0.68219233 0.034477472 -0.35977298 0
0.74459827 0.10496616 -0.35802415 0
0.10103774 -0.42448485 -0.36163574 0
0.19921374 -0.31855083 -0.36677653 0
0.33499241 -0.24511516 -0.36639988 0
0.41370821 -0.11832488 -0.36862236 0
0.48978949 -0.061375856 -0.3644456 0
0.56146181 0.017230868 -0.36329818 0
0.61602843 0.10217094 -0.36165282 0
-0.08584094 -0.42499661 -0.36180356 0
-0.030761003 -0.40176809 -0.36353865 0
0.042491674 -0.35189664 -0.36987549 0
0.13961935 -0.25154746 -0.36918214 0
0.20476174 -0.14124846 -0.36327481 0
0.26414895 -0.16253066 -0.36960647 0
0.33782482 -0.0707376 -0.36455727 0
0.43853664 -0.015824676 -0.36427692 0
0.55043495 0.15768492 -0.36073425 0
-0.29789639 -0.4818275 -0.35526827 0
-0.17023563 -0.4173584 -0.35618943 0
-0.055128336 -0.31393147 -0.36407128 0
0.086223364 -0.19477749 -0.36991516 0
0.15572453 -0.064519167 -0.36805218 0
0.2674644 0.0074975491 -0.36620036 0
0.36934805 0.031355023 -0.36090621 0
0.4516542 0.11548352 -0.36258274 0
-0.34606862 -0.41651821 -0.36479503 0
-0.25798988 -0.33117771 -0.36370605 0
-0.095071793 -0.27373552 -0.36386067 0
-0.12543106 -0.20452452 -0.37023199 0
0.00079703331 -0.15738511 -0.36102557 0
0.08152318 0.00024700165 -0.36559591 0
0.18447113 0.084340334 -0.36436459 0
0.25705433 0.15176117 -0.36148578 0
0.32402289 0.24169612 -0.36128527 0
0.47776985 0.36135876 -0.35785365 0
-0.59656072 -0.49986887 -0.35064781 0
-0.43792367 -0.39320207 -0.3626169 0
-0.32594299 -0.27661252 -0.36005265 0
-0.19001698 -0.17050266 -0.36374176 0
-0.083894491 -0.048390388 -0.36359751 0
0.035754919 0.062450647 -0.36749864 0
0.12463403 0.16567707 -0.36674938 0
0.21627784 0.22727835 -0.3666209 0
0.2963748 0.27445352 -0.36153018 0
-0.64886069 -0.45501709 -0.35533333 0
-0.51872849 -0.34913087 -0.3630203 0
-0.37547898 -0.18300319 -0.36604658 0
-0.28338218 -0.072411537 -0.36171997 0
-0.23982668 -0.088133335 -0.36793438 0
-0.15119672 0.043803215 -0.3657738 0
-0.018486261 0.12584805 -0.3674053 0
0.059370041 0.22801709 -0.36405295 0
0.12485003 0.31229389 -0.36233437 0
0.21283472 0.38250041 -0.36278689 0
0.26980102 0.47088504 -0.3608312 0
-0.73712158 -0.39869332 -0.36117107 0
-0.57398701 -0.26242757 -0.36634445 0
-0.45112967 -0.10501027 -0.36346364 0
-0.3163352 -0.01722765 -0.36409321 0
-0.19711041 0.11782956 -0.36854619 0
-0.092833757 0.21767211 -0.36719263 0
-0.0016448498 0.29943252 -0.36296988 0
0.094264507 0.35594547 -0.36307269 0
0.1701628 0.43003702 -0.36148301 0
-0.94447899 -0.47280431 -0.34306276 0
-0.81156015 -0.32019877 -0.3672106 0
-0.64886713 -0.17425871 -0.36518133 0
-0.49876976 -0.015083313 -0.36811197 0
-0.36195564 0.060675383 -0.36725184 0
-0.26524067 0.19143081 -0.36582392 0
-0.17272687 0.31003165 -0.36467063 0
-0.057290554 0.39510417 -0.36624661 0
0.026812077 0.44690871 -0.36292467 0
-0.87322831 -0.23889899 -0.36714685 0
-0.70648932 -0.072102308 -0.36928916 0
-0.55906427 0.027248383 -0.36156142 0
-0.42736113 0.14449406 -0.36639008 0
-0.31392443 0.24836826 -0.36404231 0
-0.21040058 0.41180038 -0.37240812 0
-0.12844849 0.47643614 -0.3625558 0
-0.048204303 0.49654758 -0.36379856 0
-0.9266175 -0.16895604 -0.3665567 0
-0.74351788 -0.056585312 -0.36340374 0
-0.64339817 0.14333916 -0.36057627 0
-0.60011768 0.12895489 -0.36857295 0
-0.49465668 0.23509431 -0.36525151 0
-0.35122895 0.34455395 -0.37072271 0
-0.27046394 0.45813417 -0.36505789 0
-0.99135208 -0.099324703 -0.36269408 0
-0.79394114 0.050588608 -0.36888021 0
-0.66635871 0.24246407 -0.37074679 0
-0.54977071 0.34590864 -0.36931175 0
-0.42594576 0.43177772 -0.3660056 0
-0.8619976 0.16471839 -0.37043655 0
-0.71317101 0.3053472 -0.36881644 0
-0.61481643 0.41345906 -0.36308664 0
-0.91730642 0.20979857 -0.36346811 0
-0.77042413 0.41445899 -0.37069306 0
-0.95426989 0.32057428 -0.37081975 0
-0.85934281 0.47535014 -0.35532039 0
-0.81563091 0.48579836 -0.3692188 0
0.87454128 -0.47292483 -0.35792053 0
0.94661713 -0.46612418 -0.37183174 0
0.81372976 -0.40985954 -0.36348039 0
0.92953277 -0.29650211 -0.37315011 0
0.65349436 -0.45433152 -0.36382836 0
0.74705863 -0.36923504 -0.36507604 0
0.81667924 -0.28901625 -0.36028528 0
0.86843741 -0.260921 -0.3723619 0
0.95144916 -0.18736386 -0.36804718 0
0.48462868 -0.47986984 -0.36570889 0
0.54013538 -0.39168024 -0.36452287 0
0.5945363 -0.38753748 -0.37091655 0
0.66629243 -0.300403 -0.36864477 0
0.76240015 -0.22482502 -0.36481553 0
0.82692981 -0.14173639 -0.35998756 0
0.91827571 -0.10049808 -0.36840901 0
0.90974545 -0.023020744 -0.37002745 0
0.41316414 -0.42588151 -0.3667568 0
0.47884703 -0.32544875 -0.37026113 0
0.58081889 -0.24841678 -0.36595261 0
0.68717456 -0.15725493 -0.36658454 0
0.76212561 -0.05549109 -0.36672944 0
0.84900868 -0.0031577349 -0.36521065 0
0.91172934 0.070508361 -0.36391664 0
0.969944 0.15030873 -0.36398518 0
0.19660401 -0.46178293 -0.36491305 0
0.31984949 -0.36814547 -0.36834306 0
0.38901925 -0.27615821 -0.36595407 0
0.46291018 -0.15922809 -0.36397982 0
0.52682495 -0.18260431 -0.36976516 0
0.60655951 -0.11932254 -0.36146349 0
0.69192731 0.0046118498 -0.36726385 0
0.76540852 0.075563073 -0.36737388 0
0.84815466 0.14214325 -0.36787906 0
0.91181219 0.21919703 -0.36826259 0
0.96935546 0.28902936 -0.36750442 0
0.118011 -0.43174851 -0.36320364 0
0.22688413 -0.32305503 -0.36551172 0
0.31139445 -0.198089 -0.36740428 0
0.43481302 -0.092619061 -0.37144473 0
0.54226112 -0.017156363 -0.36988133 0
0.62261021 0.066318035 -0.36759198 0
0.67662084 0.139884 -0.36517638 0
0.76751411 0.21348178 -0.3684316 0
0.84816563 0.26750946 -0.36740392 0
0.89228487 0.34595525 -0.36606944 0
0.97389579 0.40766108 -0.36486247 0
-0.11442494 -0.45848536 -0.35867375 0
-0.05831337 -0.45385599 -0.36785764 0
0.019509792 -0.35379791 -0.36814231 0
0.14957952 -0.2247684 -0.36993912 0
0.2590692 -0.13267708 -0.37025681 0
0.38898945 -0.077273011 -0.36660767 0
0.36152267 -0.027410269 -0.37085241 0
0.46367741 0.024285555 -0.36434829 0
0.53654742 0.13854921 -0.36626029 0
0.61553729 0.20598292 -0.36695021 0
0.68705976 0.28274357 -0.36775833 0
0.77302396 0.35025048 -0.37020627 0
0.81839573 0.40242302 -0.36424711 0
0.87731802 0.47429883 -0.36882278 0
-0.16457486 -0.4174962 -0.36283189 0
-0.040564537 -0.2864244 -0.37099528 0
0.083290577 -0.18582344 -0.36520299 0
0.19800591 -0.085350275 -0.36794734 0
0.28134441 0.025250912 -0.36611223 0
0.32359362 0.023278713 -0.37326625 0
0.39864004 0.097214341 -0.3660596 0
0.47709453 0.23708272 -0.37341183 0
0.54907048 0.25430012 -0.36402476 0
0.61263275 0.3676511 -0.36986962 0
0.68393874 0.43053091 -0.36911976 0
0.76107252 0.4642148 -0.36539817 0
