# .PCD v0.7 - Point Cloud Data file format
VERSION 0.7
FIELDS x y z intensity
SIZE 4 4 4 4
TYPE F F F F
COUNT 1 1 1 1
WIDTH 1326
HEIGHT 1
VIEWPOINT 0 0 0 1 0 0 0
POINTS 1326
DATA ascii
0.7058835 0.29738617 0.39509714 0
0.7582612 0.26123381 0.41300011 0
0.68844557 0.36168265 0.34560058 0
0.9174552 -0.47817838 0.63771546 0
0.80383253 -0.3714819 0.5804671 0
0.96571827 -0.3659215 0.61609232 0
0.97063923 -0.33306026 0.60191667 0
0.98240471 -0.31978989 0.6295498 0
0.80751228 -0.054749489 0.59327394 0
0.77682877 0.03463006 0.55618393 0
0.80375624 -0.0025596619 0.57119828 0
0.7600069 0.10944462 0.52426541 0
0.79594374 0.10246706 0.54607117 0
0.68847275 0.2365582 0.49237019 0
0.73651934 0.18852234 0.49417073 0
0.67658472 0.28638864 0.45810199 0
0.70899105 0.26183438 0.47899038 0
0.80073977 -0.35905957 0.67854804 0
0.81834602 -0.28443909 0.70040828 0
0.82331753 -0.18193531 0.6817435 0
0.85580349 -0.14914489 0.68462861 0
0.82288933 -0.094105244 0.65874398 0
0.86412144 -0.1241262 0.69605911 0
0.7424922 0.035821199 0.64670634 0
0.80212021 -0.0017549992 0.64169449 0
0.65808392 0.1332283 0.62917948 0
0.7241559 0.12510061 0.60942578 0
0.7799325 0.082170486 0.61682838 0
0.65232801 0.20636511 0.56556332 0
0.68629408 0.1889255 0.5868324 0
0.66103697 -0.49155259 0.78936106 0
0.7225399 -0.49570262 0.78108472 0
0.78023624 -0.35888922 0.78543013 0
0.82096243 -0.25078654 0.75093496 0
0.8198123 -0.27114701 0.79385501 0
0.81620169 -0.19677973 0.76512361 0
0.82933855 -0.17240405 0.77954954 0
0.78899145 -0.076459885 0.76112843 0
0.83328152 -0.10151482 0.77123678 0
0.49088001 0.0015261173 0.70381945 0
0.70183659 0.041223764 0.72288227 0
0.76059723 -0.0031490326 0.73212892 0
0.63607645 0.1383338 0.66475278 0
0.6777072 0.10666156 0.69866347 0
0.87996387 0.34723473 0.79350269 0
0.84677458 0.37716532 0.77344441 0
0.76737881 -0.3490634 0.87695742 0
0.78944111 -0.32611966 0.882824 0
0.64825869 -0.22974527 0.82414091 0
0.76669121 -0.27661419 0.88541198 0
0.80270338 -0.26300502 0.85654682 0
0.4864192 -0.17318344 0.76021338 0
0.54982758 -0.17773819 0.80555022 0
0.7841177 -0.17678809 0.84356874 0
0.80404425 -0.17420077 0.84507257 0
0.48741674 -0.060999632 0.73062074 0
0.56340694 -0.073186398 0.78484321 0
0.6423254 -0.047190189 0.84706497 0
0.74947357 -0.08187747 0.83244628 0
0.5123601 0.0049705505 0.72762883 0
0.5581069 0.015664339 0.75833344 0
0.65591049 0.027147055 0.80864513 0
0.72621155 -0.0074765682 0.78412253 0
0.64086819 0.082026005 0.77311939 0
0.77270317 0.10480666 0.85674 0
0.87759638 0.088773489 0.8823505 0
0.98030996 0.16012216 0.87862033 0
0.87127781 0.27208185 0.82619762 0
0.94676542 0.20793891 0.86768323 0
0.80034113 0.30407524 0.78486407 0
0.88428974 0.29414773 0.82006943 0
0.94467068 0.28391266 0.8361423 0
0.75049543 -0.42146063 0.97559059 0
0.74981642 -0.36149323 0.94353318 0
0.78953791 -0.36512077 0.9971168 0
0.85956573 -0.32867765 0.98561114 0
0.74498129 -0.24352026 0.95397228 0
0.77435684 -0.24566984 0.96670145 0
0.64484692 -0.11906123 0.96251267 0
0.7143712 -0.1616168 0.94923151 0
0.65046692 -0.048651934 0.92906237 0
0.69598484 -0.084293604 0.90860778 0
0.62662649 0.0061225891 0.88166761 0
0.7408762 -0.42795014 1.0930345 0
0.78657341 -0.38446569 1.0776508 0
0.70869493 -0.14772797 1.0165527 0
0.62601376 -0.058721542 0.97666097 0
0.69454622 -0.06444931 1.0555114 0
0.68256807 0.031406641 1.0658953 0
0.66468811 0.21051741 1.0417297 0
0.744555 -0.44778705 1.1839043 0
0.73836279 -0.31664228 1.1835744 0
0.76448631 -0.28859627 1.1914136 0
0.82579136 -0.24148989 1.1892469 0
0.82385254 -0.18118405 1.2311316 0
0.66736126 -0.047571898 1.1001141 0
0.6610527 0.057560444 1.0784106 0
0.62531614 0.1438756 1.0587332 0
0.64374924 0.1260469 1.0637417 0
0.84000921 -0.44292927 -0.27794808 0
0.94640398 -0.44860864 -0.26003772 0
0.87372684 -0.34365094 -0.27660322 0
0.96060658 -0.33486307 -0.26248121 0
0.94684219 -0.22865844 -0.26686913 0
0.88956356 -0.19018054 -0.27043134 0
0.94008636 -0.13388848 -0.26469308 0
0.90834045 -0.061079264 -0.26993793 0
0.95237112 0.040794373 -0.27610505 0
0.98145294 0.13772845 -0.28138971 0
0.98978519 0.26834917 -0.28577572 0
0.97372198 0.46636343 -0.2930752 0
0.97084904 -0.4428215 -0.17699009 0
0.98860598 -0.41860044 -0.17263788 0
0.97552109 -0.1920445 -0.20726347 0
0.9475913 -0.43374145 -0.070938766 0
0.98447275 -0.39681184 -0.10105497 0
0.99162197 -0.3827858 -0.058835983 0
0.81609106 -0.45106173 0.024685383 0
0.92541313 -0.42753339 0.013475001 0
0.97698498 -0.43302524 0.040319741 0
0.83884621 -0.35492396 0.020990491 0
0.85986662 -0.34411764 0.017876744 0
0.81985378 -0.28267193 0.005063653 0
0.98192883 -0.2397542 -0.0029599071 0
0.92977333 -0.41023421 0.13256761 0
0.96419287 -0.42209518 0.10357106 0
0.98535395 -0.37849975 0.14084911 0
0.93008709 -0.40288079 0.19049224 0
0.93994427 -0.3972981 0.25046366 0
0.95506239 -0.36718035 0.219226 0
0.89958048 -0.40758395 0.33549929 0
0.92883158 -0.40014815 0.30533537 0
0.89974976 -0.38373756 0.33336234 0
0.93000841 -0.36536527 0.31222302 0
0.74645567 0.36707473 0.33792949 0
0.89070797 -0.39989877 0.41321394 0
0.89191151 -0.37225652 0.44487494 0
0.91819 -0.37044239 0.39804667 0
0.77299881 0.18042612 0.44888318 0
0.6965909 0.29607892 0.42880586 0
0.75060272 0.26514006 0.41608793 0
0.70140648 0.33079028 0.39439946 0
0.73308039 0.32595325 0.38607824 0
0.87145233 -0.39716601 0.47962117 0
0.87400293 -0.37003946 0.52733672 0
0.90502357 -0.35619545 0.50905728 0
0.8622303 -0.010470629 0.56737846 0
0.78372574 0.072390079 0.52182072 0
0.82381439 0.056547165 0.53666437 0
0.76219988 0.16159463 0.51034677 0
0.80976391 0.13535953 0.51498115 0
0.6896863 0.25166154 0.51316434 0
0.72948217 0.23648095 0.48751315 0
0.82890463 -0.40187514 0.58989036 0
0.94941664 -0.4491632 0.62966746 0
0.84390068 -0.37028241 0.62131327 0
0.85199738 -0.12380767 0.64131474 0
0.87782145 -0.16305304 0.65765357 0
0.83609772 -0.043260813 0.61896795 0
0.76353884 0.092342138 0.60674655 0
0.81340981 0.043773651 0.61164033 0
0.72721243 0.15149999 0.60182464 0
0.79984045 0.12279129 0.58090931 0
0.67457008 0.20977497 0.58024848 0
0.70527935 0.21849918 0.5583812 0
0.80261993 -0.40366185 0.70547402 0
0.83098745 -0.36903381 0.71451348 0
0.85630894 -0.23234367 0.74761975 0
0.85433626 -0.14195466 0.70703375 0
0.87899923 -0.16444159 0.72672534 0
0.82585573 -0.048483372 0.7139771 0
0.66098547 0.10075831 0.69008327 0
0.73219728 0.060862541 0.70880258 0
0.80063963 0.036429405 0.6934185 0
0.67025757 0.14735961 0.6634258 0
0.70685625 0.12910914 0.68441141 0
0.79042053 -0.44223011 0.80223334 0
0.81012964 -0.36699581 0.79029 0
0.83817196 -0.23684835 0.80335373 0
0.86320305 -0.24057961 0.80719399 0
0.83729076 -0.1253643 0.80132562 0
0.86421347 -0.16717482 0.79625994 0
0.74426746 -0.0051453114 0.77075654 0
0.79693174 -0.053458214 0.78132808 0
0.65980434 0.075157166 0.75384969 0
0.71370316 0.047101259 0.76307696 0
0.91504622 0.26333952 0.84067845 0
0.9805336 0.24001408 0.86456156 0
0.8605051 0.33985543 0.79703152 0
0.90809727 0.31032896 0.81983173 0
0.96882915 -0.454638 -0.22906977 0
0.96811342 -0.4453274 -0.15520352 0
0.95074892 -0.43439794 -0.05183053 0
0.97342539 -0.39738655 -0.046112001 0
0.83771181 -0.44845557 0.029443085 0
0.93464184 -0.44123161 0.035531759 0
0.81754923 -0.35192919 0.017379582 0
0.95782328 -0.37565112 0.02872324 0
0.92721319 -0.44075227 0.12836242 0
0.96128559 -0.43739295 0.18403164 0
0.92749453 -0.40399909 0.17593795 0
0.90920925 -0.41034102 0.22424895 0
0.93270016 -0.38489747 0.25910896 0
0.8895793 -0.41081309 0.34764796 0
0.91925287 -0.37859225 0.32686305 0
0.93174124 -0.35546875 0.35236996 0
0.70488358 0.35445952 0.34183639 0
0.85304022 -0.41174793 0.42739391 0
0.88158321 -0.38328362 0.43497476 0
0.91819048 -0.35140395 0.42491451 0
0.75202036 0.15836358 0.45896786 0
0.69466066 0.26019931 0.4283016 0
0.73541832 0.25406504 0.42763808 0
0.69024086 0.32058978 0.37734336 0
0.73980045 0.30974674 0.39220038 0
0.82740688 -0.4140358 0.53688574 0
0.86079645 -0.37630749 0.53074026 0
0.77828407 0.057743311 0.54601216 0
0.82229567 0.025355339 0.5621171 0
0.68187952 0.17838097 0.53988415 0
0.75289536 0.14565682 0.51080722 0
0.80567837 0.11931419 0.52903986 0
0.68487692 0.24339437 0.49636719 0
0.73289204 0.22463703 0.49483386 0
0.93001413 -0.47731137 0.64754331 0
0.83651209 -0.37949371 0.62685722 0
0.84329557 -0.14983392 0.66472709 0
0.81826687 -0.053863764 0.6374948 0
0.75014305 0.054806232 0.62640536 0
0.80166912 0.033001661 0.61942589 0
0.66563034 0.16146088 0.60292161 0
0.73035431 0.13830686 0.59776688 0
0.71117783 0.21690655 0.57505721 0
0.78210974 -0.42044902 0.73453605 0
0.81815004 -0.37630224 0.72754514 0
0.83342218 -0.23999953 0.74196702 0
0.87073851 -0.2591989 0.76523226 0
0.84416294 -0.13755035 0.72961056 0
0.86915636 -0.17110062 0.73940527 0
0.50388813 -0.035138845 0.72026175 0
0.81493092 -0.065621376 0.73296201 0
0.72389412 0.053869963 0.70924306 0
0.78302717 0.0061490536 0.70921403 0
0.65096331 0.11935425 0.68676722 0
0.69371176 0.12285042 0.69568706 0
0.71553421 -0.47237766 0.81046593 0
0.75883389 -0.4202652 0.82136369 0
0.80218983 -0.36290979 0.84144533 0
0.52845907 -0.21026123 0.77991939 0
0.56217098 -0.22628748 0.81763685 0
0.82377768 -0.25511599 0.83552301 0
0.84914398 -0.28706288 0.82383275 0
0.52912617 -0.12903881 0.76925474 0
0.58718634 -0.15367007 0.81295013 0
0.80811644 -0.15017128 0.82624078 0
0.86955738 -0.18248534 0.80317616 0
0.52543068 -0.070591927 0.76060975 0
0.59416771 -0.066987038 0.80468059 0
0.70515299 -0.026188612 0.8057152 0
0.78840256 -0.05646348 0.7978878 0
0.53737783 0.00091838837 0.73968244 0
0.62387466 0.050895214 0.76910353 0
0.67562103 0.041481018 0.80158085 0
0.78476095 0.099897146 0.87368357 0
0.9807868 0.13589311 0.89720583 0
0.90375042 0.23652864 0.84944111 0
0.97593927 0.228544 0.8671248 0
0.90701246 0.33065772 0.80714232 0
0.77162743 -0.40996075 0.92433977 0
0.78440094 -0.36123919 0.92506021 0
0.77064991 -0.25823522 0.92461967 0
0.68448305 -0.13951707 0.92448568 0
0.7456584 -0.17976189 0.9191891 0
0.67970514 -0.050776243 0.89454967 0
0.73382902 -0.054948568 0.89215553 0
0.65229559 5.2928925e-05 0.87244332 0
0.77740145 -0.40333545 0.98459864 0
0.86047077 -0.35312915 1.012063 0
0.77182436 -0.27575564 0.9764815 0
0.8018837 -0.44213796 -0.28494972 0
0.92433023 -0.45009804 -0.26907134 0
0.79304361 -0.35919631 -0.28651291 0
0.90777111 -0.3427099 -0.26761991 0
0.79977036 -0.25054443 -0.28790611 0
0.88894367 -0.26561284 -0.27123684 0
0.9682579 -0.26671004 -0.26555705 0
0.80265713 -0.15116692 -0.28440011 0
0.89470959 -0.15400338 -0.27441537 0
0.99579811 -0.16875362 -0.25594801 0
0.80859566 -0.060192823 -0.28341973 0
0.89201641 -0.068333387 -0.27183992 0
0.83803225 0.043559313 -0.28720462 0
0.94080973 0.032081604 -0.27750558 0
0.86167145 0.14450479 -0.2908873 0
0.9840045 0.15436697 -0.27182192 0
0.87915611 0.26102376 -0.29582167 0
0.8913703 0.36059427 -0.30095273 0
0.88530445 0.44744635 -0.30451769 0
0.99498081 0.44332457 -0.29398072 0
0.9755435 -0.45654202 -0.2120865 0
0.96415281 -0.44549108 -0.10092676 0
0.99799204 -0.40119362 -0.080880225 0
0.90009975 -0.49290657 0.038911402 0
0.95251751 -0.44970882 -0.0034793615 0
0.85440731 -0.36526632 0.0171206 0
0.97328329 -0.38982272 -0.0010284781 0
0.85458136 -0.27127647 0.0089101195 0
0.94267702 -0.43975639 0.096020401 0
0.96133089 -0.39805865 0.11736202 0
0.92449951 -0.43464875 0.17383468 0
0.94393969 -0.39478779 0.22918952 0
0.90588617 -0.41120267 0.32337105 0
0.9253149 -0.39143515 0.29865655 0
0.85852146 -0.43554878 0.37807372 0
0.90038395 -0.38920724 0.39897817 0
0.952034 -0.34237838 0.38904947 0
0.73924112 0.27541685 0.40353352 0
0.75708723 0.26157141 0.42287272 0
0.71927023 0.32766199 0.36912331 0
0.86471462 -0.41382027 0.45311698 0
0.89045095 -0.38119912 0.49195167 0
0.80809975 0.074151754 0.52376485 0
0.73733997 0.15808082 0.45407462 0
0.76998997 0.15548134 0.49728581 0
0.70405865 0.23158383 0.47171211 0
0.75584793 0.22473526 0.47357702 0
0.80227518 -0.41937423 0.61302143 0
0.83857393 -0.41304243 0.55164242 0
0.95160961 -0.48493993 0.64484584 0
0.85488462 -0.37969983 0.58780754 0
0.99629974 -0.37555468 0.627918 0
0.86230993 -0.12602687 0.63359946 0
0.84871149 -0.044250011 0.60058665 0
0.7849164 0.0479846 0.58217597 0
0.83594131 0.002674818 0.59884226 0
0.69263268 0.1701932 0.59093577 0
0.75354767 0.13264465 0.58309627 0
0.70116901 0.21531725 0.54845929 0
0.75244951 0.19425941 0.55145466 0
0.81673431 -0.41426587 0.6529628 0
0.83818817 -0.3797996 0.69181919 0
0.86261225 -0.22678161 0.71663892 0
0.8495183 -0.15807533 0.70066386 0
0.79801989 -0.040167332 0.68437612 0
0.82964849 -0.051796198 0.68299437 0
0.68323708 0.080182552 0.66865087 0
0.75928211 0.044160843 0.6813035 0
0.81848383 0.020225286 0.64856815 0
0.67384958 0.13158989 0.66462278 0
0.7171154 0.11154032 0.67442805 0
0.74710655 -0.4793961 0.80899274 0
0.82402515 -0.37589312 0.78075421 0
0.84492493 -0.25624514 0.80282629 0
0.52322245 -0.14002299 0.76269495 0
0.60115337 -0.19727325 0.79922241 0
0.84894705 -0.16041374 0.79026002 0
0.51503801 -0.077077627 0.7570399 0
0.59826899 -0.04344368 0.79348212 0
0.75649691 -0.058497667 0.78637481 0
0.80599594 -0.095489979 0.77590477 0
0.55390549 0.0011174679 0.74010926 0
0.66433048 0.06303525 0.75974357 0
0.72427416 0.026808262 0.75493467 0
0.90047503 0.26889157 0.83121288 0
0.92017365 0.3187499 0.81269252 0
0.66513681 -0.49445283 0.81680912 0
0.79957771 -0.3617444 0.88729638 0
0.81792402 -0.25543046 0.88571995 0
0.54752541 -0.20618033 0.81319177 0
0.63067341 -0.12545991 0.834014 0
0.73250961 -0.14560175 0.92148852 0
0.80491447 -0.18511987 0.87914777 0
0.63156843 -0.058032036 0.85401231 0
0.71189594 -0.050985575 0.88748026 0
0.66811275 0.012258053 0.85760975 0
0.72163534 0.027509212 0.86358929 0
0.94573832 0.13660383 0.89365268 0
0.96855593 0.19667244 0.87595415 0
0.76522207 -0.41927719 1.0008781 0
0.79578304 -0.37754154 0.97304583 0
0.87478733 -0.35708451 0.99934494 0
0.74802876 -0.25115633 0.9698379 0
0.77623653 -0.28435206 0.9652282 0
0.72373772 -0.16129208 0.94859701 0
0.68371773 -0.066839218 0.93910086 0
0.32455158 -0.44746518 -0.3566767 0
0.43317318 -0.42247927 -0.34059173 0
0.53870964 -0.44703543 -0.33141232 0
0.62541914 -0.43428504 -0.31463218 0
0.69078875 -0.4284935 -0.30063194 0
0.80692434 -0.45586157 -0.28908235 0
0.95214319 -0.49184549 -0.26786083 0
0.34140062 -0.34107554 -0.35831827 0
0.43016291 -0.33059001 -0.34772599 0
0.53478336 -0.35393536 -0.32718515 0
0.61283922 -0.33019888 -0.31322163 0
0.70497179 -0.34095931 -0.29748595 0
0.82259083 -0.3427968 -0.28293037 0
0.99219704 -0.35638714 -0.26727051 0
0.35994625 -0.22794056 -0.35940325 0
0.43050194 -0.24377441 -0.34430653 0
0.52162933 -0.25525045 -0.32939905 0
0.62963867 -0.24911165 -0.31374502 0
0.73895025 -0.22280812 -0.29785168 0
0.82189655 -0.23043489 -0.28717333 0
0.88856173 -0.25097728 -0.27520919 0
0.35314608 -0.13281155 -0.35467166 0
0.41026592 -0.13663554 -0.34895372 0
0.518363 -0.1496557 -0.33487219 0
0.6326313 -0.16065812 -0.3156383 0
0.72082329 -0.12165546 -0.29953927 0
0.82598972 -0.1392498 -0.28475159 0
0.91573381 -0.14235783 -0.27616882 0
0.36211205 -0.02194643 -0.35384148 0
0.43649483 -0.04186821 -0.34746474 0
0.53199148 -0.038608074 -0.33272082 0
0.62560892 -0.038508654 -0.31726128 0
0.75921488 -0.0303936 -0.29649311 0
0.83285046 -0.037294388 -0.28404057 0
0.91518259 -0.035422564 -0.27281982 0
0.36805582 0.075291634 -0.35447311 0
0.42794132 0.056118965 -0.34908706 0
0.52566242 0.05833149 -0.33279788 0
0.62870121 0.043805361 -0.3133263 0
0.72974682 0.074867964 -0.30037534 0
0.86836529 0.067529202 -0.28792548 0
0.95900917 0.056240559 -0.27654999 0
0.37012243 0.17151332 -0.35575092 0
0.43881798 0.17080235 -0.34342825 0
0.52800369 0.13505411 -0.33166647 0
0.62463331 0.15255475 -0.31178033 0
0.7256732 0.13270998 -0.30193692 0
0.79698372 0.20235157 -0.30147618 0
0.90159702 0.16140175 -0.29168445 0
0.36470985 0.2646935 -0.35733873 0
0.43845844 0.26952744 -0.34572709 0
0.53428888 0.24373484 -0.33438444 0
0.63491774 0.2481029 -0.31484234 0
0.80460119 0.263515 -0.30344343 0
0.90906096 0.25704479 -0.29333419 0
0.3632226 0.36184835 -0.3608796 0
0.44334459 0.37424397 -0.35021514 0
0.5307188 0.34337878 -0.3369385 0
0.6188364 0.36769056 -0.32488114 0
0.72060728 0.3481102 -0.31629813 0
0.82140064 0.34105825 -0.30734289 0
0.91598129 0.36176682 -0.29644799 0
0.35744333 0.46737063 -0.36002398 0
0.43099117 0.42624116 -0.3469677 0
0.54061079 0.45861125 -0.34346348 0
0.62908077 0.45933628 -0.33022285 0
0.72368097 0.45790172 -0.32080913 0
0.82850266 0.43917966 -0.31124157 0
0.93781137 0.45487452 -0.30197525 0
0.73115778 -0.48724937 -0.28498822 0
0.83980227 -0.4199264 -0.27504247 0
0.95310926 -0.44939995 -0.22222823 0
0.9652524 -0.33411896 -0.26099569 0
0.9744401 -0.25270033 -0.25923991 0
0.94566727 -0.4452734 -0.12039524 0
0.97757816 -0.42497158 -0.1099686 0
0.93213701 -0.42041802 -0.018113315 0
0.96454334 -0.43092084 -0.012978673 0
0.85967875 -0.36516738 0.025776744 0
0.97407818 -0.36718893 0.0017786026 0
0.83131266 -0.26824141 0.0030342937 0
0.80472708 -0.4335984 0.025816739 0
0.91739416 -0.42846179 0.081497729 0
0.95832634 -0.40214992 0.13097799 0
0.9201932 -0.39215636 0.11635083 0
0.9646492 -0.38187444 0.070098758 0
0.93987417 -0.42169285 0.18886006 0
0.92913485 -0.3871485 0.13687876 0
0.933918 -0.37558866 0.18888873 0
0.93571186 -0.41353798 0.28545237 0
0.91326332 -0.37598324 0.2868166 0
0.92040348 -0.3716898 0.28471881 0
0.87938643 -0.42649961 0.39545989 0
0.92877817 -0.4058454 0.34790775 0
0.89131117 -0.37086999 0.39755452 0
0.92103815 -0.35424924 0.37720364 0
0.69111729 0.30614662 0.38605142 0
0.72802591 0.26254344 0.40069568 0
0.69712591 0.3367908 0.3694427 0
0.71748877 0.30768442 0.36615181 0
0.85990381 -0.41767621 0.47789142 0
0.85857582 -0.37326288 0.48686558 0
0.76736832 0.072854519 0.50383353 0
0.81042624 0.073298931 0.52102089 0
0.76130819 0.16419888 0.48079786 0
0.70024014 0.26220894 0.4292869 0
0.73009157 0.25039649 0.46824443 0
0.7068944 0.32126141 0.4182643 0
0.83956289 -0.40821743 0.56979102 0
0.90173864 -0.46944618 0.6217683 0
0.84244776 -0.36383462 0.567855 0
0.86642361 -0.11155438 0.62351674 0
0.82777357 -0.040808916 0.59231693 0
0.77532053 0.081996202 0.58452535 0
0.80781555 0.053172112 0.5817017 0
0.6777997 0.19444752 0.59121001 0
0.73204565 0.15573907 0.57045889 0
0.79319334 0.13487339 0.53750926 0
0.66914749 0.21630907 0.52653998 0
0.70791578 0.2352376 0.54637569 0
0.7644825 -0.40738368 0.6320681 0
0.82074118 -0.39984369 0.66539669 0
0.91020393 -0.42604566 0.64732009 0
0.97823143 -0.48118734 0.66663283 0
0.81206608 -0.36718583 0.67635328 0
0.95375156 -0.36609137 0.64563882 0
0.8357048 -0.22106028 0.70301616 0
0.8550787 -0.14051318 0.6836552 0
0.77007198 -0.004326582 0.69786513 0
0.81619787 -0.050636768 0.67645204 0
0.72861195 0.072868824 0.67960274 0
0.80138111 0.039154768 0.6660617 0
0.65455389 0.13324547 0.66586757 0
0.69606972 0.13251138 0.65484452 0
0.70941401 -0.48500037 0.8048172 0
0.79555368 -0.36600304 0.77496195 0
0.55400515 -0.21837986 0.78409225 0
0.83639288 -0.23151088 0.78347474 0
0.87318563 -0.23198152 0.73890436 0
0.50478745 -0.12435532 0.758614 0
0.56718826 -0.1521349 0.79171407 0
0.82237387 -0.13756919 0.78754634 0
0.87577009 -0.14647245 0.75033742 0
0.51754618 -0.043133497 0.73654377 0
0.60284662 -0.036896229 0.78827107 0
0.73917198 -0.022172451 0.7700271 0
0.7969656 -0.071080685 0.76726043 0
0.55620098 0.019936085 0.74640703 0
0.69414282 0.054330111 0.76137233 0
0.78922558 0.20428944 0.815795 0
0.93394184 0.28576827 0.83527088 0
0.83207321 0.32952881 0.79705608 0
0.69631958 -0.46504498 0.81498283 0
0.79561806 -0.33896947 0.87000746 0
0.80887365 -0.24185944 0.86965358 0
0.62216759 -0.13041711 0.84299374 0
0.81414413 -0.1519897 0.84425199 0
0.68295336 -0.027316332 0.84997481 0
0.65460968 0.04183507 0.83142591 0
0.70444822 0.023410082 0.85738951 0
0.8340497 0.090176582 0.86258304 0
0.76130772 0.10943961 0.83375502 0
0.98715258 0.15366507 0.89469618 0
0.74515915 -0.36159849 0.92628014 0
0.17141485 -0.42752254 -0.38419735 0
0.24342442 -0.43868649 -0.37053919 0
0.35634899 -0.44574606 -0.35177207 0
0.45920086 -0.45653915 -0.33049065 0
0.56233263 -0.44560397 -0.31474358 0
0.65097237 -0.44709063 -0.30057615 0
0.79774141 -0.44470763 -0.28252691 0
0.9138937 -0.44156218 -0.26930213 0
0.19191885 -0.33396971 -0.38129121 0
0.28234243 -0.33746457 -0.3658976 0
0.36458969 -0.3352257 -0.35123378 0
0.46936178 -0.34457481 -0.33621675 0
0.58259392 -0.32020807 -0.31972009 0
0.6458869 -0.34237504 -0.30591428 0
0.72688913 -0.35874248 -0.2965619 0
0.81478024 -0.35940719 -0.28063154 0
0.94240522 -0.30764151 -0.26780593 0
0.19100904 -0.26893342 -0.37730777 0
0.24841309 -0.23059773 -0.37245893 0
0.34449959 -0.23592901 -0.35492659 0
0.47413492 -0.24048352 -0.33592135 0
0.59007549 -0.23297727 -0.31690037 0
0.66141176 -0.24029338 -0.31260854 0
0.73729563 -0.24830043 -0.29276448 0
0.83774948 -0.27274418 -0.28040808 0
0.9389596 -0.26669383 -0.26536745 0
0.20579243 -0.12462354 -0.3745364 0
0.26761723 -0.14862347 -0.36953694 0
0.39293671 -0.15069699 -0.35496128 0
0.452003 -0.12649584 -0.34285587 0
0.55207682 -0.13788068 -0.3255167 0
0.67485285 -0.15672255 -0.30978024 0
0.76566458 -0.13249063 -0.29399627 0
0.85673189 -0.1658957 -0.27983874 0
0.96358776 -0.15166235 -0.26566452 0
0.25979519 -0.029519081 -0.37087345 0
0.36128616 -0.048839569 -0.35404521 0
0.45543385 -0.028822184 -0.34164554 0
0.57021856 -0.028676987 -0.32300949 0
0.66776133 -0.067101479 -0.30872929 0
0.77975035 -0.049236298 -0.29484254 0
0.86403751 -0.057884932 -0.27885532 0
0.96657133 -0.098199606 -0.26378191 0
0.25663662 0.065169811 -0.37123793 0
0.35665894 0.073461056 -0.35423148 0
0.452003 0.062894344 -0.33897382 0
0.51942778 0.044200182 -0.32385695 0
0.67283535 0.050528288 -0.3102082 0
0.76405001 0.042804956 -0.2915954 0
0.87462997 0.0035462379 -0.27924645 0
0.91593218 0.057560682 -0.28412467 0
0.20221376 0.17081702 -0.37334305 0
0.25338936 0.13965845 -0.36823833 0
0.37890291 0.16196156 -0.35181534 0
0.49008512 0.15464711 -0.33675933 0
0.59768248 0.16257524 -0.31370664 0
0.67323971 0.14428496 -0.30692476 0
0.79535437 0.13295531 -0.29554892 0
0.82795715 0.18351793 -0.30004501 0
0.95066404 0.14051962 -0.28698277 0
0.21894646 0.23138642 -0.37712729 0
0.26775074 0.26554322 -0.37314618 0
0.36497307 0.25173187 -0.35536599 0
0.45629692 0.26784587 -0.34401727 0
0.5701561 0.2356708 -0.32424593 0
0.71186686 0.26782966 -0.30750006 0
0.77817965 0.23373079 -0.30090117 0
0.81646299 0.29595709 -0.29915422 0
0.96462917 0.24288344 -0.28836066 0
0.1961503 0.34586596 -0.37841976 0
0.2564292 0.36440802 -0.373896 0
0.35511494 0.35716283 -0.35875249 0
0.4557209 0.36457753 -0.34252805 0
0.55571318 0.34911251 -0.33394992 0
0.64047909 0.33772588 -0.32288533 0
0.72347403 0.3368299 -0.3102529 0
0.83104563 0.35771012 -0.30208117 0
0.96582127 0.32877874 -0.28937018 0
0.19595385 0.46683466 -0.38434428 0
0.25927925 0.46301973 -0.37483138 0
0.36280298 0.44999611 -0.35917377 0
0.46293545 0.46276402 -0.34765738 0
0.55352211 0.45553231 -0.33766884 0
0.6539917 0.43668914 -0.32773477 0
0.75275373 0.44509673 -0.31711811 0
0.84800529 0.46797466 -0.30702758 0
0.99104691 0.42969513 -0.29494649 0
0.96911097 -0.45360553 -0.2063154 0
0.68250465 -0.38923681 -0.28959066 0
0.90942955 -0.36706138 -0.26434845 0
0.97841692 -0.23304844 -0.23285985 0
0.99720669 -0.17485309 -0.23140419 0
0.95419455 -0.45079327 -0.10723269 0
0.9337492 -0.43484259 -0.007211566 0
0.9936657 -0.44527268 0.0088449121 0
0.81134272 -0.3479054 0.010173142 0
0.84891653 -0.28480327 0.012269437 0
0.81561279 -0.47834778 0.029953063 0
0.93913221 -0.41012073 0.093619645 0
0.90925741 -0.42032051 0.17703843 0
0.9386344 -0.38182199 0.22077736 0
0.91073322 -0.41435945 0.26812065 0
0.93125343 -0.38466763 0.2963255 0
0.88469315 -0.41753626 0.38370124 0
0.90472698 -0.37105143 0.39324525 0
0.73617554 0.29263186 0.37795472 0
0.76388168 0.26934171 0.40771335 0
0.71836615 0.33835053 0.36880678 0
0.86054516 -0.40806365 0.49514925 0
0.87427473 -0.37994671 0.4933278 0
0.79914713 0.07596159 0.51452827 0
0.71274185 0.1952517 0.51183283 0
0.76860046 0.15981579 0.48624736 0
0.70411587 0.24754977 0.45834863 0
0.74401522 0.2471323 0.45557457 0
0.79648685 -0.41969204 0.59845668 0
0.82949734 -0.41034091 0.56197244 0
0.9642334 -0.44585204 0.6303879 0
0.86644411 -0.3561244 0.5740822 0
0.85214615 -0.13941431 0.63294512 0
0.79697704 -0.017650843 0.55520028 0
0.83724451 -0.062560797 0.61316729 0
0.78876257 0.035932064 0.58367336 0
0.82568884 0.061177254 0.57782102 0
0.68644619 0.17244911 0.58607364 0
0.75729847 0.14389396 0.57361424 0
0.69371986 0.23592806 0.54148626 0
0.73668575 0.22061896 0.5251776 0
0.79643917 -0.40570998 0.72335094 0
0.8087039 -0.41222978 0.65363628 0
0.96229649 -0.46411014 0.66306788 0
0.79964781 -0.3991555 0.69911319 0
0.84216118 -0.36498237 0.6778999 0
0.87131214 -0.21440935 0.71838462 0
0.85709 -0.15917587 0.69519806 0
0.78366661 -0.01987958 0.67212451 0
0.8272872 -0.068523645 0.68541437 0
0.70337772 0.073590279 0.68910807 0
0.75532198 0.045760632 0.6797303 0
0.81620026 0.0028114319 0.64241284 0
0.69266176 0.13277912 0.66115528 0
0.73026514 -0.46399641 0.81014979 0
0.81620932 -0.36773467 0.78484529 0
0.54711866 -0.24335909 0.78955942 0
0.84774685 -0.24488544 0.79265535 0
0.54955769 -0.15160227 0.77847034 0
0.85328102 -0.1579392 0.78841531 0
0.48219633 -0.055367231 0.73348498 0
0.5382247 -0.049641609 0.76249915 0
0.59789276 -0.015606642 0.79547697 0
0.75158453 -0.054893494 0.77910209 0
0.81599522 -0.074978352 0.77781844 0
0.67255688 0.064971209 0.76809871 0
0.73059607 0.027903318 0.75837356 0
0.66152096 0.11803198 0.71819109 0
0.95226812 0.29271817 0.83332038 0
0.77161503 -0.39725232 0.90058988 0
0.80405092 -0.34580624 0.87596518 0
0.8071456 -0.2460649 0.87675011 0
0.56384325 -0.12514639 0.80503011 0
0.63580132 -0.13114357 0.84178382 0
0.7651062 -0.13950372 0.91532397 0
0.80157995 -0.16413879 0.84454328 0
0.62965965 -0.038450003 0.84184253 0
0.71755075 -0.04082346 0.8868717 0
0.67498636 0.0088040829 0.86726427 0
0.7301116 0.0276649 0.87700778 0
0.76888609 0.10812783 0.83197916 0
0.94872999 0.10199809 0.89964318 0
0.91924381 0.23090744 0.85523063 0
0.76113129 -0.41033745 0.96924901 0
0.80498743 -0.34780729 0.95736682 0
0.74231529 -0.24808168 0.93909276 0
0.77929735 -0.2641716 0.96058708 0
0.73595572 -0.1535728 0.93833488 0
0.7341671 -0.071833849 0.92578471 0
0.028746605 -0.4329313 -0.40822768 0
0.096082687 -0.46020877 -0.39640659 0
0.18196487 -0.42646825 -0.38116533 0
0.30313444 -0.45120549 -0.36317599 0
0.41927528 -0.43991923 -0.34567541 0
0.50745773 -0.43450046 -0.32839346 0
0.55955553 -0.4678117 -0.32108831 0
0.71348858 -0.47183669 -0.30072439 0
0.76352787 -0.44541121 -0.29130673 0
0.87460661 -0.44383502 -0.27580243 0
0.99415445 -0.47165084 -0.2635498 0
0.023513317 -0.32803512 -0.39978224 0
0.093178749 -0.34732938 -0.40171033 0
0.18656635 -0.34323943 -0.38091695 0
0.30294991 -0.35230958 -0.36304092 0
0.40850019 -0.35645986 -0.34493017 0
0.51186228 -0.34316218 -0.33028138 0
0.60998344 -0.32799554 -0.32212073 0
0.6838789 -0.34100485 -0.30414736 0
0.78612185 -0.35325217 -0.29007024 0
0.87692785 -0.37965107 -0.27297413 0
0.087671757 -0.25140536 -0.39743948 0
0.20412922 -0.23880959 -0.3770197 0
0.2931056 -0.24568844 -0.36738402 0
0.39259291 -0.26287615 -0.35007793 0
0.51003695 -0.24405491 -0.33181715 0
0.60388279 -0.24563432 -0.31700099 0
0.70556355 -0.2363987 -0.30315745 0
0.78816557 -0.25487709 -0.28560835 0
0.048877716 -0.15864706 -0.3970589 0
0.10450792 -0.16042149 -0.39190304 0
0.21124554 -0.13499677 -0.37688035 0
0.32052088 -0.13627255 -0.36349279 0
0.39848328 -0.14838099 -0.34716469 0
0.50300264 -0.15445673 -0.33156604 0
0.61618423 -0.14392281 -0.31589168 0
0.71355534 -0.15303874 -0.30192637 0
0.79891062 -0.17239666 -0.28477585 0
0.91649961 -0.1696322 -0.27148664 0
0.10652924 -0.041357875 -0.39458692 0
0.19403553 -0.043054342 -0.38501817 0
0.29313469 -0.039216161 -0.36895859 0
0.38327789 -0.063107491 -0.34901714 0
0.47591209 -0.04193902 -0.333942 0
0.60107803 -0.050631523 -0.31981027 0
0.71181297 -0.046949863 -0.29993057 0
0.81356668 -0.074972153 -0.28545159 0
0.92086267 -0.062693119 -0.2694506 0
0.055096149 0.057376385 -0.39549839 0
0.10883904 0.038363814 -0.39442813 0
0.20276165 0.067836642 -0.37638676 0
0.29614878 0.052300215 -0.36386567 0
0.4220562 0.058196783 -0.34515876 0
0.49962807 0.049655914 -0.33108729 0
0.60571957 0.040979624 -0.31801134 0
0.70650387 0.056737661 -0.29857087 0
0.82064486 0.035569668 -0.28506678 0
0.99802732 0.044784784 -0.2763086 0
0.10918283 0.14455378 -0.3939752 0
0.21395683 0.16061485 -0.37889802 0
0.29451036 0.16664267 -0.36448818 0
0.3929944 0.14938331 -0.35045606 0
0.52200842 0.1510427 -0.3290652 0
0.62449884 0.17277503 -0.31576151 0
0.69618464 0.14736366 -0.30684793 0
0.87449026 0.15322161 -0.29011154 0
0.0389328 0.20615971 -0.39557087 0
0.10035753 0.25607669 -0.39652759 0
0.21413231 0.25556731 -0.37462729 0
0.30752182 0.2487973 -0.3664453 0
0.37972212 0.2567184 -0.35046899 0
0.50099087 0.24261522 -0.33557016 0
0.62196445 0.24799657 -0.31620574 0
0.74440241 0.23781323 -0.30413413 0
0.88813162 0.23885131 -0.29163927 0
0.038192749 0.3467139 -0.4003036 0
0.1245985 0.36809957 -0.3950035 0
0.18483543 0.33360815 -0.38409454 0
0.29417849 0.36891997 -0.37108356 0
0.41090631 0.35189199 -0.35003781 0
0.5118351 0.36228514 -0.33761233 0
0.60784912 0.3529067 -0.32721275 0
0.67220211 0.35838175 -0.3248198 0
0.77964354 0.3546989 -0.30982524 0
0.91230774 0.34037566 -0.29597896 0
0.11000872 0.45015013 -0.39409459 0
0.21676159 0.43541038 -0.38066965 0
0.27592802 0.44739687 -0.37386006 0
0.38357687 0.45272624 -0.35768318 0
0.49526215 0.44285059 -0.34199029 0
0.58296442 0.49094701 -0.33942431 0
0.68234873 0.46027851 -0.32845318 0
0.7962203 0.46417761 -0.31386328 0
0.91771269 0.42705369 -0.29749411 0
0.6298933 -0.44851375 -0.30006909 0
0.98238802 -0.4505012 -0.22267807 0
0.86491823 -0.32834721 -0.26830149 0
0.98531723 -0.38724256 -0.25760275 0
0.87866211 -0.25782728 -0.26763803 0
0.99252129 -0.26664233 -0.24510503 0
0.88701487 -0.12333179 -0.26563108 0
-0.26817036 0.37769246 -0.34710902 0
-0.26525545 0.43320203 -0.35157511 0
-0.2305088 0.49074388 -0.35028294 0
0.95799446 -0.44374204 -0.11648101 0
0.96238613 -0.43082905 -0.01926434 0
0.86695528 -0.34895194 0.016553402 0
0.98864746 -0.36971092 -0.0031759143 0
0.88129187 -0.47505498 0.041164935 0
0.94121456 -0.44928241 0.084276438 0
0.97504759 -0.38834953 0.082567215 0
0.94889545 -0.43117714 0.17021921 0
0.94107866 -0.39166117 0.18621033 0
0.96138144 -0.43065488 0.24182522 0
0.93644047 -0.38254046 0.27820906 0
0.90641165 -0.38572705 0.37501025 0
0.74397469 0.24981737 0.40396297 0
0.72263384 0.32847285 0.36893207 0
0.85484266 -0.38919199 0.50825393 0
0.877388 -0.38090539 0.4767381 0
0.787292 0.082803011 0.50526023 0
0.73641205 0.17779946 0.47921175 0
0.7886796 0.15200877 0.48676628 0
0.73332596 0.24688292 0.45869792 0
0.79545832 0.19704056 0.45823753 0
0.70154333 0.31061482 0.42505553 0
0.95127916 -0.45875382 0.63515782 0
0.82380676 -0.39262521 0.59123874 0
0.86768436 -0.36861181 0.55237007 0
0.99529505 -0.36985469 0.64510351 0
0.81313896 -0.02128005 0.60399872 0
0.85219193 -0.067324162 0.61242294 0
0.79150391 0.05843544 0.58343989 0
0.71965837 0.15731144 0.5845592 0
0.78498697 0.14523387 0.53816575 0
0.68898916 0.21518087 0.54382777 0
0.90706778 -0.45337677 0.65566719 0
0.8077445 -0.39557981 0.67038405 0
0.84488678 -0.36612511 0.64592111 0
0.83910322 -0.16474104 0.67524332 0
0.87393999 -0.15871716 0.69371146 0
0.81480217 -0.048452616 0.68361044 0
0.85762978 -0.088690758 0.71443117 0
0.70445013 0.074401855 0.6842109 0
0.77843285 0.044304132 0.66164613 0
0.70840311 0.12738204 0.66169536 0
0.77602863 0.10426164 0.6245389 0
0.74758291 -0.48831296 0.8030178 0
0.80124569 -0.38092756 0.77678698 0
0.52108288 -0.22858524 0.78751624 0
0.86050844 -0.24652648 0.78744733 0
0.50877666 -0.1300633 0.75048661 0
0.54048729 -0.18419516 0.78922606 0
0.81699991 -0.10686088 0.77831262 0
0.85932636 -0.16963625 0.77793503 0
0.51122761 -0.044446707 0.73551351 0
0.56692457 -0.062220573 0.77501869 0
0.63171577 -0.036994457 0.80721903 0
0.79915571 -0.074675322 0.77775562 0
0.60628414 0.0051522255 0.77199489 0
0.6880064 0.048533201 0.76310796 0
0.76802397 0.020454645 0.74764222 0
0.71464729 0.10123754 0.72830003 0
0.8382678 0.23414922 0.82225442 0
0.9155488 0.3458786 0.80018771 0
0.71988153 -0.45462394 0.82430494 0
0.78327227 -0.37659574 0.8862648 0
0.83287191 -0.32601643 0.85786963 0
0.81702614 -0.29011679 0.87188184 0
0.83658457 -0.25183082 0.87341708 0
0.52187872 -0.1631217 0.79789102 0
0.6054821 -0.16596293 0.83666945 0
0.78031635 -0.16401243 0.87850064 0
0.85481691 -0.17471337 0.83202869 0
0.67586994 -0.059742212 0.87657952 0
0.73644161 -0.081360579 0.89943349 0
0.67329025 0.012210369 0.84535384 0
0.79443693 0.091096401 0.87224954 0
0.83043337 -0.41703475 1.0211784 0
0.79362202 -0.34957027 0.95123345 0
0.85429573 -0.34252548 0.98363841 0
0.7637105 -0.25991726 0.95909899 0
0.69101238 -0.15358806 0.96469223 0
0.74409199 -0.17483997 0.9551028 0
0.68921137 -0.067175865 0.94319993 0
0.73383236 -0.064528465 0.93828988 0
0.78883219 -0.4019289 1.0280862 0
-0.13428783 -0.49776137 -0.43016005 0
-0.13511515 -0.44812536 -0.42548662 0
-0.053145885 -0.4268235 -0.41788882 0
0.01717186 -0.474998 -0.40570444 0
0.1353631 -0.42233491 -0.3932786 0
0.20579433 -0.43533731 -0.37586868 0
0.32950354 -0.45312607 -0.36046821 0
0.42339611 -0.44553101 -0.33730704 0
0.52176189 -0.45665419 -0.32364428 0
0.61513996 -0.44275808 -0.30571818 0
0.71521425 -0.46675682 -0.29019767 0
0.84746265 -0.46095347 -0.27845287 0
0.98507071 -0.46664023 -0.25860888 0
-0.12106943 -0.38756883 -0.42360085 0
-0.059072018 -0.32430494 -0.41857445 0
0.029278755 -0.34752285 -0.40117013 0
0.12399435 -0.35585368 -0.39224404 0
0.22947264 -0.33702517 -0.37441999 0
0.29872322 -0.33942556 -0.36146563 0
0.41207409 -0.35162938 -0.34290475 0
0.5471015 -0.346843 -0.32202607 0
0.62839699 -0.35986042 -0.30327475 0
0.74223804 -0.36669183 -0.28927392 0
0.85816288 -0.3638227 -0.27549744 0
-0.15735435 -0.22360635 -0.40820885 0
-0.04578352 -0.2279737 -0.41835719 0
0.023956776 -0.23854828 -0.40365803 0
0.13351488 -0.26242602 -0.38724339 0
0.24219036 -0.24656701 -0.37251681 0
0.31422567 -0.24196827 -0.35974687 0
0.43331671 -0.25097167 -0.3421191 0
0.57049561 -0.24168897 -0.32127291 0
0.66729879 -0.23758817 -0.30469888 0
0.73030329 -0.23646808 -0.29862601 0
0.77555513 -0.24643135 -0.28962952 0
0.90170479 -0.2298038 -0.27718914 0
-0.063933372 -0.15010059 -0.41216087 0
0.03724432 -0.16203916 -0.39994407 0
0.12903118 -0.13976586 -0.38789457 0
0.24492598 -0.15478492 -0.37011409 0
0.31434965 -0.17041087 -0.3574816 0
0.42287445 -0.16592586 -0.3414793 0
0.52283525 -0.13625002 -0.32558763 0
0.62944365 -0.1807847 -0.30728304 0
0.79133224 -0.12370396 -0.28883076 0
0.88242435 -0.15254259 -0.27152324 0
-0.059376717 -0.058614492 -0.41297334 0
0.032454491 -0.067015052 -0.40100259 0
0.1409955 -0.038911462 -0.38263232 0
0.24732971 -0.04782629 -0.37441665 0
0.34280634 -0.056587458 -0.35991579 0
0.42617512 -0.06172967 -0.34215897 0
0.52653456 -0.050704956 -0.32490236 0
0.66727972 -0.064366579 -0.30071545 0
0.68807793 -0.050933838 -0.30404514 0
0.79393053 -0.032202721 -0.28795892 0
0.89374113 -0.050130606 -0.27152252 0
-0.064892292 0.040152192 -0.41433316 0
0.020236015 0.032837391 -0.40390128 0
0.12838745 0.051205397 -0.38414061 0
0.25051308 0.053185463 -0.36836779 0
0.33997726 0.039712667 -0.35872954 0
0.43122768 0.055340052 -0.34019166 0
0.5315609 0.055422068 -0.32507735 0
0.5933609 0.023225784 -0.31986177 0
0.68856096 0.062986374 -0.30336338 0
0.79898882 0.041292191 -0.28828067 0
0.94855022 0.026887178 -0.27525026 0
-0.051449299 0.15048909 -0.41449174 0
0.03724575 0.14395249 -0.40405208 0
0.12430477 0.14405107 -0.38543075 0
0.22452211 0.14723349 -0.3763895 0
0.32618237 0.14774895 -0.35707945 0
0.41874743 0.14900708 -0.34076405 0
0.52583122 0.14315963 -0.32458162 0
0.57938194 0.12316656 -0.31779182 0
0.69618273 0.15787482 -0.30481625 0
0.84089899 0.13996744 -0.2915988 0
-0.059279442 0.23094094 -0.4161683 0
0.016248703 0.24250019 -0.40297854 0
0.14915705 0.25353754 -0.38794237 0
0.25840473 0.23346388 -0.37142956 0
0.32578611 0.23791695 -0.35799021 0
0.44226694 0.26346517 -0.33615214 0
0.52426672 0.20306754 -0.3248896 0
0.6013813 0.2688036 -0.32242233 0
0.71797991 0.26838326 -0.30720532 0
0.85819387 0.24827814 -0.2923122 0
0.056254864 0.31312025 -0.40445805 0
0.13127041 0.35424018 -0.38862967 0
0.24648285 0.3376931 -0.37243968 0
0.33205462 0.35305619 -0.36202824 0
0.42683125 0.34745717 -0.34356207 0
0.5036397 0.35146141 -0.33908147 0
0.59756899 0.32602692 -0.3222605 0
0.72595215 0.35241604 -0.30799735 0
0.90199995 0.36538482 -0.29892302 0
0.078324795 0.42824423 -0.393839 0
0.13801718 0.47312593 -0.38556325 0
0.23361063 0.45278275 -0.37514514 0
0.3171711 0.44714749 -0.3633973 0
0.40637827 0.44302857 -0.35146141 0
0.48845625 0.43938303 -0.33922631 0
0.63174868 0.44665909 -0.32875603 0
0.74834442 0.44928527 -0.31201619 0
0.79264498 0.43845153 -0.31851298 0
0.94370174 0.45734763 -0.30509984 0
-0.46752501 -0.44751751 -0.36929455 0
0.94108677 -0.49686408 -0.22397143 0
0.98966503 -0.44254184 -0.19766057 0
0.72635412 -0.31800103 -0.28371114 0
0.84224272 -0.31175625 -0.26982188 0
0.99213552 -0.36743665 -0.25531071 0
0.96198225 -0.22863293 -0.2470215 0
0.99469328 -0.24312401 -0.22323483 0
-0.34403706 0.27603686 -0.36236572 0
-0.3132143 0.25343192 -0.37635705 0
-0.3455863 0.36610758 -0.36823872 0
-0.29864407 0.358621 -0.35732558 0
-0.33351183 0.45990515 -0.38231796 0
-0.27046442 0.4491843 -0.35247818 0
0.97922373 -0.43745208 -0.1115191 0
0.89496613 -0.43930197 0.023279786 0
0.98859835 -0.45200992 -0.016820252 0
0.98665667 -0.37467456 -0.019086301 0
0.83676338 -0.30015802 0.01002264 0
0.86615038 -0.25103331 0.0093343854 0
0.9268918 -0.42678487 0.11975533 0
0.94767809 -0.4166472 0.076852977 0
0.87313604 -0.40575624 0.035029531 0
0.9561739 -0.4012394 0.13880911 0
0.93692398 -0.41373312 0.22120413 0
0.95209742 -0.39653122 0.19865757 0
0.92106199 -0.42121208 0.30063945 0
0.9381628 -0.38293409 0.31174773 0
0.88618422 -0.42407143 0.37871775 0
0.89864111 -0.41213679 0.41528019 0
0.91403198 -0.37881184 0.38520774 0
0.75304985 0.26312399 0.40231097 0
0.69822121 0.31739306 0.35370511 0
0.72443295 0.33531594 0.38360378 0
0.86600876 -0.41552579 0.529571 0
0.87347221 -0.39531827 0.49609801 0
0.89761925 -0.37690091 0.48991093 0
0.80135012 0.046129465 0.51827413 0
0.75389576 0.15982151 0.48533863 0
0.80260086 0.12846375 0.5212962 0
0.69203663 0.2638886 0.42824653 0
0.72564554 0.23602057 0.47841775 0
0.72571039 0.29361367 0.44318938 0
0.8566637 -0.38966584 0.60358053 0
0.90237522 -0.37210977 0.54402518 0
0.82561588 -0.045771122 0.6106571 0
0.87641048 -0.10046697 0.63064384 0
0.7609787 0.079022646 0.5782302 0
0.82083082 0.028249979 0.57915747 0
0.67289019 0.16507053 0.59885663 0
0.73757267 0.15492892 0.56791371 0
0.79062462 0.099523544 0.56313837 0
0.68810558 0.2327466 0.54137105 0
0.82479239 -0.41072631 0.68172336 0
0.83335352 -0.38549721 0.67862099 0
0.84932613 -0.16470361 0.67807299 0
0.88227463 -0.18376327 0.70769727 0
0.82799101 -0.060221434 0.68624753 0
0.87068987 -0.034183502 0.70095605 0
0.73200369 0.048529387 0.68665534 0
0.81116438 0.037413597 0.66499871 0
0.66334009 0.12805295 0.66988188 0
0.70904207 0.11397624 0.66153997 0
0.69464016 -0.48655629 0.8090018 0
0.7994132 -0.41698778 0.77431726 0
0.82657719 -0.35945106 0.79313922 0
0.83920288 -0.24837399 0.7860955 0
0.54005337 -0.17634034 0.77739376 0
0.5556283 -0.13052297 0.78055632 0
0.82468319 -0.15748 0.77088332 0
0.87597847 -0.15573287 0.78675193 0
0.51206303 -0.055735111 0.73563159 0
0.59052944 -0.061477423 0.78864515 0
0.75095415 -0.071093559 0.8025282 0
0.79976606 -0.077580214 0.77575827 0
0.60639524 0.020365 0.76977873 0
0.72148705 0.023837805 0.75302792 0
0.68502998 0.095510006 0.73004109 0
0.79826212 0.14724636 0.82887518 0
0.87617636 0.25064826 0.83364379 0
0.92463398 0.30842781 0.82029665 0
0.77858496 -0.41155946 0.89784122 0
0.79509735 -0.3654933 0.89434588 0
0.56848049 -0.23710203 0.81672734 0
0.81099272 -0.27814937 0.8751353 0
0.60441542 -0.16388559 0.83949751 0
0.72155333 -0.1158452 0.90375364 0
0.80241251 -0.18022728 0.87872404 0
0.62233162 -0.09005022 0.82626998 0
0.70226145 -0.046639681 0.88084704 0
0.64184046 -0.0057206154 0.81859356 0
0.6842227 0.012620211 0.86445045 0
0.78870535 0.04577446 0.88692325 0
0.95280027 0.081012249 0.87050617 0
0.9926672 0.10381508 0.8958059 0
0.77266741 -0.41886675 0.95630145 0
0.80470228 -0.37976968 0.98246151 0
0.8552556 -0.35675979 1.0071204 0
0.77040672 -0.25672674 0.97062492 0
0.71464539 -0.15019298 0.97982806 0
0.75426626 -0.18326426 0.97400331 0
0.69504261 -0.075427294 0.94834125 0
0.76407528 -0.42999244 1.0783229 0
0.79051733 -0.40653431 1.0401787 0
0.84333134 -0.37374699 1.0408325 0
0.75598478 -0.14817381 1.0451219 0
0.74867392 -0.10220313 1.0431232 0
-0.28345585 -0.45338619 -0.44175649 0
-0.23146439 -0.38135064 -0.44021815 0
-0.15582418 -0.42006326 -0.43039054 0
-0.069847584 -0.4836719 -0.41233474 0
-0.30146217 -0.23054206 -0.41605997 0
-0.20154524 -0.30770636 -0.43478614 0
-0.070278168 -0.31485128 -0.42040342 0
-0.041723251 -0.37874198 -0.41544354 0
0.069964409 -0.39123166 -0.40191257 0
0.16499424 -0.47692215 -0.38047773 0
0.26238966 -0.49974823 -0.36473161 0
-0.23408556 -0.18705595 -0.41721827 0
-0.15330553 -0.17041457 -0.42538148 0
-0.061113834 -0.24706507 -0.41431665 0
0.035811424 -0.29769325 -0.40247744 0
0.10171986 -0.32234907 -0.38994777 0
0.1757946 -0.34136343 -0.37827289 0
0.28218126 -0.41904056 -0.36234552 0
0.40498114 -0.44729662 -0.34061348 0
0.4774189 -0.49034953 -0.33137214 0
-0.20074606 -0.088388324 -0.43435121 0
-0.12792158 -0.105142 -0.42222714 0
-0.048826218 -0.16197217 -0.41039354 0
0.02799511 -0.20104539 -0.39611959 0
0.13209105 -0.21381617 -0.39004588 0
0.24422121 -0.24301243 -0.37183934 0
0.31721926 -0.31826317 -0.35988981 0
0.43048859 -0.33773863 -0.33846784 0
0.52396536 -0.37741411 -0.32366371 0
0.59964943 -0.41944611 -0.30413103 0
0.70293093 -0.46428013 -0.29100043 0
-0.21481371 0.085209846 -0.42891335 0
-0.18134403 0.022942662 -0.43104056 0
-0.091867447 -0.024404407 -0.41782099 0
-0.0035018921 -0.059426069 -0.40135473 0
0.089707851 -0.10726464 -0.39096618 0
0.17489243 -0.16571379 -0.37844324 0
0.27883291 -0.16323149 -0.3611241 0
0.35175705 -0.2195816 -0.35064662 0
0.44117594 -0.25496316 -0.33579546 0
0.54909515 -0.28733349 -0.32293004 0
0.64123964 -0.33342743 -0.30665588 0
0.72614288 -0.37196207 -0.28907633 0
0.85984421 -0.43916285 -0.27300882 0
-0.35829592 0.21418798 -0.40317827 0
-0.18135214 0.17518878 -0.43414554 0
-0.13830566 0.11852026 -0.42658335 0
-0.058554173 0.084073544 -0.41030097 0
0.038385868 0.030945897 -0.39952445 0
0.13619757 -0.020154119 -0.38437253 0
0.21822643 -0.059610605 -0.37416601 0
0.29869699 -0.068057537 -0.36172867 0
0.39612103 -0.1164031 -0.34396255 0
0.47390509 -0.15884209 -0.33756578 0
0.55495119 -0.20547926 -0.31976539 0
0.65619087 -0.26272976 -0.30545288 0
0.75678158 -0.26514816 -0.28870624 0
0.88427925 -0.30707264 -0.27067167 0
-0.19279242 0.20071876 -0.4326548 0
-0.092924118 0.17436302 -0.4194448 0
0.015232086 0.16790926 -0.40705484 0
0.078924656 0.12648916 -0.39732605 0
0.18629456 0.099142909 -0.378914 0
0.26298857 0.050754309 -0.37100506 0
0.34923601 -0.00069665909 -0.35644937 0
0.38764 -0.057018518 -0.35154265 0
0.54982233 -0.047712326 -0.32535517 0
0.64262772 -0.10439014 -0.31437981 0
0.68199205 -0.1639924 -0.30568302 0
0.78324699 -0.16305614 -0.28903466 0
0.88704586 -0.26959062 -0.26908648 0
-0.052860737 0.24252331 -0.41669393 0
0.025381565 0.24145293 -0.40282661 0
0.12149239 0.213328 -0.39260447 0
0.20484638 0.17919314 -0.37781763 0
0.28441286 0.13452363 -0.35724485 0
0.38299084 0.10525465 -0.34867865 0
0.46566963 0.046735287 -0.33176053 0
0.5467515 0.0063948631 -0.31310564 0
0.68817091 -0.020015478 -0.30322933 0
0.77697659 -0.052265167 -0.28524762 0
0.91981792 -0.12340522 -0.2692368 0
0.067771912 0.30564511 -0.39739519 0
0.16577721 0.30169201 -0.38879621 0
0.25201178 0.29714203 -0.37195349 0
0.35485411 0.2184298 -0.35633308 0
0.49040651 0.1756568 -0.33515906 0
0.57750368 0.12120223 -0.31722766 0
0.69154549 0.074421883 -0.30264246 0
0.78961229 0.055245876 -0.28579104 0
0.91327047 -0.063613176 -0.26506042 0
0.96515751 -0.0060687065 -0.26902854 0
0.14070177 0.44900048 -0.38909066 0
0.18832207 0.40222871 -0.38047552 0
0.31666613 0.36271131 -0.36414349 0
0.3824563 0.29426122 -0.3492558 0
0.47456264 0.27165484 -0.33308488 0
0.59323645 0.24304271 -0.31967139 0
0.68447065 0.20104122 -0.3000955 0
0.69058895 0.1469233 -0.30216527 0
0.83495522 0.12964678 -0.2885198 0
0.34120178 0.46778417 -0.36249399 0
0.4032402 0.4126699 -0.35432857 0
0.49584436 0.39338851 -0.33764899 0
0.60775089 0.33280611 -0.32140094 0
0.72927189 0.32018471 -0.30426055 0
0.75063372 0.30192089 -0.30844164 0
0.87980366 0.20978045 -0.29236513 0
0.51502848 0.48586512 -0.3414067 0
0.63736057 0.42910647 -0.32546407 0
0.77297831 0.3919754 -0.31024027 0
0.89853144 0.31067252 -0.29359305 0
0.79033804 0.46784592 -0.31222266 0
0.92523336 0.41812301 -0.29649788 0
-0.50884676 -0.48392737 -0.3957302 0
-0.48012686 -0.42108274 -0.38936442 0
0.85046577 -0.37243676 -0.26756585 0
0.95027781 -0.44056356 -0.17894042 0
0.97325516 -0.43308151 -0.22236723 0
-0.38538122 0.24410033 -0.38577113 0
-0.33241415 0.23068166 -0.38881564 0
-0.37725353 0.32146609 -0.38000107 0
-0.33067417 0.29656124 -0.35143048 0
0.87018108 -0.2266326 -0.26371229 0
0.99787283 -0.25511503 -0.23494262 0
-0.41420031 0.46687722 -0.39731538 0
-0.35016346 0.40866351 -0.37077066 0
-0.28597736 0.38822401 -0.34996277 0
-0.24109411 0.47994351 -0.34125477 0
0.93605471 -0.4517554 -0.12023544 0
0.98070765 -0.40406775 -0.096650243 0
0.78930807 -0.41344607 0.023231864 0
0.93790722 -0.43514287 -0.04007417 0
0.95332241 -0.46618545 0.014706135 0
0.87129879 -0.34597325 0.020586669 0
0.93183661 -0.371768 0.0062884688 0
0.97394276 -0.39695752 -0.03621763 0
0.94764376 -0.26645494 0.0027065873 0
0.94764566 -0.43660378 0.13923773 0
0.94564724 -0.37828135 0.083631575 0
0.98484278 -0.41837621 0.066004097 0
0.92209578 -0.45192182 0.1714564 0
0.92140818 -0.3838799 0.18174201 0
0.88230658 -0.39717865 0.29322061 0
0.87931871 -0.38142872 0.38324127 0
0.72300529 0.26401615 0.40067127 0
0.67329502 0.33725142 0.3822673 0
0.72408152 0.33076692 0.38121301 0
0.85094881 -0.37964082 0.47576165 0
0.76231146 0.14428878 0.49777669 0
0.80404282 0.089566708 0.51744366 0
0.72263575 0.25666738 0.47221836 0
0.76300526 0.21152973 0.47702503 0
0.70663166 0.31202269 0.44012767 0
0.82192898 -0.37305593 0.58144981 0
0.85502386 -0.10293722 0.62251157 0
0.80741405 0.020502806 0.58508384 0
0.83885431 -0.049804449 0.60399127 0
0.6883564 0.19605327 0.58599818 0
0.7406044 0.12996006 0.58663869 0
0.79873419 0.085733414 0.56529236 0
0.70136023 0.20550132 0.56865531 0
0.81019783 -0.37087083 0.68669558 0
0.79739523 -0.073771 0.70448363 0
0.84536123 -0.14168191 0.69034898 0
0.86375046 -0.20587492 0.71057481 0
0.7380209 0.051697969 0.70599896 0
0.79706478 0.013821363 0.67495269 0
0.84124184 -0.044406891 0.6803602 0
0.68023157 0.15672684 0.66058391 0
0.72881603 0.1193738 0.6589883 0
0.78849554 0.062207937 0.65704352 0
0.74844408 -0.43839431 0.81362516 0
0.8096652 -0.35541701 0.78092474 0
0.5159173 -0.10075521 0.76848376 0
0.54789639 -0.17747712 0.7788251 0
0.83774328 -0.21634769 0.78024346 0
0.84839535 -0.25356579 0.80319661 0
0.47337389 0.00012207031 0.71286386 0
0.56613016 -0.020526171 0.77676839 0
0.62405729 -0.0049378872 0.81059057 0
0.8431282 -0.1241045 0.78147364 0
0.87470722 -0.19639349 0.77484912 0
0.61293507 0.056208849 0.77732193 0
0.69235468 0.060725212 0.74455988 0
0.78037262 -0.015688181 0.76741397 0
0.81499147 -0.058948755 0.75511664 0
0.66785479 0.10213685 0.74007303 0
0.79615879 0.24916577 0.8180669 0
0.88482952 0.30353808 0.8259114 0
0.75333929 -0.37115157 0.89750171 0
0.78663397 -0.34739256 0.86780065 0
0.58681059 -0.15788269 0.82624102 0
0.80153418 -0.2380867 0.8857525 0
0.84375286 -0.25735021 0.89272779 0
0.61019278 -0.07671833 0.84539062 0
0.73386955 -0.062996149 0.90646338 0
0.78461552 -0.14579558 0.89304954 0
0.66578627 0.022750616 0.86156166 0
0.72013855 -0.037841558 0.88828826 0
