# .PCD v0.7 - Point Cloud Data file format
VERSION 0.7
FIELDS x y z intensity
SIZE 4 4 4 4
TYPE F F F F
COUNT 1 1 1 1
WIDTH 1309
HEIGHT 1
VIEWPOINT 0 0 0 1 0 0 0
POINTS 1309
DATA ascii
0.28234196 0.12714005 -0.36094314 0
0.4104991 0.11741853 -0.36237487 0
0.51739001 0.082558155 -0.36331236 0
0.62570333 0.063011408 -0.35572794 0
0.6945765 0.026558876 -0.35986459 0
0.81045961 -0.014709234 -0.3660233 0
0.85364103 0.026501417 -0.37478328 0
0.96248102 -0.04566288 -0.37955844 0
0.27080441 0.22478819 -0.36426538 0
0.32661819 0.24579787 -0.36704007 0
0.41887999 0.20794034 -0.36333933 0
0.51201773 0.20078111 -0.36497629 0
0.61596274 0.14098644 -0.36178488 0
0.76214027 0.13684511 -0.36513501 0
0.81820726 0.087342024 -0.36824006 0
0.87057567 0.13820815 -0.37155324 0
0.27710509 0.34132147 -0.36157784 0
0.34013557 0.34437823 -0.36554497 0
0.43506694 0.31263351 -0.36462009 0
0.53561783 0.29457808 -0.36280477 0
0.62887478 0.25482178 -0.36861664 0
0.70887351 0.22263241 -0.36977822 0
0.78998423 0.20097446 -0.36906964 0
0.89945602 0.19459605 -0.37612903 0
0.30606151 0.45881391 -0.36664453 0
0.36715698 0.43926001 -0.36624825 0
0.46536875 0.4007144 -0.36553848 0
0.56615138 0.38815522 -0.36828202 0
0.65261507 0.35861421 -0.37130916 0
0.74567842 0.31541252 -0.37586808 0
0.84394312 0.29900098 -0.37933549 0
0.94235182 0.29748797 -0.3827326 0
0.47928333 0.4992125 -0.36486301 0
0.60365415 0.47626424 -0.36959571 0
0.68981886 0.45373869 -0.37165615 0
0.77713847 0.4182632 -0.37338901 0
0.86095572 0.39812255 -0.38067284 0
0.9787302 0.40866518 -0.37970579 0
0.97695494 0.48986483 -0.38767284 0
0.5737257 -0.4933176 -0.34741777 0
0.90397382 -0.41660309 -0.33230513 0
0.98933029 -0.42884302 -0.28894678 0
0.93660498 -0.36486959 -0.33316299 0
0.99216461 -0.35023761 -0.29330015 0
0.7483387 -0.49711132 -0.068739057 0
0.80029058 -0.4452374 -0.07159999 0
0.88487315 0.12664509 0.31005913 0
0.90973282 0.096086025 0.33543146 0
0.87786365 0.17566609 0.30382502 0
0.91021681 -0.10429001 0.43492079 0
0.85649967 0.032495975 0.4452861 0
0.89782715 -0.014421225 0.41180015 0
0.85389638 0.087478876 0.39390349 0
0.89168906 0.07744503 0.3854872 0
0.92384434 -0.33078599 0.543235 0
0.89049172 -0.19613481 0.47489211 0
0.92588663 -0.25187182 0.52626407 0
0.89975309 -0.14339066 0.5045836 0
0.94062924 -0.12770772 0.49370599 0
0.83573246 0.013761044 0.52236283 0
0.89493251 -0.030693293 0.49978346 0
0.85235882 0.075326681 0.4775992 0
0.88756514 0.050674677 0.45525533 0
0.935287 -0.41165185 0.62460649 0
0.93216419 -0.35370898 0.60402733 0
0.89308167 -0.19986939 0.59250486 0
0.92468977 -0.25819921 0.59915352 0
0.84151745 -0.090405226 0.62131584 0
0.88317823 -0.12966633 0.60447741 0
0.92586541 -0.18460417 0.55861789 0
0.8420887 -0.029289722 0.59554625 0
0.62681818 -0.36346531 0.74092686 0
0.9152422 -0.43848872 0.70127612 0
0.65036726 -0.27470493 0.73018789 0
0.94150138 -0.35542822 0.69684637 0
0.6034565 -0.16316152 0.69584095 0
0.66256762 -0.17249441 0.71663761 0
0.73271894 -0.15545273 0.74102092 0
0.8681941 -0.23037291 0.70272994 0
0.92483354 -0.26550913 0.69218171 0
0.82056689 -0.094489574 0.70382726 0
0.86574078 -0.14417481 0.68572026 0
0.8163271 -0.03832674 0.65633214 0
0.88744664 -0.43318748 0.79027647 0
0.67423534 -0.25365877 0.75461686 0
0.74677849 -0.27855897 0.78073686 0
0.87875247 -0.32127213 0.83510834 0
0.8980093 -0.35112524 0.75970888 0
0.76384521 -0.1872561 0.78225726 0
0.85369492 -0.21287847 0.81432855 0
0.82248449 -0.15359306 0.80128264 0
0.88135982 -0.14918423 0.80321634 0
0.93234921 -0.078838825 0.75364935 0
0.83324099 -0.42188263 0.86118221 0
0.86765671 -0.4473896 0.87710232 0
0.85043764 -0.32873392 0.86193681 0
0.86725187 -0.24858618 0.85028839 0
-0.12438631 -0.48032665 -0.37407625 0
-0.026174545 -0.48571253 -0.37381914 0
-0.080360413 -0.37109852 -0.37225854 0
-0.020913124 -0.41445851 -0.37029642 0
0.071898937 -0.40337181 -0.36719531 0
0.18445492 -0.45767188 -0.36675873 0
0.30104065 -0.47582221 -0.36586246 0
0.38932323 -0.49282098 -0.36124831 0
-0.05825901 -0.2685411 -0.36248797 0
0.0035281181 -0.30416775 -0.37441546 0
0.096953392 -0.32386994 -0.36707336 0
0.20878267 -0.3618176 -0.36596951 0
0.31146955 -0.39236283 -0.36306301 0
0.41590691 -0.40532613 -0.36316156 0
0.51489544 -0.41493154 -0.36892575 0
0.58500576 -0.44632316 -0.36171502 0
0.6819663 -0.48373938 -0.36238274 0
0.022576332 -0.21006393 -0.36879522 0
0.14018774 -0.22714376 -0.36504614 0
0.22514725 -0.25593519 -0.36819154 0
0.31868076 -0.29759765 -0.36530328 0
0.43848467 -0.30879784 -0.3637917 0
0.53013229 -0.33385777 -0.36246723 0
0.63184118 -0.35031295 -0.36314982 0
0.70889139 -0.38911247 -0.35763055 0
0.0083818436 -0.11073756 -0.36231756 0
0.062008381 -0.1262548 -0.36512792 0
0.17273664 -0.12830901 -0.36525851 0
0.27906561 -0.1567843 -0.36753809 0
0.35307598 -0.18822861 -0.36252791 0
0.45395517 -0.22028327 -0.36197361 0
0.56726694 -0.23836565 -0.36246949 0
0.66031408 -0.2715528 -0.36253592 0
0.73973322 -0.31186032 -0.35780793 0
0.85502481 -0.33844709 -0.36134019 0
0.97616911 -0.34528518 -0.36291009 0
0.09306097 -0.011283636 -0.36731386 0
0.1778841 -0.034692287 -0.37028372 0
0.27608156 -0.05583787 -0.36844027 0
0.35935116 -0.1018219 -0.36165881 0
0.45550394 -0.10455775 -0.35976115 0
0.57534146 -0.14412975 -0.36360878 0
0.68518162 -0.16842604 -0.35963792 0
0.77782202 -0.22102237 -0.35993877 0
0.88596392 -0.23598909 -0.35926402 0
0.068045616 0.096972227 -0.36028144 0
0.11503601 0.065383673 -0.36697739 0
0.21488523 0.070255995 -0.36227393 0
0.30232453 0.031880617 -0.36324501 0
0.42710853 0.0060734749 -0.36257622 0
0.50132036 -0.021726131 -0.35972148 0
0.60272098 -0.056580544 -0.36190432 0
0.70594621 -0.066728592 -0.35687792 0
0.81203389 -0.11566925 -0.35986006 0
0.98566318 -0.15042186 -0.37633008 0
0.14172029 0.16816187 -0.3659023 0
0.24825382 0.15751338 -0.36575967 0
0.32897949 0.14308643 -0.36290088 0
0.42108679 0.1017344 -0.36311117 0
0.54816699 0.070952415 -0.36025417 0
0.65367317 0.066429377 -0.36150643 0
0.71735978 0.023935318 -0.36302841 0
0.89212894 -0.014624596 -0.37175372 0
0.089368343 0.24507022 -0.35711035 0
0.1605196 0.27847099 -0.36646533 0
0.27251339 0.24928832 -0.36095303 0
0.36153507 0.21958447 -0.36616361 0
0.43492889 0.20896721 -0.36055541 0
0.54979348 0.16507316 -0.36312461 0
0.669806 0.13994431 -0.3611075 0
0.78637743 0.099679232 -0.36661613 0
0.92620802 0.065068722 -0.37465888 0
0.12281442 0.38162136 -0.3607955 0
0.21171665 0.38102078 -0.36768746 0
0.2624445 0.332443 -0.36566564 0
0.37784576 0.3394146 -0.3680948 0
0.48846579 0.29354239 -0.36395288 0
0.5895474 0.27845049 -0.36592492 0
0.68074298 0.24548721 -0.36932993 0
0.74415541 0.23497748 -0.37606794 0
0.84834814 0.2045517 -0.37651163 0
0.97394538 0.15770507 -0.38174266 0
0.21816039 0.46404052 -0.36419308 0
0.31874132 0.42313528 -0.36616302 0
0.37939167 0.42001796 -0.36775127 0
0.48617554 0.39822483 -0.36699662 0
0.5930016 0.36073399 -0.36739147 0
0.68938828 0.38580823 -0.37700394 0
0.7786231 0.33137107 -0.38045734 0
0.89080667 0.3067379 -0.38216677 0
0.61912727 0.46883273 -0.37148389 0
0.72821617 0.45700574 -0.37806028 0
0.78158712 0.40712714 -0.37841243 0
0.90548062 0.40137529 -0.38305759 0
0.97106743 0.49349356 -0.36910868 0
0.76668119 -0.47975183 -0.35187009 0
0.79741621 -0.4148128 -0.35271704 0
0.90751982 -0.45208907 -0.34664315 0
0.97741079 -0.4077816 -0.28720492 0
0.83900166 -0.28663063 -0.35106111 0
0.96136284 -0.37287378 -0.32122561 0
-0.15615916 0.48425674 -0.2644242 0
0.95810103 -0.38983917 -0.19673005 0
0.88529253 0.08218646 0.3344228 0
0.87952876 0.16504884 0.30327988 0
0.89927721 -0.094384193 0.42747444 0
0.87044621 0.01115346 0.40952295 0
0.9152267 -0.026910067 0.4094117 0
0.88179874 0.079684734 0.39009565 0
0.92899704 0.016240835 0.38049662 0
0.86251283 0.15058136 0.36171547 0
0.91173625 -0.20561171 0.52087569 0
0.93894482 -0.26010633 0.52337372 0
0.90792322 -0.12224793 0.50410628 0
0.86363721 -0.0089533329 0.51604939 0
0.91700101 -0.034693956 0.46077031 0
0.8430028 0.056284189 0.48045689 0
0.91081762 -0.3538847 0.58679497 0
0.94823909 -0.35731816 0.60016525 0
0.91743708 -0.2356298 0.59926927 0
0.95275116 -0.28634548 0.62343687 0
0.84208059 -0.089678764 0.61632133 0
0.90252709 -0.13597488 0.58328474 0
0.85592604 -0.038385153 0.59381026 0
0.91001654 -0.075766563 0.54727775 0
0.6052227 -0.3427093 0.74269688 0
0.92636895 -0.44298005 0.69429779 0
0.61277294 -0.24272323 0.70841861 0
0.63506031 -0.30451131 0.74191535 0
0.91797018 -0.29666424 0.69232523 0
0.94297838 -0.36780477 0.68553931 0
0.63428473 -0.15975475 0.69379437 0
0.68868732 -0.1922071 0.72487301 0
0.76146674 -0.18491888 0.74770284 0
0.90874577 -0.26110053 0.69451362 0
0.74271369 -0.13642097 0.71671742 0
0.83063745 -0.1139822 0.69658792 0
0.89833879 -0.16008854 0.66973388 0
0.86450648 -0.067989111 0.65868461 0
0.88535476 -0.47807884 0.78377366 0
0.91380405 -0.44582534 0.78275871 0
0.62360644 -0.2799077 0.75326997 0
0.70837688 -0.3046782 0.77975988 0
0.88226438 -0.34721184 0.79634243 0
0.94475698 -0.37385511 0.73969162 0
0.80762768 -0.22060394 0.80994153 0
0.86348867 -0.2572844 0.82382119 0
0.81871867 -0.14897418 0.77985752 0
0.95812178 -0.10324168 0.78977245 0
0.85355639 -0.43939948 0.87787056 0
0.81090784 -0.31886101 0.89441061 0
0.85525799 -0.3520174 0.8772431 0
0.82765007 -0.23381376 0.87394243 0
0.87044096 -0.24194336 0.86276048 0
-0.2557888 -0.39318824 -0.37122083 0
-0.19404078 -0.46054935 -0.372105 0
-0.24365664 -0.34508967 -0.36616153 0
-0.15871859 -0.34478307 -0.37014946 0
-0.10153532 -0.40913177 -0.3683843 0
0.026570797 -0.38748622 -0.37253922 0
0.093282223 -0.41800261 -0.36539385 0
0.20964336 -0.466084 -0.36783659 0
0.30474234 -0.48261118 -0.35820019 0
-0.2149334 -0.28992772 -0.36590478 0
-0.13911343 -0.24398303 -0.36933389 0
-0.057743073 -0.28877234 -0.36480469 0
0.03226614 -0.32034278 -0.36947709 0
0.1405344 -0.32859564 -0.36669797 0
0.20813179 -0.34836769 -0.36372775 0
0.31636906 -0.38863921 -0.36153516 0
0.44992256 -0.41783905 -0.36001939 0
0.52723408 -0.45107794 -0.35308966 0
0.63665104 -0.48607588 -0.35544619 0
-0.20704985 -0.12284803 -0.34447137 0
-0.10248661 -0.1539073 -0.37039343 0
-0.036204815 -0.18179083 -0.3658179 0
0.065211296 -0.2323575 -0.36528519 0
0.17538977 -0.24414015 -0.36604506 0
0.24736643 -0.25780368 -0.36360854 0
0.36177588 -0.29633784 -0.36313456 0
0.49850082 -0.32170558 -0.36192787 0
0.59463167 -0.34205699 -0.35924751 0
0.65617275 -0.35660911 -0.36217928 0
0.69833851 -0.37768412 -0.35976577 0
0.82515812 -0.39289546 -0.36526597 0
0.9310298 -0.49030328 -0.36548668 0
-0.099772453 -0.074283838 -0.36118633 0
-0.0040102005 -0.11106372 -0.36354244 0
0.091192245 -0.11239719 -0.36451223 0
0.20106554 -0.15598512 -0.36347121 0
0.26551151 -0.18859959 -0.36092854 0
0.37290287 -0.21141815 -0.36047673 0
0.47830105 -0.20773435 -0.35875741 0
0.57203102 -0.27767181 -0.35606641 0
0.74396753 -0.26266623 -0.36043525 0
0.82656431 -0.31356692 -0.35642725 0
-0.072860241 0.013272285 -0.36205566 0
0.014778137 -0.017786741 -0.36330497 0
0.1283555 -0.017824173 -0.36036116 0
0.2292676 -0.05276823 -0.36739087 0
0.32065868 -0.085171461 -0.36665604 0
0.40177488 -0.11124611 -0.3609553 0
0.50312304 -0.1257863 -0.35806027 0
0.63804388 -0.17439222 -0.3541995 0
0.66086721 -0.16631985 -0.36036426 0
0.7692337 -0.17468691 -0.35935912 0
0.8627758 -0.21710944 -0.35738233 0
-0.053882599 0.11036491 -0.36198965 0
0.027386189 0.082058191 -0.36380309 0
0.13836861 0.072626352 -0.35948974 0
0.25815487 0.044069052 -0.361213 0
0.34195042 0.0087697506 -0.36446714 0
0.43587542 0.00086092949 -0.35898066 0
0.53419733 -0.024186134 -0.35827214 0
0.58621836 -0.070686579 -0.36209339 0
0.68962955 -0.056095362 -0.3590332 0
0.79223919 -0.1047039 -0.35992855 0
0.93391418 -0.15572262 -0.36836791 0
-0.013689995 0.21398759 -0.36335409 0
0.071193695 0.18556333 -0.36566162 0
0.15726471 0.16362953 -0.35959595 0
0.25541759 0.14186502 -0.36486262 0
0.35569119 0.11674118 -0.36018676 0
0.44701672 0.094681025 -0.3571783 0
0.55049181 0.062196493 -0.35640925 0
0.59783506 0.029468536 -0.35742277 0
0.72023606 0.034035444 -0.36095011 0
0.85642242 -0.01920104 -0.36853844 0
-0.0015099049 0.29391408 -0.36338937 0
0.07559824 0.28612423 -0.36098921 0
0.20787072 0.26373887 -0.36491573 0
0.30994487 0.21692967 -0.36421758 0
0.37751245 0.20423365 -0.3604582 0
0.49854445 0.19963861 -0.35522592 0
0.56378269 0.12063289 -0.35611057 0
0.65436697 0.16538668 -0.36420456 0
0.76818156 0.13587618 -0.36570805 0
0.89973187 0.081541061 -0.37101212 0
0.13125825 0.34483504 -0.36768728 0
0.21555257 0.36570024 -0.36241433 0
0.32417679 0.32086468 -0.3628605 0
0.41148329 0.31442165 -0.36461282 0
0.50352526 0.28508902 -0.35983342 0
0.57880569 0.27002621 -0.36628383 0
0.66489983 0.22175145 -0.36313856 0
0.79652786 0.21537662 -0.36708981 0
0.96984863 0.18457389 -0.38303334 0
0.18237782 0.45054364 -0.35957873 0
0.25187731 0.4791081 -0.3595809 0
0.339957 0.43562365 -0.36297753 0
0.42031622 0.40927243 -0.36325511 0
0.50649405 0.38300395 -0.3641389 0
0.58599019 0.35892248 -0.36371082 0
0.72667122 0.33054566 -0.37365586 0
0.84144545 0.30392504 -0.37363231 0
0.88037515 0.28287864 -0.38642514 0
0.56838679 0.48602247 -0.36626881 0
0.64900494 0.4556179 -0.37736291 0
0.75689912 0.44307852 -0.37755832 0
0.85899878 0.37670398 -0.37542596 0
0.85372066 0.47915864 -0.37230599 0
0.98341584 0.47002053 -0.37510431 0
-0.55472779 -0.26564145 -0.26331651 0
0.6342268 -0.4352529 -0.34737372 0
0.74882984 -0.45807743 -0.35004824 0
0.88737512 -0.407727 -0.34396017 0
0.91840219 -0.43073654 -0.32515407 0
0.97678471 -0.36168146 -0.31319839 0
-0.25618005 0.40492558 -0.26939562 0
-0.23411369 0.37607551 -0.28776711 0
-0.23616409 0.49281096 -0.27441573 0
-0.19150329 0.4736433 -0.27032942 0
0.98937225 -0.37760878 -0.22368288 0
0.78452492 -0.45705295 -0.072195202 0
0.82478476 -0.41660762 -0.076738492 0
0.89706779 0.092930317 0.33158308 0
0.85129547 0.16090441 0.29160523 0
0.88494563 0.17063379 0.31759059 0
0.90545368 -0.13388538 0.43812573 0
0.88360023 -0.01078701 0.41298947 0
0.9274497 -0.054546595 0.44146347 0
0.84225821 0.10750079 0.36592728 0
0.87442493 0.070222616 0.41063696 0
0.88395333 0.12745953 0.37612391 0
0.91854692 -0.23266125 0.52553821 0
0.95645022 -0.29888272 0.53775823 0
0.88302898 -0.094632387 0.5034169 0
0.92799783 -0.15847802 0.49550939 0
0.82264066 0.0093953609 0.53689468 0
0.8779664 -0.014949322 0.49701324 0
0.91448975 -0.08138752 0.48439753 0
0.84617019 0.073619604 0.47826242 0
0.92101812 -0.35646152 0.588144 0
0.95193601 -0.38419652 0.61266565 0
0.9275341 -0.25036216 0.59993106 0
0.97694182 -0.23616982 0.60859036 0
0.86243868 -0.12157464 0.61466211 0
0.93267465 -0.15078259 0.58190978 0
0.81397891 -0.027068138 0.60831916 0
0.85319901 -0.05152297 0.59348029 0
0.90529013 -0.43951154 0.69597441 0
0.63497853 -0.29630709 0.73031491 0
0.6616931 -0.25585103 0.73152447 0
0.91179729 -0.34727597 0.68355781 0
0.96359468 -0.35876513 0.6919896 0
0.63230705 -0.17090011 0.69372082 0
0.71336913 -0.19781423 0.73501253 0
0.86676598 -0.24688148 0.72590452 0
0.90834141 -0.26398134 0.69243121 0
0.74628472 -0.12161756 0.71460497 0
0.855268 -0.14566851 0.68169713 0
0.83491445 -0.066377401 0.6645788 0
0.96979213 -0.047985077 0.74665284 0
0.65255594 -0.3637414 0.76482391 0
0.88297296 -0.46514511 0.78792727 0
0.70825362 -0.30252194 0.7827239 0
0.84125638 -0.28723693 0.82999301 0
0.89947557 -0.36832666 0.79332167 0
0.74192071 -0.23481631 0.76755565 0
0.8367691 -0.21453071 0.81050003 0
0.78046942 -0.15756154 0.75772256 0
0.83190608 -0.15203524 0.79720956 0
0.94339895 -0.1463573 0.80482286 0
0.86233807 -0.43842006 0.88834852 0
0.83647776 -0.3219676 0.90605712 0
0.86550379 -0.36344385 0.89445293 0
0.83190084 -0.2434442 0.8781507 0
0.88551807 -0.33280182 0.96482784 0
0.88961482 -0.28639555 0.96418071 0
-0.46083641 -0.46190929 -0.37108803 0
-0.38947058 -0.31328845 -0.36122724 0
-0.28433275 -0.39045072 -0.36141738 0
-0.25215721 -0.48525238 -0.36608702 0
-0.32155275 -0.25625777 -0.36663166 0
-0.25724125 -0.3126421 -0.36789536 0
-0.18805981 -0.3960104 -0.36264098 0
-0.088850021 -0.43877029 -0.36700988 0
-0.34807205 -0.094050884 -0.33181587 0
-0.27387953 -0.1924386 -0.36503625 0
-0.14777184 -0.2320118 -0.36949226 0
-0.13552427 -0.30109 -0.36904553 0
-0.029637814 -0.34102464 -0.37159732 0
0.04322052 -0.44813728 -0.36442494 0
0.13313961 -0.49468756 -0.36281955 0
-0.27283096 -0.06832552 -0.34225672 0
-0.19233227 -0.071593523 -0.36170626 0
-0.12136889 -0.16882706 -0.36433786 0
-0.039317131 -0.24203682 -0.36670965 0
0.019507408 -0.28253722 -0.36382678 0
0.087444782 -0.31953096 -0.36291409 0
0.17243195 -0.42142606 -0.36275551 0
0.28619051 -0.47968769 -0.35886827 0
-0.21875143 0.01983285 -0.36332372 0
-0.15139246 -0.014683962 -0.36177438 0
-0.087979317 -0.089548111 -0.36165857 0
-0.022019863 -0.14675355 -0.35869107 0
0.075499535 -0.18479872 -0.36754757 0
0.17830992 -0.24122024 -0.3656404 0
0.23132896 -0.33244681 -0.36466083 0
0.33807659 -0.37986135 -0.35967079 0
0.41993618 -0.44174004 -0.35854831 0
-0.18852448 0.19123316 -0.35483789 0
-0.17212415 0.12282014 -0.36209434 0
-0.096217632 0.054551601 -0.36202085 0
-0.017882347 -0.0016388893 -0.35849756 0
0.061099052 -0.071178436 -0.36175966 0
0.13004541 -0.14912653 -0.36183676 0
0.23272371 -0.17281985 -0.35944307 0
0.29015017 -0.24565601 -0.35978973 0
0.36918688 -0.30238485 -0.35801691 0
0.46644592 -0.36063313 -0.36081854 0
0.54563713 -0.4284656 -0.35809255 0
0.61993361 -0.48725963 -0.35299778 0
-0.29072475 0.35017061 -0.30816159 0
-0.13485956 0.27045274 -0.36419779 0
-0.10656905 0.20472574 -0.36318791 0
-0.03637886 0.15120363 -0.35861927 0
0.044923782 0.075612545 -0.36206108 0
0.12816048 0.0015921593 -0.36128294 0
0.19846678 -0.057088375 -0.36308366 0
0.27525997 -0.085437298 -0.36225748 0
0.35916281 -0.15680218 -0.35881913 0
0.42414093 -0.21717858 -0.36380693 0
0.49276018 -0.28288984 -0.35799718 0
0.57764864 -0.36367154 -0.35857591 0
0.6758213 -0.39127135 -0.35630408 0
0.79019833 -0.46377063 -0.35683119 0
-0.13930964 0.29791975 -0.36093473 0
-0.048238277 0.24745059 -0.36221325 0
0.055600166 0.21427369 -0.36535424 0
0.10776615 0.15818787 -0.36503583 0
0.20649648 0.10471272 -0.36223716 0
0.26916122 0.038775921 -0.36561111 0
0.34113598 -0.032735348 -0.36378238 0
0.36469889 -0.096883774 -0.36473951 0
0.52614164 -0.12855554 -0.3617976 0
0.6026268 -0.20658445 -0.36447781 0
0.62681389 -0.27430201 -0.36184043 0
0.72644114 -0.29880977 -0.35973912 0
0.80234814 -0.42819715 -0.35541645 0
0.0074439049 0.30359006 -0.36474785 0
0.08412075 0.28287244 -0.36214286 0
0.17074251 0.23173094 -0.36585641 0
0.24426222 0.17769337 -0.36327785 0
0.31232595 0.11413479 -0.35450113 0
0.4008069 0.061350346 -0.36021161 0
0.46793103 -0.016235352 -0.35558265 0
0.53825951 -0.075889826 -0.348892 0
0.66872239 -0.13642097 -0.35937318 0
0.74837232 -0.19009566 -0.35439473 0
0.86995912 -0.29456377 -0.35929045 0
0.14141631 0.33448839 -0.36237979 0
0.23562002 0.30636954 -0.36781538 0
0.31950712 0.28020668 -0.36342272 0
0.40079618 0.17818689 -0.36307114 0
0.52311707 0.1027689 -0.36164019 0
0.59562397 0.028000355 -0.35661006 0
0.69542146 -0.045774698 -0.35867083 0
0.78703856 -0.088997841 -0.35604346 0
0.87905097 -0.23520803 -0.35384589 0
0.94253206 -0.19196415 -0.36477822 0
0.24799991 0.45522404 -0.36360747 0
0.28327131 0.39792466 -0.36214209 0
0.39882421 0.32762122 -0.3644591 0
0.44701266 0.24462271 -0.35950428 0
0.53196955 0.19955945 -0.35672545 0
0.64054966 0.14230394 -0.36048836 0
0.72033167 0.078522444 -0.35433885 0
0.71251988 0.024681807 -0.35760114 0
0.84858418 -0.027875662 -0.36471212 0
0.35452127 0.48739052 -0.36081088 0
0.44860029 0.42336035 -0.36564332 0
0.49557734 0.3544755 -0.36672443 0
0.5819037 0.31249142 -0.36349165 0
0.67646289 0.22579694 -0.36369109 0
0.79224014 0.18318462 -0.36406776 0
0.80764079 0.16044569 -0.37135708 0
0.91092253 0.038967371 -0.37437928 0
0.48720264 0.4862535 -0.35807455 0
0.62269211 0.39755678 -0.3693479 0
0.72815633 0.31203389 -0.37130633 0
0.85112715 0.24231172 -0.37573844 0
0.95370078 0.13219309 -0.37761307 0
0.7610693 0.44230127 -0.37301418 0
0.7694068 0.39800882 -0.37662357 0
0.88629484 0.31166077 -0.37968376 0
0.88874912 0.4871645 -0.37391841 0
0.90112591 0.40175295 -0.37910074 0
-0.60697842 -0.2897346 -0.28384531 0
-0.56300163 -0.23612475 -0.28122407 0
-0.30693245 0.3850472 -0.28689331 0
-0.25986004 0.35923696 -0.29751647 0
-0.27919483 0.45777941 -0.28184414 0
-0.23679161 0.42109585 -0.26033914 0
0.7975378 -0.38268089 -0.3474279 0
0.91689038 -0.44264722 -0.33727089 0
-0.17102122 0.49892664 -0.26465234 0
0.95957685 -0.36350203 -0.31326145 0
0.9869287 -0.39013076 -0.21150711 0
0.89823771 -0.45117664 -0.094973512 0
0.86824465 0.10119963 0.33423367 0
0.83618808 0.18505239 0.32354435 0
0.88315678 0.16641092 0.315245 0
0.88951945 -0.028404474 0.42400688 0
0.91867781 -0.09242487 0.4371976 0
0.87580681 0.091216803 0.40505952 0
0.90400982 0.037428856 0.40379548 0
0.86979342 0.15008044 0.37592059 0
0.93421578 -0.29571772 0.53273094 0
0.91401625 -0.16295195 0.50323218 0
0.9293406 -0.23952723 0.51703376 0
0.84339833 0.03616643 0.52216703 0
0.87724066 -0.040653706 0.51495826 0
0.91914725 -0.096817017 0.48528996 0
0.85585237 0.042859793 0.50321311 0
0.89731121 -0.25677013 0.62224197 0
0.9245851 -0.33369541 0.60100508 0
0.92908359 -0.40121436 0.61800468 0
0.87162685 -0.12077284 0.63297468 0
0.91466284 -0.17060733 0.59361541 0
0.94335938 -0.23803306 0.59232199 0
0.83601665 -0.003029108 0.59689862 0
0.87315655 -0.051017284 0.58818007 0
0.91598654 -0.1208961 0.57741344 0
0.62932825 -0.21681499 0.72540504 0
0.64241529 -0.29938293 0.73061037 0
0.91102362 -0.40788507 0.690593 0
0.91514921 -0.44749236 0.71156299 0
0.60592628 -0.10639501 0.67703569 0
0.69848728 -0.15169024 0.72698307 0
0.76251578 -0.15212989 0.75233209 0
0.93919516 -0.31988192 0.69163281 0
0.95068789 -0.39735723 0.68012959 0
0.76245952 -0.088799238 0.72137064 0
0.83530354 -0.10246634 0.6776883 0
0.90392637 -0.19893742 0.68732053 0
0.92475009 -0.24879694 0.66995519 0
0.82144475 -0.056176662 0.67699087 0
0.99153781 0.051718235 0.7369017 0
0.69104791 -0.29185963 0.77214122 0
0.88526344 -0.42445922 0.80003524 0
0.92194271 -0.45372081 0.80081969 0
0.73617935 -0.21972466 0.78829122 0
0.86652565 -0.2391541 0.83126187 0
0.89287853 -0.331213 0.81024885 0
0.81633568 -0.13759899 0.79703367 0
0.85710859 -0.21067977 0.815382 0
0.90488386 -0.084409475 0.77773285 0
0.85217524 -0.49271083 0.87144172 0
0.8224535 -0.33312631 0.88585478 0
0.85371637 -0.4102869 0.89799821 0
0.83500719 -0.2752192 0.89986789 0
0.8935132 -0.36507487 0.91158867 0
0.80804586 -0.18485403 0.88987285 0
0.82149744 -0.20705295 1.0189207 0
0.86905909 -0.28647804 0.98928696 0
0.8790431 -0.23166299 0.97156423 0
-0.70116258 -0.49912238 -0.36948493 0
-0.63696122 -0.42275214 -0.36979762 0
-0.56790447 -0.46472907 -0.36654758 0
-0.65993071 -0.25319219 -0.32140893 0
-0.63432646 -0.33092546 -0.34242877 0
-0.59293461 -0.21959877 -0.33185428 0
-0.5103817 -0.21172547 -0.35364178 0
-0.28746271 -0.38524151 -0.36984426 0
-0.2140975 -0.49888492 -0.37083381 0
-0.44983649 -0.15642905 -0.37259853 0
-0.38122606 -0.23222327 -0.37004471 0
-0.30360222 -0.29096198 -0.37161869 0
-0.21838665 -0.33119154 -0.37185538 0
-0.15283251 -0.40278363 -0.37130728 0
-0.076011658 -0.48369145 -0.37289017 0
0.013474941 -0.49904943 -0.36682975 0
-0.39569712 -0.080024242 -0.35952479 0
-0.35025549 -0.14631057 -0.35300118 0
-0.24997187 -0.21759772 -0.36743355 0
-0.18862867 -0.26453304 -0.36952651 0
-0.1031127 -0.33448076 -0.36994046 0
-0.0098786354 -0.39577603 -0.36993402 0
0.05163002 -0.4247334 -0.3655161 0
0.13143015 -0.48854256 -0.36588818 0
-0.35768437 0.0093991756 -0.36351848 0
-0.27926826 -0.058110237 -0.35020816 0
-0.18052006 -0.088917017 -0.36568058 0
-0.10977888 -0.18363547 -0.36992007 0
-0.031012058 -0.25965285 -0.37107939 0
0.052405357 -0.31536436 -0.36649454 0
0.12444925 -0.35958052 -0.36558387 0
0.21246386 -0.42160845 -0.36113811 0
0.25568056 -0.46085596 -0.36275476 0
-0.33419585 0.11894846 -0.36731684 0
-0.270643 0.078501701 -0.36196661 0
-0.20717645 0.01519537 -0.36563 0
-0.1398921 -0.046626568 -0.36879003 0
-0.050476074 -0.093190432 -0.36187166 0
0.010361195 -0.18333411 -0.36283728 0
0.11356354 -0.2368803 -0.36928511 0
0.21751261 -0.31688046 -0.36466467 0
0.29420185 -0.36466122 -0.35945398 0
0.37132502 -0.43115449 -0.35616153 0
0.48041248 -0.46547198 -0.35823971 0
-0.29728961 0.19816422 -0.36957693 0
-0.21987343 0.1731782 -0.36472988 0
-0.14873171 0.10935545 -0.3668192 0
-0.066387177 0.027163506 -0.36811537 0
0.017486095 -0.031003714 -0.36360979 0
0.11619282 -0.11066008 -0.36688286 0
0.18923521 -0.14513874 -0.36663359 0
0.27119923 -0.22613144 -0.36833379 0
0.34428167 -0.27698278 -0.36218283 0
0.43428898 -0.33983135 -0.36181611 0
0.5243063 -0.39411211 -0.36076608 0
0.62504387 -0.47267604 -0.35785109 0
-0.34206319 0.42589974 -0.33572143 0
-0.29294324 0.3674159 -0.33511806 0
-0.26120687 0.28746748 -0.35731515 0
-0.19283414 0.23231864 -0.36367941 0
-0.099143982 0.18322062 -0.36365068 0
-0.013662815 0.12324762 -0.36700112 0
0.077825546 0.065322876 -0.37080494 0
0.15136003 -0.017636776 -0.36654425 0
0.20995712 -0.073165417 -0.36394572 0
0.30425501 -0.12783718 -0.36586499 0
0.38174057 -0.19168067 -0.36217454 0
0.48499918 -0.26823545 -0.36731198 0
0.56547737 -0.28576064 -0.35790983 0
0.70194817 -0.37319803 -0.36696941 0
0.78371668 -0.48039269 -0.35898459 0
-0.32403803 0.49636173 -0.32180342 0
-0.28832722 0.42499018 -0.34143025 0
-0.070745468 0.27953863 -0.3685354 0
-0.024495125 0.23327804 -0.36576706 0
0.061592102 0.18420267 -0.36266929 0
0.12921572 0.13527989 -0.37050048 0
0.20768785 0.081502438 -0.36614341 0
0.23667145 0.021581888 -0.36155781 0
0.33030176 -0.045801163 -0.36433226 0
0.42879772 -0.099950075 -0.36580211 0
0.51093483 -0.16254711 -0.36209926 0
0.5889504 -0.19419909 -0.3538883 0
0.70845604 -0.30948734 -0.35997012 0
0.80229092 -0.43344736 -0.35762161 0
0.10508132 0.26850986 -0.36837003 0
0.20161891 0.20383358 -0.36825973 0
0.28389645 0.15449667 -0.36309874 0
0.36864471 0.081618547 -0.36307189 0
0.43346906 0.0086228848 -0.36431491 0
0.54040098 -0.028058052 -0.35666788 0
0.61991858 -0.14696908 -0.35809559 0
0.73088694 -0.23617172 -0.3580423 0
0.85639644 -0.30848265 -0.35761169 0
0.16217709 0.32092476 -0.36473995 0
0.23929787 0.27909303 -0.36457068 0
0.30498242 0.25225854 -0.36110026 0
0.39484882 0.1880765 -0.36139503 0
0.47849226 0.11719251 -0.35926062 0
0.54366541 0.053609848 -0.34994 0
0.66201067 -0.00067877769 -0.35615018 0
0.72593832 -0.082638979 -0.36185342 0
0.76998281 -0.1570859 -0.36127391 0
0.88592649 -0.24303198 -0.35710749 0
0.95489407 -0.19860053 -0.36814302 0
0.26853204 0.39632797 -0.3650147 0
0.32400775 0.36923099 -0.3704749 0
0.39045143 0.31182456 -0.36601555 0
0.47351789 0.26245379 -0.36206782 0
0.54011154 0.20215487 -0.35868931 0
0.60326099 0.13751459 -0.3600845 0
0.85493112 -0.024801493 -0.36815619 0
0.36324453 0.45092821 -0.37092328 0
0.46197009 0.38662601 -0.36637074 0
0.51641083 0.30760145 -0.35503855 0
0.6631763 0.25146985 -0.36700127 0
0.75396466 0.14468575 -0.36794049 0
0.91780949 0.04757762 -0.37644139 0
0.61233759 0.39586782 -0.37602636 0
0.72124767 0.32407999 -0.37679857 0
0.83467531 0.25840902 -0.3783558 0
0.9967885 0.11674237 -0.37705508 0
0.61841488 0.47724795 -0.37261498 0
0.72807789 0.42866611 -0.37129211 0
0.83926868 0.31395173 -0.37342352 0
0.85957623 0.44732141 -0.37324494 0
0.90360332 0.37693548 -0.38718289 0
-0.63436365 -0.27507567 -0.29243106 0
-0.61788177 -0.30295372 -0.28348824 0
-0.60386992 -0.23699284 -0.28962466 0
-0.55393219 -0.23676419 -0.30603814 0
0.61505604 -0.44056773 -0.34940678 0
-0.29110909 0.37152195 -0.28478765 0
-0.31171203 0.45768118 -0.29134023 0
-0.25943494 0.43695235 -0.28031069 0
0.78406286 -0.40182662 -0.34699148 0
0.92595673 -0.4586277 -0.34098387 0
0.91397858 -0.37890053 -0.31293741 0
0.96329665 -0.35546303 -0.33096981 0
0.98753619 -0.38657618 -0.22799902 0
0.72686625 -0.48366165 -0.061735407 0
0.78891277 -0.43049932 -0.070367098 0
0.87947536 0.071942568 0.3373391 0
0.86050797 0.17058396 0.31048381 0
0.8918004 -0.050906897 0.42496967 0
0.8343215 0.10732412 0.4321804 0
0.86449528 0.080139875 0.39489847 0
0.92101669 0.02204752 0.377047 0
0.92313933 -0.19983292 0.50804961 0
0.82484126 0.022502899 0.52924472 0
0.8980124 -0.072525978 0.50035626 0
0.92010164 -0.1247406 0.48737559 0
0.86448812 0.041025162 0.48224413 0
0.89966965 0.0081777573 0.47845346 0
0.92567301 -0.41371799 0.62451994 0
0.89187932 -0.26714468 0.58894444 0
0.93810344 -0.32581925 0.5857386 0
0.7994523 -0.066639662 0.6193943 0
0.85307837 -0.12645817 0.6305654 0
0.9084518 -0.21139574 0.59504586 0
0.9611032 -0.29389215 0.63012409 0
0.83295536 -0.015778542 0.60102165 0
0.89258623 -0.098659754 0.59460402 0
0.58412123 -0.3649807 0.744919 0
0.64762521 -0.25122094 0.73311126 0
0.899791 -0.43615365 0.70196635 0
0.64381552 -0.15779543 0.71116227 0
0.72171068 -0.15135717 0.73109215 0
0.92127538 -0.28898716 0.7213608 0
0.9130578 -0.36082339 0.69559872 0
0.81534934 -0.095579863 0.71767402 0
0.85338926 -0.15320015 0.69383818 0
0.91271877 -0.21549368 0.67856139 0
0.81416106 -0.052254677 0.67576325 0
0.72406316 -0.28851295 0.77844286 0
0.88168907 -0.43796706 0.8039881 0
0.79308748 -0.2204926 0.80608082 0
0.86329603 -0.30011678 0.83148718 0
0.89629221 -0.36336517 0.76012707 0
0.78804874 -0.14339828 0.81709611 0
0.81824207 -0.17404938 0.78955114 0
0.89305353 -0.097173929 0.77244878 0
0.83294559 -0.35977769 0.88879228 0
0.85739565 -0.43199682 0.89030695 0
0.81092238 -0.23491311 0.89280188 0
0.83484364 -0.30042958 0.87157094 0
0.856493 -0.38270783 0.95827127 0
0.85023928 -0.29655385 0.97625273 0
0.87709689 -0.1590724 1.0317712 0
0.87672019 -0.22703218 1.0126927 0
0.84403324 -0.0011246204 1.0252408 0
0.87021494 -0.087522745 1.0170301 0
0.85380054 0.1331172 1.0017958 0
0.87764978 0.079469442 1.0039389 0
0.81096911 0.26068044 1.0077926 0
0.83009958 0.20458961 1.0111928 0
0.79087877 0.36015868 1.0054437 0
0.81916904 0.31829119 1.0005387 0
0.98726487 -0.46422911 1.0941186 0
-0.89467406 -0.4683373 -0.36269253 0
-0.83803129 -0.4105792 -0.36385429 0
-0.76746988 -0.43441701 -0.36502799 0
-0.77074313 -0.31018329 -0.35509884 0
-0.68296289 -0.35908079 -0.35115334 0
-0.6306088 -0.43597198 -0.3682898 0
-0.52352905 -0.48522639 -0.37431872 0
-0.72266793 -0.23745227 -0.33534765 0
-0.64063668 -0.26144457 -0.33459774 0
-0.62817574 -0.35039735 -0.34455633 0
-0.62843013 -0.14126396 -0.36738884 0
-0.58735323 -0.20679164 -0.34516639 0
-0.50242567 -0.2232728 -0.34645241 0
-0.27374935 -0.38733864 -0.36816013 0
-0.16834354 -0.4997282 -0.37087542 0
-0.5935173 -0.057375908 -0.3625184 0
-0.53427362 -0.09404707 -0.36419797 0
-0.45368433 -0.15710974 -0.3658388 0
-0.37635446 -0.2275784 -0.36566806 0
-0.30336475 -0.28445435 -0.37004957 0
-0.23558521 -0.33392024 -0.37017959 0
-0.1105237 -0.40998292 -0.37198043 0
-0.043142796 -0.49055099 -0.37350696 0
-0.52611542 0.022980213 -0.36111772 0
-0.44993258 -0.056562424 -0.36693007 0
-0.37982583 -0.09401083 -0.35147876 0
-0.29481125 -0.15783954 -0.34240574 0
-0.18443012 -0.25465608 -0.37250099 0
-0.12950993 -0.29067516 -0.36473721 0
-0.077902317 -0.33325243 -0.37377059 0
0.035675526 -0.41953516 -0.37311774 0
0.082320213 -0.48795271 -0.36120462 0
-0.47905517 0.091642618 -0.36334825 0
-0.37677789 0.034568787 -0.37013263 0
-0.31536293 -0.032004833 -0.35737163 0
-0.14306688 -0.14213634 -0.36768275 0
-0.072331429 -0.22288346 -0.37213957 0
-0.018955708 -0.26217318 -0.36593848 0
0.07656908 -0.3253119 -0.36962801 0
0.16170979 -0.39309263 -0.37010497 0
0.24431705 -0.42707229 -0.36278093 0
-0.47862267 0.1926465 -0.3609795 0
-0.41052389 0.17123842 -0.36752808 0
-0.34320474 0.12223434 -0.36111373 0
-0.25593495 0.049759865 -0.3650218 0
-0.16090679 -0.012711763 -0.36443108 0
-0.13011837 -0.065228462 -0.3604002 0
-0.029315472 -0.12651992 -0.37133318 0
0.042860985 -0.17150116 -0.37199777 0
0.12808228 -0.21932077 -0.36967435 0
0.22577381 -0.29352641 -0.36451751 0
0.27716064 -0.34596491 -0.35992235 0
0.3529563 -0.4233923 -0.35818475 0
-0.432657 0.30674839 -0.36227411 0
-0.35781813 0.24739838 -0.35992253 0
-0.25815773 0.19632292 -0.3638117 0
-0.21667981 0.13022828 -0.36220229 0
-0.12546659 0.091467619 -0.36865702 0
-0.031779766 0.022323132 -0.36960706 0
0.039850712 -0.058652163 -0.36660182 0
0.14990664 -0.14016938 -0.36556402 0
0.26218891 -0.16240668 -0.36661792 0
0.25819206 -0.19917011 -0.37031776 0
0.35679102 -0.2461164 -0.37009948 0
0.41200638 -0.34805775 -0.36503404 0
0.51674509 -0.41028929 -0.36028275 0
0.66316891 -0.48209405 -0.3674905 0
-0.41045094 0.4829514 -0.353692 0
-0.372051 0.41742253 -0.36331004 0
-0.29665422 0.34464145 -0.35466731 0
-0.19744372 0.26672935 -0.36415333 0
-0.14948773 0.20447659 -0.36158219 0
-0.050521374 0.15423489 -0.36650097 0
0.024590492 0.087341309 -0.36947381 0
0.11652613 0.026678085 -0.36842674 0
0.18189955 -0.057687759 -0.36452359 0
0.27453804 -0.10253596 -0.3627947 0
0.36090374 -0.16968417 -0.36071682 0
0.37213469 -0.20747423 -0.36916184 0
0.45946646 -0.25902581 -0.36625537 0
0.56972551 -0.3150394 -0.36217946 0
0.68518305 -0.40110278 -0.36116388 0
0.68793917 -0.43661451 -0.36787605 0
-0.31115603 0.46953154 -0.34224957 0
-0.27619791 0.39756751 -0.33420116 0
-0.063453913 0.27456498 -0.36790401 0
0.0027608871 0.22630668 -0.3665331 0
0.099505663 0.16966271 -0.37394542 0
0.16426373 0.11394906 -0.37308097 0
0.22334957 0.048967361 -0.36487341 0
0.3124361 -0.013177633 -0.36392736 0
0.43129396 -0.08234787 -0.37183625 0
0.50472283 -0.14002228 -0.36505687 0
0.63092899 -0.20807576 -0.36703259 0
0.70217419 -0.35308576 -0.35914528 0
0.87032652 -0.39916873 -0.36515281 0
0.14265919 0.23701692 -0.367513 0
0.21553087 0.17695785 -0.3659229 0
0.24270535 0.13251638 -0.36207175 0
0.34813857 0.083261728 -0.3645348 0
0.45673323 0.029202461 -0.36733466 0
0.53216934 -0.022366524 -0.36024687 0
0.63211298 -0.14519668 -0.35996822 0
0.77012587 -0.23521495 -0.36508405 0
0.8862443 -0.30202389 -0.35709465 0
0.18924999 0.28780079 -0.36405239 0
0.2896781 0.24696231 -0.36537236 0
0.37682009 0.19089055 -0.36280125 0
0.48528743 0.14626551 -0.3644172 0
0.57253981 0.09850812 -0.36047876 0
0.57659054 0.058490276 -0.36548886 0
0.67011261 -0.041706562 -0.36041486 0
0.80745125 -0.088492155 -0.35897213 0
0.79379129 -0.13973618 -0.36139452 0
0.34035802 0.35406232 -0.36317939 0
0.41153836 0.30094886 -0.36336678 0
0.49677682 0.20820284 -0.36192691 0
0.60564709 0.17116976 -0.36326891 0
0.69396448 0.074115515 -0.35541236 0
0.87533212 -0.043771029 -0.37017813 0
0.32509804 0.4869597 -0.35858008 0
0.44475889 0.43295193 -0.3633211 0
0.52099824 0.33897018 -0.35818031 0
0.54590106 0.28848052 -0.36949515 0
0.65171957 0.26583767 -0.36737171 0
0.78472281 0.18993974 -0.36642349 0
0.77729177 0.15437293 -0.36964977 0
0.91539955 0.031075001 -0.36803076 0
0.93777561 0.00072288513 -0.37994951 0
0.5837326 0.43363619 -0.36767823 0
0.56810308 0.39007759 -0.36740896 0
0.6969471 0.33412385 -0.37272269 0
0.83626676 0.24528599 -0.37468016 0
0.99312854 0.11761403 -0.38047385 0
0.71247101 0.47377825 -0.36780566 0
0.73678327 0.40853071 -0.37734956 0
0.86892843 0.29007339 -0.37876838 0
0.90946722 0.42409825 -0.38131034 0
0.93497729 0.34966111 -0.39163196 0
-0.84666753 -0.093904495 -0.29619515 0
-0.61956549 -0.28305769 -0.29072097 0
-0.5688591 -0.30545974 -0.29260683 0
-0.56716681 -0.24038196 -0.28512216 0
-0.27509069 0.35961246 -0.29347515 0
0.80382824 -0.48505116 -0.35697126 0
-0.29769254 0.46799207 -0.29280913 0
-0.24940014 0.42008162 -0.27476731 0
0.85247993 -0.35876536 -0.3535541 0
0.9622426 -0.36738729 -0.31303015 0
0.95765781 -0.42506361 -0.3537302 0
0.90993047 -0.26443624 -0.35566938 0
0.98056436 -0.3736732 -0.21926817 0
0.91549063 -0.46926045 -0.10113893 0
0.85615039 0.17979527 0.31820667 0
0.90883446 0.12782645 0.32364231 0
0.86948681 -0.0028095245 0.39412487 0
0.92551708 -0.070488691 0.43213877 0
0.8818965 0.11667585 0.35909587 0
0.89434576 0.051891327 0.4021531 0
0.88428807 0.14522004 0.37813187 0
0.87864304 -0.26030517 0.52089673 0
0.90546608 -0.17332792 0.51879638 0
0.93575573 -0.24007463 0.5371092 0
0.86105585 -0.013059139 0.50600374 0
0.92018843 -0.10354137 0.4850404 0
0.87936592 0.037200689 0.47106403 0
0.94785213 -0.031453371 0.48953289 0
0.91136885 -0.42853618 0.63784462 0
0.93179202 -0.30951905 0.58281124 0
0.95136023 -0.36138296 0.60199273 0
0.88548946 -0.12970972 0.61285871 0
0.94198608 -0.21647501 0.5896666 0
0.7996664 -0.0031487942 0.59424639 0
0.86085987 -0.027820826 0.58934999 0
0.88837337 -0.10771012 0.60393256 0
0.63639402 -0.33729458 0.74266124 0
0.64637232 -0.19627738 0.70931375 0
0.65894866 -0.24621487 0.7342509 0
0.91475725 -0.44386315 0.70323622 0
0.67249107 -0.12507153 0.68406111 0
0.72549748 -0.12466669 0.7218501 0
0.93526244 -0.31235647 0.69485915 0
0.96557283 -0.36200547 0.68833935 0
0.84089947 -0.096408844 0.70154691 0
0.88028574 -0.17098689 0.66798902 0
0.92005491 -0.24534273 0.67324996 0
0.75594068 -0.28753042 0.77639359 0
0.89831543 -0.44869232 0.79378617 0
0.76026893 -0.17460442 0.75052756 0
0.81652308 -0.24437094 0.80569416 0
0.89413953 -0.34926534 0.8337003 0
0.94823003 -0.40027475 0.74747229 0
0.81460047 -0.1501801 0.77662808 0
0.85573792 -0.17547488 0.81716782 0
0.87823248 -0.11064053 0.77041841 0
0.79767728 -0.33800197 0.90103257 0
0.85925865 -0.40206742 0.88978142 0
0.89439034 -0.4698534 0.87858319 0
0.79563475 -0.19894171 0.90935278 0
0.81647992 -0.23955035 0.88133699 0
0.85546827 -0.3383348 0.90024799 0
0.88806677 -0.30404902 0.97104669 0
0.87904692 -0.20762062 1.0138766 0
0.87661552 -0.031070709 1.030838 0
0.90176916 -0.10272479 1.0267485 0
0.85776234 0.096739531 1.0164082 0
0.88933206 0.015487909 1.0043483 0
0.81296325 0.25667644 1.0240304 0
0.86511207 0.18962002 1.0161477 0
0.80787492 0.38079691 1.0236535 0
0.80221391 0.45686316 1.0349987 0
0.98855042 -0.46108747 1.10331 0
0.85659122 -0.12477183 1.0847206 0
0.87472367 -0.19917321 1.0674064 0
0.87351274 -0.022679567 1.0709339 0
0.86435127 0.095677376 1.0593336 0
-0.99412036 -0.39038134 -0.36503792 0
-0.90876698 -0.45591593 -0.36487818 0
-0.98954701 -0.26459742 -0.35701025 0
-0.91218948 -0.30594134 -0.366337 0
-0.85172749 -0.35704827 -0.36542314 0
-0.75909281 -0.42787933 -0.36997777 0
-0.68035722 -0.49147296 -0.3703413 0
-0.92467785 -0.16808844 -0.355241 0
-0.84097052 -0.23680902 -0.36272812 0
-0.79364634 -0.25632572 -0.34282267 0
-0.70547891 -0.35191345 -0.35755372 0
-0.62793446 -0.42449546 -0.36994746 0
-0.56004095 -0.4958837 -0.37603295 0
-0.93515182 -0.036733627 -0.3205561 0
-0.88209605 -0.065490246 -0.31723091 0
-0.81754494 -0.19764233 -0.36879063 0
-0.72900915 -0.22969866 -0.33635721 0
-0.64093113 -0.25739622 -0.32778654 0
-0.42752504 -0.48462367 -0.38019809 0
-0.8967979 0.036439419 -0.31876993 0
-0.81176186 -0.020637989 -0.33609706 0
-0.69949484 -0.085342407 -0.35783476 0
-0.64331412 -0.1306386 -0.36683214 0
-0.60102057 -0.20648623 -0.34756961 0
-0.76958632 0.077601194 -0.34456646 0
-0.69815016 -0.0077710152 -0.35614577 0
-0.59069419 -0.057441473 -0.36689433 0
-0.52492476 -0.11748242 -0.36774123 0
-0.45305514 -0.15131736 -0.36822253 0
-0.41220498 -0.24977493 -0.36749917 0
-0.29028177 -0.28709793 -0.37301379 0
-0.26502705 -0.35530138 -0.37026578 0
-0.15550756 -0.41258574 -0.37667388 0
-0.056362629 -0.45058131 -0.37502056 0
-0.7606504 0.18371153 -0.338498 0
-0.70965672 0.16687155 -0.33467725 0
-0.62057662 0.083899975 -0.36328423 0
-0.54092121 0.026955605 -0.36791107 0
-0.45093846 -0.036131859 -0.36198372 0
-0.35948563 -0.087423086 -0.34697872 0
-0.31612778 -0.18000674 -0.37441674 0
-0.20395422 -0.2402246 -0.36868036 0
-0.16264534 -0.22807527 -0.38000268 0
-0.092522621 -0.30746388 -0.37753618 0
-0.027975082 -0.37241721 -0.36902788 0
0.048564911 -0.45080423 -0.36701894 0
-0.7073431 0.27517271 -0.34159791 0
-0.64995861 0.25499344 -0.34066224 0
-0.55130196 0.15183306 -0.36252016 0
-0.47615147 0.12340188 -0.36690539 0
-0.40824723 0.064712524 -0.36642897 0
-0.32649279 -0.017202377 -0.36607087 0
-0.26462007 -0.066526651 -0.34825099 0
-0.13811827 -0.11867714 -0.3697409 0
-0.060742855 -0.19159365 -0.36828575 0
-0.021242619 -0.2566216 -0.37150508 0
0.072374344 -0.31509423 -0.37072784 0
0.10475492 -0.37591314 -0.37149829 0
0.21374464 -0.41522264 -0.37353069 0
0.30746031 -0.48397946 -0.36622632 0
-0.65791702 0.3495667 -0.34716535 0
-0.58342171 0.32255268 -0.35215813 0
-0.51903152 0.26207972 -0.35756266 0
-0.44066548 0.18805885 -0.36105135 0
-0.35152936 0.12239647 -0.36872002 0
-0.2735548 0.057000637 -0.36725739 0
-0.17645407 0.0071854591 -0.36774248 0
-0.1335392 -0.064700842 -0.36296967 0
-0.022298813 -0.12120318 -0.36978024 0
0.075169086 -0.17425537 -0.36984599 0
0.16379547 -0.25216508 -0.3692998 0
0.24718428 -0.31057382 -0.36611903 0
0.23734617 -0.35402894 -0.37031043 0
0.3467989 -0.39347863 -0.36309695 0
-0.58991957 0.44960284 -0.35718167 0
-0.51862812 0.39753079 -0.35807294 0
-0.44446015 0.33392024 -0.36068645 0
-0.36649895 0.26176763 -0.36865437 0
-0.28287172 0.19296241 -0.36716521 0
-0.19906998 0.16071773 -0.36925429 0
-0.12825108 0.088435888 -0.37133777 0
-0.060695648 0.046097517 -0.36987847 0
0.027145863 -0.033371925 -0.37250108 0
0.11477375 -0.088725567 -0.369789 0
0.18863106 -0.16565418 -0.36440283 0
0.29811764 -0.23608303 -0.37062472 0
0.40851688 -0.29733777 -0.3668257 0
0.50058842 -0.42933655 -0.36592406 0
0.65227985 -0.45521259 -0.36166966 0
0.64391565 -0.49618554 -0.36638379 0
-0.44763613 0.47316527 -0.36331511 0
-0.38759518 0.41521478 -0.36305737 0
-0.30165005 0.3491056 -0.349756 0
-0.24957395 0.28473091 -0.36647725 0
-0.14000058 0.23089337 -0.36940271 0
-0.05095768 0.15845156 -0.37226826 0
0.055887699 0.079511881 -0.36601812 0
0.094056129 0.057187319 -0.36240155 0
0.15196753 -0.001250267 -0.36925501 0
0.23503256 -0.069612026 -0.36551622 0
0.34684324 -0.13843441 -0.3716681 0
0.44543457 -0.20555258 -0.36430711 0
0.55691576 -0.33291483 -0.36738718 0
0.67510462 -0.40533185 -0.36043748 0
-0.32223892 0.48139358 -0.33692759 0
-0.27825451 0.4233079 -0.33579481 0
-0.061283827 0.26544595 -0.3706266 0
0.0018434525 0.22527671 -0.36699206 0
0.091619253 0.16732883 -0.36662033 0
0.1800921 0.12927341 -0.36216366 0
0.310673 0.020049572 -0.36537391 0
0.36945057 -0.049597025 -0.36719435 0
0.47387886 -0.10647964 -0.36031789 0
0.56134176 -0.24752259 -0.35568652 0
0.60015774 -0.27339482 -0.37164578 0
0.72714901 -0.319314 -0.36343974 0
0.83422232 -0.44839382 -0.36352822 0
0.137146 0.25899434 -0.37058729 0
0.22198582 0.20133257 -0.36718804 0
0.30358171 0.11432457 -0.36473477 0
0.3857398 0.061385393 -0.35925829 0
0.50268102 -0.034326792 -0.36055434 0
0.61330605 -0.1156714 -0.35530573 0
0.63167906 -0.17275238 -0.36795801 0
0.75760865 -0.21611786 -0.3592369 0
0.88339353 -0.34025264 -0.3621197 0
0.26357341 0.29175997 -0.37035191 0
0.34026194 0.20985556 -0.36567026 0
0.43135262 0.16481924 -0.36202884 0
0.54544711 0.075555801 -0.3615365 0
0.53803086 0.032468319 -0.36387059 0
0.69613028 -0.0088453293 -0.36849892 0
0.77904224 -0.13677549 -0.35632625 0
0.99254775 -0.23675418 -0.3755542 0
0.28457308 0.39978623 -0.36667311 0
0.33279276 0.3630805 -0.36637065 0
0.4133265 0.30673647 -0.36595064 0
0.47900867 0.26324344 -0.36612952 0
0.57310581 0.14931607 -0.36192387 0
0.71691036 0.1192646 -0.35762447 0
0.70670414 0.060569048 -0.36420763 0
0.87761164 -0.058771372 -0.37076971 0
0.41655445 0.42875242 -0.36783394 0
0.50254989 0.38087893 -0.36222059 0
0.63048267 0.25346184 -0.36771107 0
0.79860306 0.18327522 -0.37248349 0
0.96531463 0.0034461021 -0.38232881 0
0.56908083 0.46227932 -0.37331277 0
0.68437099 0.34158278 -0.37153813 0
0.81917191 0.21933651 -0.37253189 0
0.75300074 0.42323732 -0.38215137 0
0.90962934 0.3052578 -0.38725156 0
0.76591706 0.48927927 -0.3833797 0
0.96136498 0.45159078 -0.39171106 0
0.94542909 0.38666129 -0.38936004 0
-0.62860727 -0.26362824 -0.29635566 0
-0.58729219 -0.29816532 -0.28479779 0
-0.56586599 -0.23857975 -0.29771543 0
-0.53151631 -0.23450017 -0.27943194 0
-0.2887516 0.36803579 -0.29481363 0
-0.26722097 0.43004322 -0.2851063 0
0.83710337 -0.40585017 -0.35730293 0
0.86474705 -0.30131054 -0.3512404 0
0.951612 -0.37184381 -0.30413178 0
0.78035975 -0.4870646 -0.06524159 0
0.85771704 0.14833856 0.34420213 0
0.90473175 0.10142994 0.3359977 0
0.88166332 0.21802521 0.27645177 0
0.90850806 0.16671133 0.30247822 0
0.87011027 0.01047039 0.37942833 0
0.91022682 -0.054551125 0.42060137 0
0.84946156 0.085119486 0.40625226 0
0.87663031 0.062460661 0.41005617 0
0.89771461 0.169801 0.36059955 0
0.88916707 -0.18332219 0.47406471 0
0.92056322 -0.20494151 0.5148778 0
0.9568224 -0.28891325 0.52456605 0
0.84130239 -0.0047051907 0.51504987 0
0.89954758 -0.075193882 0.49660105 0
0.86873913 0.058552027 0.46955103 0
0.91090775 -0.31848621 0.60487795 0
0.94364905 -0.35521793 0.59801328 0
0.83198524 -0.077750206 0.64822847 0
0.90044928 -0.17297602 0.62510312 0
0.92376685 -0.21318936 0.58861715 0
0.84344435 -0.026004076 0.58511955 0
0.8721633 -0.097979069 0.59056532 0
0.62496018 -0.25443196 0.72135907 0
0.92237473 -0.43744349 0.69939148 0
0.63107419 -0.13006997 0.68115532 0
0.7020359 -0.17176604 0.71346128 0
0.92687631 -0.30510712 0.69528651 0
0.91958547 -0.37147856 0.69902414 0
0.79225683 -0.10058641 0.70353699 0
0.86512899 -0.1547718 0.68208539 0
0.92071152 -0.22599101 0.66925687 0
0.84080744 -0.073572397 0.71682274 0
0.65436077 -0.32209992 0.75656515 0
0.68267536 -0.27300668 0.75687295 0
0.88873649 -0.44762015 0.79898685 0
0.75022364 -0.1942904 0.76008385 0
0.789258 -0.22767019 0.82242024 0
0.87172461 -0.30932689 0.82861066 0
0.83155251 -0.11740923 0.77674717 0
0.85362625 -0.20422816 0.80295527 0
0.89903927 -0.082997322 0.76840508 0
0.84408617 -0.39356256 0.89838868 0
0.90615821 -0.45624185 0.84563982 0
0.80923033 -0.24583387 0.88351589 0
0.8591311 -0.31833243 0.90130746 0
0.82073116 -0.34017658 0.94960117 0
0.85042214 -0.23735404 1.0193501 0
0.89724779 -0.27373052 0.98882735 0
0.88346457 -0.17520952 1.0073948 0
0.9264195 -0.19437504 1.0290918 0
0.8605957 -0.01517725 1.012423 0
0.89237547 -0.091031075 1.0162323 0
0.85264754 0.11660576 0.99947596 0
0.85568571 0.046538115 1.0263771 0
0.76831865 0.33394313 1.0380672 0
0.80963635 0.2578156 1.0215819 0
0.846174 0.17173934 1.0254633 0
0.80260944 0.40359879 1.0325971 0
0.81437421 0.46701574 1.0187199 0
0.70507669 -0.45983505 1.1193047 0
0.74943376 -0.30988288 1.1272603 0
0.9065094 -0.47584605 1.1293015 0
0.98721218 -0.44381166 1.1150471 0
0.82082701 -0.24875402 1.0901883 0
0.88626242 -0.14551115 1.0828857 0
0.83677649 0.037283659 1.0763273 0
0.86933231 -0.053100824 1.0929382 0
0.78696823 0.14693189 1.117635 0
0.82608986 0.10631323 1.08424 0
0.85486197 0.03640008 1.1193144 0
0.8127501 0.24279356 1.0771322 0
0.78978181 0.37287092 1.0735555 0
0.79927349 0.45828557 1.0805995 0
0.81546736 -0.49350643 1.1748201 0
0.94751072 -0.44269466 1.148201 0
0.99955249 -0.39842033 1.1508336 0
-0.97044468 -0.40868855 -0.35854322 0
-0.8678019 -0.4643743 -0.36166161 0
-0.90961909 -0.32736707 -0.3595506 0
-0.8000319 -0.39146423 -0.36256838 0
-0.74184847 -0.45677304 -0.36273819 0
-0.95199752 -0.19491625 -0.35360229 0
-0.84822917 -0.2469523 -0.35380906 0
-0.78114653 -0.34329319 -0.3548668 0
-0.68844056 -0.37309861 -0.3593154 0
-0.62375832 -0.45599866 -0.36335349 0
-0.54125309 -0.49871492 -0.36562997 0
-0.95273256 -0.052653313 -0.33259892 0
-0.8750577 -0.078646421 -0.30647641 0
-0.79344511 -0.22280622 -0.34357411 0
-0.69880843 -0.23564553 -0.32398203 0
-0.64251161 -0.32187295 -0.32563138 0
-0.95383358 0.083734751 -0.32711032 0
-0.92116237 0.016596317 -0.31530452 0
-0.7326746 -0.075270653 -0.34602943 0
-0.65269923 -0.17464161 -0.35804376 0
-0.59008813 -0.21530843 -0.33179659 0
-0.33660507 -0.36916494 -0.35904866 0
-0.21710348 -0.42924786 -0.36653391 0
-0.12412834 -0.49766135 -0.36601347 0
-0.94611478 0.23659515 -0.31909716 0
-0.92230535 0.16561222 -0.32183966 0
-0.82126904 0.12698293 -0.33180001 0
-0.75838804 0.06139183 -0.33959389 0
-0.68073916 -0.015639782 -0.35020548 0
-0.58051777 -0.081630945 -0.3629148 0
-0.51533294 -0.13433409 -0.3623836 0
-0.45339561 -0.17177701 -0.35880417 0
-0.37327147 -0.22544289 -0.36005217 0
-0.30142641 -0.33014417 -0.36273718 0
-0.16957617 -0.3641665 -0.36922896 0
-0.093934536 -0.43457413 -0.36368963 0
-0.89247251 0.30054355 -0.32587081 0
-0.84660959 0.24062157 -0.32770962 0
-0.79574203 0.18426251 -0.3299076 0
