# .PCD v0.7 - Point Cloud Data file format
VERSION 0.7
FIELDS x y z intensity
SIZE 4 4 4 4
TYPE F F F F
COUNT 1 1 1 1
WIDTH 1299
HEIGHT 1
VIEWPOINT 0 0 0 1 0 0 0
POINTS 1299
DATA ascii
0.31114721 -0.41867232 -0.21893415 0
0.34032869 -0.43206263 -0.16812018 0
0.34346056 -0.34930038 -0.1773808 0
0.38698912 -0.34011722 -0.20056948 0
0.42927885 -0.25025606 -0.19357526 0
0.45528126 -0.15055275 -0.19080845 0
0.44060946 -0.050371647 -0.20786357 0
0.49407005 -0.06972003 -0.187204 0
0.75744057 -0.10633707 -0.18182428 0
0.7876029 -0.10712242 -0.15999688 0
0.081198215 -0.47771215 -0.084693514 0
0.32580614 -0.42537689 -0.139369 0
0.35895157 -0.43641329 -0.11448217 0
0.38857794 -0.34389377 -0.09962932 0
0.41795015 -0.24506092 -0.10298464 0
0.4090085 -0.18548799 -0.12292886 0
0.46368742 -0.15881205 -0.086977035 0
0.4985857 -0.099400282 -0.094171926 0
0.71819115 -0.16111517 -0.051722415 0
0.37609863 -0.46263003 -0.0051613152 0
0.35294437 -0.31109238 0.030648485 0
0.38540554 -0.3532629 -0.0038323849 0
0.4148984 -0.24722576 -0.0037811399 0
0.47069263 -0.16400886 0.011431918 0
0.74186611 -0.16363072 -0.029751308 0
0.39788389 -0.4578979 0.089258581 0
0.39667416 -0.36626768 0.10058594 0
0.38421297 -0.24455714 0.063891202 0
0.41233969 -0.2585659 0.10180132 0
0.40668631 -0.19241261 0.1264962 0
0.47029734 -0.167027 0.10170956 0
0.52771616 -0.1630528 0.14583956 0
0.40941334 -0.47579527 0.16495447 0
0.44377136 -0.48904634 0.1956588 0
0.41924763 -0.38511038 0.19841407 0
0.43454647 -0.2798636 0.19937585 0
0.47767115 -0.20226455 0.19027978 0
0.55513382 -0.20851135 0.2384773 0
0.39937544 -0.46011615 0.27314937 0
0.44057178 -0.49793744 0.3011229 0
0.42957783 -0.37463999 0.30005389 0
0.45612097 -0.39296436 0.33036852 0
0.47198057 -0.29623914 0.29284477 0
0.49401045 -0.27200794 0.33258855 0
0.54064989 -0.23002815 0.30503461 0
0.1670332 0.07796526 0.33972788 0
0.18935537 0.023993015 0.34789103 0
0.18090439 0.10648942 0.32407612 0
0.19055986 0.072873592 0.31704828 0
0.43718386 -0.38636398 0.38476038 0
0.46351767 -0.4057374 0.41191471 0
0.17573833 -0.1763916 0.43636608 0
0.21810198 -0.1907804 0.4485265 0
0.4636445 -0.3166759 0.40101218 0
0.5026536 -0.29761291 0.41825837 0
0.19692373 -0.086110353 0.41871345 0
0.5712347 -0.25322008 0.3783485 0
0.62825394 -0.24794006 0.39576527 0
0.16568279 0.029943228 0.37941557 0
0.19370699 0.0062496662 0.41407931 0
0.18971252 0.084701538 0.37063614 0
0.22167921 -0.39171052 0.53470206 0
0.20480585 -0.31012487 0.51165164 0
0.47644854 -0.41111708 0.48399499 0
0.19363165 -0.17689753 0.515975 0
0.21486759 -0.21405625 0.50803983 0
0.50895596 -0.33131146 0.46402588 0
0.13798189 -0.040663719 0.53929549 0
0.17493725 -0.092456818 0.51060081 0
0.22294569 -0.12848949 0.46989581 0
0.13077068 -0.011913538 0.47719541 0
0.17520857 -0.0076875687 0.49338639 0
0.16525316 -0.49243569 0.6116814 0
0.20734453 -0.42058849 0.5942381 0
0.17174721 -0.26639581 0.62476933 0
0.19856262 -0.32280707 0.5959692 0
0.15547323 -0.17890215 0.61519533 0
0.21216297 -0.23232174 0.59178674 0
0.10351467 -0.097575426 0.61300367 0
0.14143229 -0.11026216 0.59729058 0
-0.092181206 -0.40905142 0.7244184 0
-0.11109352 -0.30261374 0.70940137 0
-0.057975292 -0.35105848 0.73374856 0
0.18705559 -0.41624737 0.70120132 0
0.2311573 -0.43819118 0.65774602 0
-0.075280666 -0.22784662 0.69005847 0
0.011986256 -0.25274539 0.73195446 0
0.14360809 -0.27966976 0.69901693 0
0.18233681 -0.343714 0.68725801 0
-0.017842293 -0.18096399 0.69854796 0
0.12463808 -0.19251919 0.69934887 0
0.26707506 -0.084601641 0.74990237 0
0.43133545 -0.054055214 0.75673157 0
0.68847322 -0.22280979 0.74115562 0
0.34558296 0.022213459 0.73260444 0
0.0055608749 -0.35183692 0.77942657 0
0.17996359 -0.43204427 0.75769377 0
0.096340179 -0.27369213 0.78450739 0
0.089859962 -0.19786859 0.77275419 0
0.13343668 -0.23295927 0.79191649 0
0.27743244 -0.21046042 0.78557289 0
0.21224499 -0.16721916 0.7662245 0
0.44505787 -0.20060253 0.80309504 0
0.52507925 -0.21877694 0.7961489 0
0.51371384 -0.12415862 0.77998877 0
0.62157154 -0.17752576 0.79405248 0
0.50923443 -0.36710358 0.94069648 0
0.60029697 -0.32268405 0.921 0
0.6117506 -0.32078648 0.94837606 0
0.95836949 0.19932795 -0.43261397 0
-0.67316818 -0.49533057 -0.40492159 0
-0.62801075 -0.39128828 -0.40145367 0
-0.56234694 -0.42537594 -0.3966735 0
-0.45629883 -0.46871901 -0.3912921 0
-0.57865334 -0.30932403 -0.39628929 0
-0.49301577 -0.34201813 -0.39151049 0
-0.41333675 -0.3666811 -0.38623911 0
-0.31605625 -0.40934706 -0.38376111 0
-0.19993687 -0.42284274 -0.37911528 0
-0.14598274 -0.46465063 -0.37373704 0
-0.55846643 -0.2477932 -0.3890202 0
-0.49166489 -0.22974181 -0.38886839 0
-0.40106916 -0.26611257 -0.38270456 0
-0.2784338 -0.31229806 -0.37887084 0
-0.16488504 -0.34280872 -0.37286237 0
-0.09950161 -0.37226725 -0.37710893 0
-0.028604984 -0.4050827 -0.36647719 0
0.059556484 -0.46047807 -0.36689192 0
0.15837336 -0.48745799 -0.36322308 0
-0.49838352 -0.11598039 -0.38082916 0
-0.44721365 -0.15833759 -0.38411179 0
-0.32827234 -0.20046544 -0.384058 0
-0.2637229 -0.1969161 -0.37759393 0
-0.17130661 -0.24024153 -0.37237617 0
-0.059989452 -0.29755211 -0.37170854 0
0.034866333 -0.30414653 -0.36521691 0
0.11148834 -0.36525822 -0.36321568 0
0.21815348 -0.38617349 -0.36064684 0
-0.4168539 -0.043023348 -0.37866127 0
-0.3256712 -0.094260693 -0.37450433 0
-0.22932196 -0.10560226 -0.37195963 0
-0.11924028 -0.14269114 -0.36656472 0
-0.038092613 -0.2105782 -0.36542886 0
0.074545383 -0.22962689 -0.36355191 0
0.1528101 -0.265342 -0.3577382 0
0.23814011 -0.3366363 -0.35647854 0
0.34530544 -0.31470942 -0.35747457 0
-0.38976574 0.047643661 -0.37398484 0
-0.29117441 0.02299118 -0.36811924 0
-0.20315504 -0.017916441 -0.36438626 0
-0.14407539 -0.057829857 -0.35800737 0
0.0039544106 -0.10065746 -0.36166474 0
0.089292049 -0.13786745 -0.35399088 0
0.18229818 -0.21043801 -0.35630095 0
0.23798895 -0.17172933 -0.36318779 0
0.36522198 -0.2200129 -0.36401337 0
0.41741133 -0.25806236 -0.35260296 0
-0.40772748 0.16476631 -0.36464185 0
-0.36887145 0.11893249 -0.36695808 0
-0.24182606 0.099671602 -0.36388934 0
-0.13784647 0.056936026 -0.36200398 0
-0.031661987 0.029084206 -0.35102165 0
0.034445286 -0.012283325 -0.35382146 0
0.14712429 -0.061913729 -0.357034 0
0.19354439 -0.023801565 -0.36271924 0
0.29686975 -0.10374093 -0.36589059 0
0.40091276 -0.13444901 -0.36082274 0
0.45614243 -0.19970226 -0.35473365 0
-0.37303376 0.2172277 -0.36731482 0
-0.31575608 0.23406744 -0.36724859 0
-0.22676086 0.18929434 -0.36138755 0
-0.13441467 0.17522144 -0.35975623 0
-0.035375118 0.10772395 -0.35472593 0
0.110116 0.092733383 -0.35269883 0
0.1624589 0.039286613 -0.35540569 0
0.21852589 0.086158991 -0.35496879 0
0.34246159 -0.01104641 -0.36379531 0
0.4437108 -0.02210474 -0.35062879 0
-0.35827041 0.33281422 -0.36033952 0
-0.29507804 0.3312571 -0.36181635 0
-0.20286036 0.29246473 -0.35841405 0
-0.10406828 0.26686621 -0.35343429 0
-0.013839245 0.22042918 -0.35710177 0
0.063549995 0.18238044 -0.35636228 0
0.14274836 0.15468502 -0.35334677 0
0.25164652 0.14033818 -0.35648721 0
0.37079859 0.069995642 -0.36068976 0
0.44500971 0.055020809 -0.34214139 0
-0.3205483 0.44790387 -0.36021996 0
-0.26112628 0.42381763 -0.35819849 0
-0.16613245 0.37800765 -0.35512382 0
-0.066522121 0.35801506 -0.35449705 0
0.017579556 0.32218003 -0.35528445 0
0.10731125 0.27228379 -0.35782784 0
0.20415831 0.24866319 -0.35815293 0
0.30224371 0.23987889 -0.35788417 0
0.42616558 0.15816736 -0.36411715 0
0.64445043 0.094565392 -0.38375199 0
0.76945543 0.046224117 -0.35649809 0
-0.14503145 0.47511244 -0.35049802 0
-0.022602558 0.44305801 -0.35132885 0
0.061680317 0.41420698 -0.35091811 0
0.14614487 0.37235212 -0.35058716 0
0.22847366 0.34622097 -0.35539865 0
0.34657001 0.34785938 -0.34962121 0
0.45784068 0.26796484 -0.36113811 0
0.78729272 0.14040947 -0.39682427 0
0.19989395 0.49318528 -0.33920091 0
0.27065706 0.46148348 -0.34589592 0
0.35110974 0.42917609 -0.3548204 0
0.49662542 0.40763855 -0.3585794 0
0.54797792 0.44552541 -0.36620313 0
0.2093153 -0.47056198 -0.3338103 0
0.29172325 -0.49054909 -0.28771347 0
0.24568033 -0.42142248 -0.33163607 0
0.30051851 -0.41227913 -0.28921995 0
0.37897778 -0.33450341 -0.29551011 0
0.41351271 -0.31632519 -0.29774863 0
0.41986465 -0.23108244 -0.29480156 0
0.43325806 -0.24425626 -0.27844211 0
0.43234873 -0.13743949 -0.29586869 0
0.47282171 -0.1073885 -0.2732785 0
0.44757175 -0.043942451 -0.28309363 0
0.49169445 -0.059067249 -0.27217942 0
0.46138144 0.023995876 -0.29443258 0
0.75418091 -0.029357433 -0.28746468 0
0.8205986 -0.043210983 -0.26104259 0
0.3052392 -0.48283672 -0.1852576 0
0.31575298 -0.43425179 -0.20320083 0
0.36953878 -0.36051226 -0.20317501 0
0.40033197 -0.33128953 -0.18370752 0
0.40730572 -0.25006533 -0.19866863 0
0.44162989 -0.25568175 -0.19526902 0
0.44507313 -0.14211941 -0.19529022 0
0.45869017 -0.1742661 -0.17709701 0
0.47178125 -0.084331989 -0.16629528 0
0.51015282 -0.059566975 -0.19981579 0
0.75129604 -0.11317348 -0.16918649 0
0.7634685 -0.093215942 -0.21471605 0
0.093400478 -0.49963117 -0.078357883 0
0.33773661 -0.44135237 -0.11222608 0
0.3776474 -0.47059488 -0.090082787 0
0.36150551 -0.35702419 -0.09351445 0
0.39912128 -0.35459256 -0.10950917 0
0.39265585 -0.25909424 -0.08071173 0
0.43061066 -0.25237226 -0.09881705 0
0.44905853 -0.14440751 -0.068597458 0
0.47090816 -0.15552139 -0.094559237 0
0.52806711 -0.092666626 -0.11353298 0
0.71610975 -0.16343355 -0.075609133 0
0.37332058 -0.44807029 -0.0043315291 0
0.38095236 -0.34527421 0.0074557066 0
0.39701939 -0.36190224 -0.010221779 0
0.40460062 -0.23964739 0.025443941 0
0.4165678 -0.27664495 -0.024696581 0
0.44207001 -0.17964602 -0.02607771 0
0.4844203 -0.16893029 0.0050682873 0
0.53262758 -0.13734174 0.0046625435 0
0.35348177 -0.41900516 0.061836436 0
0.39471292 -0.47729921 0.095686182 0
0.37747526 -0.31770587 0.089869842 0
0.39668798 -0.36969948 0.099922106 0
0.40223885 -0.24615121 0.10429473 0
0.41087961 -0.19561243 0.10099475 0
0.49963427 -0.17023921 0.099926606 0
0.56879902 -0.17829514 0.1354063 0
0.42547703 -0.47048903 0.1722296 0
0.37013102 -0.38425016 0.18839066 0
0.41541481 -0.38544369 0.19607541 0
0.39999866 -0.27654648 0.17547011 0
0.44192123 -0.28134394 0.20907702 0
0.43533325 -0.20155931 0.17330436 0
0.49162769 -0.21006751 0.19770046 0
0.40789938 -0.4803009 0.30215323 0
0.44864559 -0.4865799 0.29795516 0
0.43668365 -0.38720012 0.28545779 0
0.39914894 -0.30608058 0.27132356 0
0.47416067 -0.29700947 0.29816407 0
0.51346159 -0.25236773 0.310453 0
0.57225561 -0.22738862 0.29358521 0
0.64664698 -0.24107862 0.34423587 0
0.20450211 0.05183363 0.32588264 0
0.22599983 0.01870203 0.35109681 0
0.20138311 0.10141563 0.32109731 0
0.42834806 -0.49162626 0.39416623 0
0.46055126 -0.38824248 0.39280504 0
0.46914387 -0.43257999 0.39241672 0
0.20770454 -0.18421507 0.44350347 0
0.48659897 -0.30874705 0.39985073 0
0.52053452 -0.31701636 0.43540969 0
0.16384745 -0.044183731 0.45658562 0
0.20291615 -0.092978716 0.42307165 0
0.54173088 -0.26383138 0.38811773 0
0.16737413 0.012449503 0.40708494 0
0.20463181 -0.00011873245 0.39975715 0
0.20022488 -0.41443229 0.54431081 0
0.44628716 -0.46392179 0.53624403 0
0.17966843 -0.27554774 0.47948289 0
0.20876217 -0.33539319 0.53018421 0
0.46148586 -0.41378069 0.4925729 0
0.48234129 -0.43097615 0.48443896 0
0.19159222 -0.22462058 0.51131952 0
0.23391771 -0.21171093 0.50254434 0
0.48626041 -0.3573525 0.46012172 0
0.539464 -0.30949926 0.4583115 0
0.1386714 -0.063755035 0.53212529 0
0.195292 -0.11178374 0.51026374 0
0.16157961 -0.002215147 0.49018967 0
0.19574213 -0.028714895 0.46834648 0
0.20239115 -0.49848151 0.62319416 0
0.20437956 -0.43984127 0.60453975 0
0.17724323 -0.28321385 0.59690851 0
0.2041707 -0.34393311 0.60271239 0
0.13277388 -0.17116308 0.62754309 0
0.17206955 -0.21288276 0.61093354 0
0.21239948 -0.26937938 0.56483448 0
0.13888645 -0.10947227 0.60395467 0
-0.10611391 -0.43101478 0.72939539 0
-0.075671196 -0.34397531 0.72264671 0
0.20982361 -0.44521427 0.69752896 0
-0.11280918 -0.22818756 0.69045448 0
-0.055430889 -0.24258804 0.71313012 0
0.014748096 -0.23164511 0.74072152 0
0.14576006 -0.31526184 0.70498806 0
0.20003271 -0.35419488 0.69536912 0
0.10827732 -0.17629147 0.70901299 0
0.15035582 -0.22862434 0.69090652 0
0.11010456 -0.11848354 0.66337395 0
0.45065641 -0.053009987 0.75304747 0
-0.051317692 -0.32556868 0.74867636 0
0.018082619 -0.35666275 0.77663374 0
0.14425278 -0.41087055 0.83442861 0
0.16427326 -0.43966579 0.7588169 0
0.041759968 -0.26699305 0.78197211 0
0.12811327 -0.30029488 0.8165009 0
0.10190964 -0.2384491 0.80435634 0
0.16082382 -0.23853493 0.80866283 0
0.21881437 -0.17066979 0.76353246 0
0.39283705 -0.23798895 0.80983758 0
0.54262638 -0.21363735 0.78954506 0
0.56488562 -0.24690533 0.79155195 0
0.40187693 -0.10308528 0.77550405 0
0.54046774 -0.14766932 0.78478503 0
0.58976364 -0.19983959 0.79549736 0
0.11440849 -0.41703749 0.85989356 0
0.13754225 -0.3380475 0.8516829 0
0.52564907 -0.3625052 0.93497056 0
0.69351721 -0.33433628 0.94350678 0
0.54586029 -0.36322856 0.97173208 0
0.65860176 -0.32822514 0.98950011 0
0.86324573 0.24205875 -0.41755652 0
0.99789548 0.28689671 -0.43818593 0
-0.81842899 -0.45557094 -0.41655412 0
-0.72097158 -0.46831656 -0.41277808 0
-0.76657724 -0.35006785 -0.40927786 0
-0.71061611 -0.39780712 -0.40658292 0
-0.61743975 -0.393821 -0.3995975 0
-0.50930309 -0.45640111 -0.39680231 0
-0.39450455 -0.4832685 -0.39213851 0
-0.73738456 -0.2498219 -0.39511871 0
-0.6779623 -0.28958654 -0.40593782 0
-0.58661604 -0.316468 -0.39576474 0
-0.47802496 -0.36271667 -0.39176178 0
-0.37807035 -0.40095878 -0.38604611 0
-0.27495384 -0.42171359 -0.38265389 0
-0.17679119 -0.43853116 -0.38500863 0
-0.10953426 -0.47530985 -0.37625337 0
-0.65226889 -0.19740462 -0.39633277 0
-0.53648376 -0.22337294 -0.388744 0
-0.45382071 -0.2583437 -0.38968033 0
-0.36380577 -0.3069787 -0.38471499 0
-0.24531221 -0.32718039 -0.37907347 0
-0.15588999 -0.35907674 -0.37516356 0
-0.055726528 -0.38308764 -0.37257904 0
0.017968178 -0.42771649 -0.36550874 0
-0.65934968 -0.097550392 -0.38694447 0
-0.60694385 -0.11695051 -0.38826698 0
-0.49675274 -0.12730312 -0.38428986 0
-0.39280748 -0.16358995 -0.38354391 0
-0.32157946 -0.20064354 -0.37684089 0
-0.22344303 -0.24017978 -0.37359509 0
-0.11184502 -0.26668906 -0.37044275 0
-0.021571159 -0.30674624 -0.36815184 0
0.054404259 -0.35302997 -0.36183476 0
0.16746998 -0.38806772 -0.36193594 0
0.28774595 -0.40392399 -0.35916954 0
-0.56743455 -0.0046231747 -0.38527894 0
-0.48451805 -0.03422451 -0.38585782 0
-0.3883009 -0.062727451 -0.3810463 0
-0.30898952 -0.11502314 -0.37273061 0
-0.21345472 -0.12502599 -0.3673017 0
-0.096804142 -0.17333651 -0.36799791 0
0.010696411 -0.20592117 -0.36073199 0
0.099143028 -0.26528502 -0.35936564 0
0.20577192 -0.2883389 -0.355131 0
0.36752748 -0.33441114 -0.36271572 0
-0.58466196 0.10492587 -0.37543434 0
-0.53989625 0.070129156 -0.38144675 0
-0.44023085 0.067342758 -0.37281165 0
-0.35589123 0.022564173 -0.37181622 0
-0.23347855 -0.012542725 -0.36733657 0
-0.16169405 -0.045909643 -0.36265177 0
-0.063133717 -0.088188171 -0.36221719 0
0.038775921 -0.1062088 -0.35365453 0
0.14099932 -0.16285253 -0.35433125 0
0.31211472 -0.20999384 -0.36543542 0
0.42594671 -0.2269218 -0.35978776 0
-0.5057714 0.17052889 -0.37579098 0
-0.40040565 0.1519165 -0.37199825 0
-0.3211441 0.13138866 -0.36659843 0
-0.2324028 0.083269119 -0.36477059 0
-0.10815668 0.042961836 -0.35819197 0
-0.0033068657 0.030575991 -0.35561806 0
0.057082176 -0.016507387 -0.3562125 0
0.22874117 -0.067775965 -0.35967165 0
0.42971516 -0.12002325 -0.367998 0
-0.55262089 0.25082946 -0.36631128 0
-0.47888231 0.27907777 -0.37180683 0
-0.36965752 0.24141216 -0.3630901 0
-0.28293109 0.20529318 -0.36596727 0
-0.21080542 0.18902445 -0.35796586 0
-0.099480629 0.13673878 -0.35772336 0
0.018173695 0.10262322 -0.35205364 0
0.1315856 0.053919792 -0.35455608 0
0.26869345 0.0091874599 -0.35851479 0
0.42445564 -0.046365261 -0.35396707 0
-0.50907516 0.38453341 -0.36397949 0
-0.42025447 0.37748313 -0.36752808 0
-0.37336993 0.32519603 -0.36528414 0
-0.25776386 0.32356167 -0.36311224 0
-0.15108395 0.2694087 -0.3563965 0
-0.051393509 0.24684429 -0.35507596 0
0.037185669 0.20725608 -0.35618126 0
0.099870205 0.19223714 -0.36088276 0
0.20146894 0.15410805 -0.3584519 0
0.32337809 0.098158836 -0.3605653 0
0.41797543 0.061614275 -0.35319391 0
0.46644688 0.037709236 -0.35503167 0
-0.40785217 0.4596312 -0.36090735 0
-0.31056356 0.41137719 -0.36050153 0
-0.25029325 0.40376925 -0.35990709 0
-0.14552474 0.37401152 -0.35588142 0
-0.041824818 0.32864141 -0.35354805 0
0.056457043 0.34670568 -0.35863805 0
0.14150095 0.2858634 -0.36061257 0
0.25153971 0.25294805 -0.35894269 0
0.35589361 0.17867398 -0.35840398 0
0.52334809 0.13017488 -0.3666842 0
0.61390996 0.16528749 -0.37944639 0
0.73522282 0.038116932 -0.36877429 0
0.81344557 0.057601929 -0.35121763 0
-0.1787107 0.49193859 -0.35656461 0
-0.099517584 0.47833228 -0.34757912 0
-0.0076556206 0.43455005 -0.35288909 0
0.10043955 0.41478586 -0.35575104 0
0.14995861 0.36107969 -0.35582343 0
0.27317619 0.34619761 -0.35598668 0
0.41089749 0.2766099 -0.36148745 0
0.77265882 0.17242837 -0.39327192 0
0.79904747 0.10533905 -0.39116427 0
0.23147249 0.451998 -0.33967435 0
0.34476423 0.43264246 -0.33637664 0
0.40117598 0.37870789 -0.35232764 0
0.10408688 -0.46013093 -0.35815462 0
0.28132963 -0.46871901 -0.28569114 0
0.15491152 -0.33554912 -0.35047275 0
0.26927996 -0.43163848 -0.31905842 0
0.33400822 -0.39483953 -0.28499448 0
0.38885212 -0.34042192 -0.3010532 0
0.442873 -0.25698566 -0.30139703 0
0.45527172 -0.27783346 -0.30392635 0
0.39512205 -0.099172592 -0.34001541 0
0.44627142 -0.15846467 -0.29390174 0
0.41485405 -0.0069181919 -0.3348918 0
0.45748854 -0.057840824 -0.28101701 0
0.49603558 0.013456345 -0.28043112 0
0.76762795 -0.054256439 -0.26498413 0
0.82304621 -0.01157093 -0.31632519 0
0.30614233 -0.48752069 -0.21790582 0
0.25977135 -0.45227098 -0.19544014 0
0.3419652 -0.42563057 -0.19896126 0
0.39549685 -0.34775972 -0.19352855 0
0.42350435 -0.26489878 -0.19238441 0
0.46335602 -0.15780783 -0.18150908 0
0.48935795 -0.083217144 -0.18791226 0
0.54390097 -0.080694914 -0.14835998 0
0.74567986 -0.14074445 -0.14013796 0
0.80383801 -0.088261127 -0.21466084 0
0.37875652 -0.43809271 -0.099473871 0
0.39945602 -0.47478509 -0.11972662 0
0.38563204 -0.35897613 -0.10329043 0
0.41083145 -0.39406538 -0.11480013 0
0.41816807 -0.26556134 -0.094304398 0
0.45135498 -0.17530465 -0.091819838 0
0.49946022 -0.15630794 -0.050146617 0
0.49753475 -0.11721182 -0.12162781 0
0.53525591 -0.12549901 -0.060726099 0
0.79550695 -0.14177465 -0.11807694 0
0.36950254 -0.42790842 -0.038200364 0
0.40353394 -0.48898673 -0.01216583 0
0.38414526 -0.34077716 -0.010137871 0
0.41185141 -0.39668512 0.0095519125 0
0.41783476 -0.25211287 -0.0012421757 0
0.46828222 -0.18308592 0.0068208724 0
0.52023506 -0.14356756 -0.014516264 0
0.55378628 -0.14760852 0.02060473 0
0.77792168 -0.18969154 0.04677549 0
0.38808727 -0.43538213 0.086332947 0
0.38846302 -0.36653352 0.095816702 0
0.42834139 -0.3577311 0.069101974 0
0.39636898 -0.27938437 0.10110791 0
0.44973946 -0.20304728 0.089390934 0
0.49695349 -0.17822886 0.11641605 0
0.42965174 -0.48614955 0.18443266 0
0.41348648 -0.34451413 0.19556196 0
0.42324352 -0.39197254 0.18333265 0
0.42259932 -0.2723918 0.19617057 0
0.45218611 -0.28300667 0.20622279 0
0.49623919 -0.21714592 0.21849048 0
0.43879318 -0.49226975 0.29085782 0
0.40409088 -0.39475799 0.26290092 0
0.44960451 -0.40134048 0.3105579 0
0.4288249 -0.277529 0.30733222 0
0.48348141 -0.30627728 0.28895408 0
0.52967072 -0.25735354 0.32975769 0
0.61795044 -0.22009325 0.26784173 0
0.20066166 0.0067148209 0.34868357 0
0.20228148 0.090726614 0.32024646 0
0.43524075 -0.49087882 0.38454685 0
0.45228004 -0.4214704 0.40407655 0
0.19783354 -0.17328358 0.43599865 0
0.49863482 -0.32598424 0.3968451 0
0.17760897 -0.065361977 0.42065361 0
0.21942902 -0.10665536 0.42090863 0
0.55708408 -0.27779412 0.42969233 0
0.58235407 -0.25310707 0.36618495 0
0.19475603 0.0027086735 0.40406418 0
0.23749495 -0.063759565 0.39405227 0
0.18190813 0.075721502 0.37745959 0
0.19828892 -0.28805351 0.52587807 0
0.22128248 -0.34448791 0.52750415 0
0.48036909 -0.41818833 0.49219519 0
0.20131159 -0.20414615 0.51188648 0
0.51241446 -0.33854866 0.46899 0
0.16505623 -0.088286161 0.52608335 0
0.21855783 -0.11618376 0.47199571 0
0.15073681 -0.020582676 0.49202812 0
0.1837883 -0.43786526 0.58651829 0
0.22028685 -0.44452167 0.60116374 0
0.45170021 -0.48307514 0.55683088 0
0.19860315 -0.32089829 0.60333931 0
0.22908068 -0.37486601 0.62704378 0
0.13358974 -0.1703217 0.62260163 0
0.19173717 -0.21994686 0.59027952 0
0.15207386 -0.11952043 0.60242701 0
0.20508862 -0.15935326 0.55669689 0
-0.12617302 -0.40876389 0.73107004 0
-0.10989761 -0.30858469 0.70059979 0
-0.093593597 -0.37290764 0.73274428 0
0.19089079 -0.38473582 0.69416976 0
0.21083736 -0.45729995 0.68586212 0
-0.081755638 -0.22704053 0.68969262 0
-0.031188488 -0.26445818 0.72165471 0
0.040952206 -0.26338363 0.74745464 0
0.18423319 -0.34866834 0.69724411 0
0.027088165 -0.21265197 0.71748936 0
0.11716557 -0.19624424 0.70148522 0
0.18230867 -0.24642181 0.67561793 0
0.15583134 -0.15173817 0.66650987 0
0.66509342 -0.26752663 0.75425869 0
0.32344246 -0.072110415 0.75218821 0
0.42983675 0.011485338 0.72698998 0
-0.10364866 -0.34788823 0.74450743 0
-0.022070408 -0.37978196 0.77330017 0
0.14739895 -0.43575168 0.79494411 0
0.20998478 -0.46519017 0.73979962 0
0.08181572 -0.30439782 0.8101123 0
0.13421631 -0.34559083 0.82480609 0
0.099359512 -0.23287988 0.78297806 0
0.24124336 -0.19807673 0.79973197 0
0.49525833 -0.23036194 0.79614311 0
0.58575726 -0.23753977 0.78555906 0
0.47878408 -0.13576627 0.78298849 0
0.5941925 -0.19340205 0.79364461 0
0.074440002 -0.40526652 0.8911761 0
0.11687899 -0.44109344 0.87455177 0
0.098218441 -0.32110643 0.87432504 0
0.14070892 -0.33206391 0.86449003 0
0.57836628 -0.35323167 0.92545199 0
0.7040925 -0.33714819 0.90760559 0
0.54722214 -0.38219976 0.99603742 0
0.68651962 -0.34064579 1.0455685 0
0.86131907 0.22522664 -0.41535091 0
-0.94305658 -0.35895252 -0.4156307 0
-0.8864584 -0.43069506 -0.41652638 0
-0.79442453 -0.48341131 -0.41362864 0
-0.70877266 -0.49999189 -0.40496898 0
-0.92762375 -0.31208563 -0.40844715 0
-0.84280324 -0.31802726 -0.40921354 0
-0.79063797 -0.38650918 -0.40753084 0
-0.6612215 -0.37441683 -0.40609252 0
-0.59728384 -0.41006517 -0.39750034 0
-0.48478079 -0.46664095 -0.39722073 0
-0.39162445 -0.49055696 -0.38458276 0
-0.89494514 -0.25927114 -0.40518796 0
-0.81586671 -0.21906018 -0.40415296 0
-0.73826909 -0.26995063 -0.39811665 0
-0.65071821 -0.30802178 -0.40048403 0
-0.54355288 -0.32446074 -0.39390945 0
-0.47777176 -0.349334 -0.38907972 0
-0.37297487 -0.39766383 -0.38420582 0
-0.24210787 -0.4368372 -0.37866735 0
-0.16779947 -0.47598791 -0.3699851 0
-0.87563062 -0.094022751 -0.37767357 0
-0.77268434 -0.13199902 -0.40069553 0
-0.70887709 -0.16490936 -0.39459443 0
-0.6115694 -0.2229352 -0.39199376 0
-0.50261927 -0.24292278 -0.38900429 0
-0.43200207 -0.26201963 -0.38432974 0
-0.32085752 -0.30902648 -0.38087884 0
-0.18653536 -0.34460831 -0.37539604 0
-0.092352867 -0.37219191 -0.36979902 0
-0.031983852 -0.39121985 -0.37091053 0
0.0083808899 -0.41546607 -0.3676419 0
0.13385201 -0.43996811 -0.36887768 0
-0.76447916 -0.053137779 -0.38862854 0
-0.67167282 -0.096906424 -0.38864672 0
-0.57686615 -0.10534859 -0.38606864 0
-0.47063684 -0.15706992 -0.38239843 0
-0.40892601 -0.19449306 -0.37856132 0
-0.30361462 -0.22530937 -0.37485078 0
-0.19838667 -0.22960186 -0.36902773 0
-0.11025381 -0.30642629 -0.3652356 0
0.062357903 -0.30423379 -0.36258766 0
0.14074755 -0.36129117 -0.35723817 0
0.33928013 -0.37973976 -0.36136723 0
-0.73117065 0.032135248 -0.38543552 0
-0.64608169 -0.0053572655 -0.38445598 0
-0.53302717 -0.014011621 -0.37723088 0
-0.43476534 -0.056188345 -0.38165829 0
-0.34611607 -0.095365524 -0.3786023 0
-0.26743889 -0.12762213 -0.37075472 0
-0.16763735 -0.14981151 -0.36454427 0
-0.036932945 -0.20850372 -0.35728729 0
-0.013347626 -0.20197439 -0.36230177 0
0.093978882 -0.21847773 -0.35749909 0
0.18398285 -0.26784158 -0.35347018 0
0.37729073 -0.34533334 -0.36227524 0
-0.70510221 0.12747788 -0.38127607 0
-0.62613535 0.093225002 -0.38100466 0
-0.51641393 0.075358152 -0.37283647 0
-0.39908791 0.03796196 -0.37102997 0
-0.31806087 -0.0034043789 -0.37234515 0
-0.2252717 -0.018510342 -0.3635962 0
-0.12917233 -0.050874949 -0.36004907 0
-0.080610752 -0.10100293 -0.36351943 0
0.023387909 -0.094317675 -0.35605291 0
0.12208652 -0.15043592 -0.3547653 0
0.25983763 -0.21164751 -0.35962123 0
0.42495728 -0.24841523 -0.35967568 0
-0.65735579 0.2277832 -0.37751746 0
-0.57477474 0.19315696 -0.37760705 0
-0.49087024 0.16464376 -0.369064 0
-0.3944571 0.13575435 -0.37137634 0
-0.29657936 0.10303998 -0.36379617 0
-0.20732403 0.074104309 -0.35811228 0
-0.10664034 0.033937931 -0.35456893 0
-0.061837673 -0.0022013187 -0.35493279 0
0.060610294 -0.0067226887 -0.35367703 0
0.19269419 -0.069759607 -0.35796738 0
0.35070419 -0.11861467 -0.36289227 0
0.44026613 -0.13173509 -0.35109043 0
-0.63932347 0.30653071 -0.37431288 0
-0.56315947 0.29290366 -0.36927676 0
-0.43284655 0.26079202 -0.36898464 0
-0.33461356 0.20645595 -0.36606324 0
-0.26837206 0.18861246 -0.36020035 0
-0.14831638 0.17478323 -0.35056695 0
-0.089099884 0.091172457 -0.35173643 0
0.0047903061 0.12923789 -0.35484433 0
0.11608744 0.091332436 -0.35307682 0
0.24337912 0.027475595 -0.35529906 0
0.43187428 -0.045556545 -0.35040134 0
-0.50309706 0.34745574 -0.37182313 0
-0.41777349 0.36175776 -0.36265004 0
-0.31282139 0.30893397 -0.36055556 0
-0.22622871 0.29601645 -0.35923469 0
-0.13686752 0.25972223 -0.35200813 0
-0.062703609 0.23926568 -0.35613284 0
0.019399643 0.18459058 -0.35142162 0
0.15025091 0.16848516 -0.35062167 0
0.32132959 0.12528682 -0.36107433 0
0.44218302 0.042008638 -0.35348821 0
0.50500679 0.069907427 -0.34297234 0
-0.4446888 0.44871807 -0.35811901 0
-0.37332845 0.47197175 -0.35450464 0
-0.28862977 0.42213035 -0.35608515 0
-0.21048689 0.38984537 -0.35424608 0
-0.12651587 0.35722542 -0.35279003 0
-0.04909277 0.327245 -0.35019994 0
0.089397907 0.28872252 -0.35580945 0
0.20180273 0.25357652 -0.35238025 0
0.23955774 0.2300868 -0.36441904 0
0.38934135 0.19990897 -0.36742091 0
0.48393559 0.13307047 -0.3597334 0
0.76940012 0.042523861 -0.36321962 0
-0.16010952 0.48340988 -0.35049093 0
-0.057158947 0.45532417 -0.34899789 0
0.021378994 0.41932464 -0.35809231 0
0.12797403 0.39873672 -0.35465169 0
0.22473335 0.32485318 -0.35097757 0
0.38525939 0.28145623 -0.35799181 0
0.72111177 0.20248365 -0.3961243 0
0.79053259 0.11770678 -0.38109431 0
0.16319656 0.48339915 -0.34178048 0
0.22690392 0.42726326 -0.34449714 0
0.3555789 0.40851188 -0.34271482 0
-0.060247421 -0.46842694 -0.35968828 0
0.05237484 -0.49969053 -0.35882795 0
0.19389868 -0.46009851 -0.34576768 0
0.22236252 -0.48595929 -0.32661578 0
0.28515005 -0.42189646 -0.31007046 0
0.3337369 -0.434165 -0.27158681 0
0.38677311 -0.34045982 -0.30183029 0
0.39075089 -0.21018577 -0.26318249 0
0.43233061 -0.25184226 -0.28530341 0
0.39528656 -0.16086721 -0.25959766 0
0.45100975 -0.13606763 -0.27492687 0
-0.88868856 0.43328738 -0.28619307 0
-0.86808825 0.40346289 -0.30471107 0
0.42865849 -0.045418978 -0.30260143 0
0.47451258 -0.066623926 -0.26653802 0
-0.81913519 0.4969523 -0.28229442 0
0.45279932 0.0018591881 -0.28125352 0
0.47900486 -0.0024709702 -0.25899184 0
0.76747036 -0.0073232651 -0.32507956 0
0.79119706 -0.062119961 -0.25868386 0
0.84580541 0.0080623627 -0.31075633 0
0.316535 -0.49479795 -0.230887 0
0.29291821 -0.44156909 -0.22075185 0
0.34376907 -0.40660238 -0.20388559 0
0.40217495 -0.33905363 -0.18938428 0
0.43290901 -0.26148939 -0.19240126 0
0.45820904 -0.16877007 -0.18476999 0
0.48046398 -0.083880663 -0.18143541 0
0.80829716 -0.10510731 -0.18847045 0
0.12012529 -0.47277093 -0.081569351 0
0.35902548 -0.44512463 -0.1104767 0
0.39228868 -0.35957074 -0.092562027 0
0.4226141 -0.26635265 -0.10076235 0
0.45896864 -0.17283058 -0.086204141 0
0.49073792 -0.1167686 -0.10150091 0
0.57953739 -0.11144495 -0.060274616 0
0.35584116 -0.46123123 -0.0052053481 0
0.39213896 -0.36013341 0.014501289 0
0.34403515 -0.27901268 -0.039511986 0
0.40394735 -0.27276802 0.0059909225 0
0.46398401 -0.18785882 0.003008306 0
0.60373592 -0.15132761 0.0015058219 0
0.38320398 -0.46456313 0.087449729 0
0.43532467 -0.49439335 0.13342264 0
0.40039062 -0.36090422 0.096929401 0
0.36725283 -0.27621174 0.088976786 0
0.40992355 -0.27614117 0.10942774 0
0.46526718 -0.19191456 0.10419489 0
0.52938747 -0.17664409 0.1622528 0
0.38936615 -0.44371557 0.17194016 0
0.4243412 -0.48720074 0.21507578 0
0.41667604 -0.3662796 0.20723866 0
0.43022394 -0.2710464 0.198273 0
0.46560574 -0.22942877 0.20672999 0
0.51744509 -0.2119596 0.22347035 0
0.42406225 -0.49356198 0.28957546 0
0.42892456 -0.38095427 0.29043028 0
0.46151161 -0.43015599 0.32025677 0
0.4597764 -0.29666257 0.27649558 0
0.48377228 -0.31163096 0.31729874 0
0.53926325 -0.24629664 0.3009215 0
0.21330166 0.016629457 0.34666571 0
0.17431211 0.089087009 0.3073774 0
0.20751524 0.095429897 0.33493698 0
0.44264412 -0.49892712 0.39482486 0
0.4401474 -0.36508584 0.37685418 0
0.46467495 -0.40707898 0.40551633 0
0.2006464 -0.21345639 0.44549501 0
0.50338078 -0.32434368 0.41555929 0
0.18895912 -0.088326931 0.42384887 0
0.2282815 -0.13613892 0.45241809 0
0.57154751 -0.25677323 0.37565953 0
0.59824896 -0.26554084 0.4301874 0
0.15837908 0.034169674 0.37940282 0
0.18588495 -0.0068230629 0.423971 0
0.20098877 0.050608158 0.39185399 0
0.20289373 -0.31567264 0.52985054 0
0.23528767 -0.38490748 0.54118145 0
0.48427773 -0.42075825 0.49523279 0
0.17856979 -0.17473269 0.51121902 0
0.21898937 -0.24148846 0.50279838 0
0.50538731 -0.36879063 0.46807778 0
0.12471914 -0.06758666 0.54599208 0
0.17965794 -0.094730854 0.50740445 0
0.21166086 -0.16328645 0.49387282 0
0.15526009 -0.0034725666 0.49055916 0
0.1937089 -0.44124198 0.58816087 0
0.22148561 -0.47198629 0.61285233 0
0.20755148 -0.33636022 0.6038689 0
0.25748301 -0.32619905 0.61487502 0
0.48492289 -0.47701597 0.54803127 0
0.15159035 -0.20358658 0.62060344 0
0.22074175 -0.23692393 0.58952916 0
0.11052608 -0.10555601 0.61572725 0
0.14840174 -0.13239908 0.60153753 0
-0.09260273 -0.36435437 0.72144145 0
-0.063047886 -0.32607675 0.72506481 0
0.18135929 -0.43443632 0.68342048 0
0.23178816 -0.45004344 0.69339633 0
-0.084545612 -0.23799801 0.68915689 0
-0.0074157715 -0.27222228 0.73251736 0
0.14218807 -0.33234668 0.7275039 0
0.18370104 -0.35144281 0.69504905 0
0.031823635 -0.19809842 0.71602929 0
0.13997173 -0.22919893 0.68644148 0
0.12622547 -0.14809847 0.67133558 0
0.25868177 -0.14250541 0.75903153 0
0.36551332 -0.069216251 0.75997657 0
0.42836761 -0.028465748 0.74405551 0
-0.081448555 -0.43398333 0.75422275 0
-0.022153378 -0.37771797 0.77633059 0
0.10960579 -0.37397194 0.82908881 0
0.16311407 -0.4579916 0.7918424 0
0.016997814 -0.31228089 0.76480806 0
0.11127901 -0.30054951 0.81198108 0
0.061502934 -0.23786259 0.75913006 0
0.11157703 -0.23747349 0.80069846 0
0.22278786 -0.24042416 0.81270707 0
0.38730431 -0.25670862 0.7794255 0
0.43451691 -0.24960876 0.80110401 0
0.55318117 -0.22220993 0.79419255 0
0.5220027 -0.15715551 0.7883445 0
0.5428381 -0.10812879 0.76947427 0
0.63725615 -0.20091057 0.79605007 0
0.09922266 -0.41065311 0.90366423 0
0.12555408 -0.45379949 0.89172804 0
0.1015749 -0.33115792 0.87835306 0
0.5549593 -0.36085844 0.9299739 0
0.14492655 -0.42700458 0.96383142 0
0.15245676 -0.38103962 0.96495384 0
0.48908043 -0.45710373 1.0402097 0
0.53251743 -0.39874601 1.0111517 0
0.57834721 -0.35672402 0.98842657 0
0.69426298 -0.34005594 0.98560923 0
0.48744106 -0.44242096 1.0797036 0
0.54424191 -0.37500429 1.0753114 0
0.67850637 -0.33730865 1.1101974 0
-0.97169232 -0.3543942 -0.4068222 0
-0.94643354 -0.45114613 -0.41356897 0
-0.85517216 -0.48456526 -0.4139719 0
-0.99867487 -0.21768928 -0.40876663 0
-0.93869805 -0.27867174 -0.40956271 0
-0.87611985 -0.36712193 -0.4046042 0
-0.78023863 -0.41704464 -0.40671045 0
-0.94652843 -0.15771103 -0.40315419 0
-0.82360578 -0.20647383 -0.40422145 0
-0.8165133 -0.27625513 -0.40571588 0
-0.71384287 -0.32392144 -0.40565714 0
-0.64942932 -0.43637395 -0.39947021 0
-0.56332541 -0.48956823 -0.3960925 0
-0.93724823 -0.034815788 -0.37604803 0
-0.85649228 -0.043493748 -0.39254752 0
-0.79284358 -0.14564514 -0.39587957 0
-0.71638513 -0.22469282 -0.39769804 0
-0.66087151 -0.26956463 -0.39400762 0
-0.59593868 -0.31156278 -0.39181888 0
-0.51877165 -0.4195013 -0.3919974 0
-0.40986824 -0.48622966 -0.38584846 0
-0.87601089 0.049662352 -0.39197972 0
-0.81149769 0.010156393 -0.3890909 0
-0.75383401 -0.069221258 -0.38918605 0
-0.69244576 -0.13128066 -0.38572294 0
-0.59771967 -0.17623472 -0.39221066 0
-0.49950933 -0.24024487 -0.38838834 0
-0.45344496 -0.33517718 -0.38858226 0
-0.35077143 -0.39060378 -0.38121933 0
-0.27380943 -0.45845509 -0.37916124 0
-0.83359313 0.21795321 -0.37640241 0
-0.8220036 0.14876866 -0.38540995 0
-0.75140214 0.075028181 -0.38484645 0
-0.67762923 0.013034344 -0.38032585 0
-0.60392356 -0.062096596 -0.38302165 0
-0.54096603 -0.14495683 -0.38320792 0
-0.44049454 -0.17635298 -0.37776637 0
-0.38862801 -0.25324488 -0.37847877 0
-0.31412411 -0.31577253 -0.37569863 0
-0.22139215 -0.38103604 -0.37685204 0
-0.14759159 -0.45467234 -0.37350029 0
-0.92558956 0.38254285 -0.3281163 0
-0.77389932 0.29317999 -0.38096902 0
-0.75059605 0.22551656 -0.381179 0
-0.68478513 0.16675973 -0.3758291 0
-0.60920477 0.085428953 -0.37882721 0
-0.53175187 0.0053842068 -0.37748337 0
-0.46594906 -0.058320284 -0.37866944 0
-0.39155102 -0.092363596 -0.37593222 0
-0.31334543 -0.1698966 -0.37181419 0
-0.2528491 -0.23478937 -0.37644321 0
-0.18955135 -0.30561662 -0.37033701 0
-0.11089659 -0.39248085 -0.37052113 0
-0.015197754 -0.42742825 -0.36550719 0
-0.77643967 0.32078552 -0.37692282 0
-0.68936038 0.26369095 -0.37651804 0
-0.58820987 0.22293234 -0.37688994 0
-0.54037571 0.16310859 -0.37655407 0
-0.44605064 0.10231328 -0.37189293 0
-0.3883338 0.03200078 -0.37519097 0
-0.32195997 -0.044732332 -0.37313569 0
-0.30317259 -0.11040473 -0.37543362 0
-0.14475393 -0.15417981 -0.36750424 0
-0.074185371 -0.23760343 -0.37000847 0
-0.055183887 -0.30699468 -0.36881718 0
0.042199612 -0.33896399 -0.36381111 0
0.1081233 -0.47375464 -0.36112988 0
-0.6296339 0.3155458 -0.37499508 0
-0.55485988 0.28906035 -0.3702203 0
-0.4721663 0.23170662 -0.37243867 0
-0.40299511 0.17224979 -0.36896849 0
-0.34021139 0.10351515 -0.35984528 0
-0.25570536 0.044448853 -0.36404499 0
-0.19472647 -0.038063288 -0.35958752 0
-0.1293149 -0.10301018 -0.35232642 0
-0.0033550262 -0.17279625 -0.35997549 0
0.071855068 -0.23242784 -0.35386461 0
0.18550587 -0.34551668 -0.35779884 0
-0.49395084 0.33621192 -0.36649913 0
-0.4019351 0.30129075 -0.36935028 0
-0.32045054 0.26877975 -0.36270756 0
-0.24698544 0.16098809 -0.36283708 0
-0.13071585 0.076596498 -0.35941488 0
-0.064181805 -0.0035245419 -0.35425565 0
0.029905796 -0.084477425 -0.35511339 0
0.11790657 -0.13451576 -0.35053527 0
0.19872332 -0.28721404 -0.34995368 0
0.26560879 -0.24852943 -0.35697165 0
0.37761259 -0.34209585 -0.35548151 0
-0.37879181 0.4485867 -0.35950303 0
-0.34792924 0.38878441 -0.35870147 0
-0.2378757 0.31011724 -0.35909978 0
-0.19617701 0.22362089 -0.35521984 0
-0.11495495 0.17224407 -0.35080576 0
-0.010829449 0.10715008 -0.3524574 0
0.063719749 0.0373981 -0.34552354 0
0.052096367 -0.015573025 -0.35094911 0
0.18409014 -0.07793951 -0.35474366 0
0.34668112 -0.19112635 -0.36256391 0
0.40556812 -0.27190661 -0.34994727 0
-0.27038741 0.47256303 -0.35157102 0
-0.1811676 0.40183997 -0.35507369 0
-0.13939285 0.32969356 -0.35677648 0
-0.056597233 0.28126836 -0.35175031 0
0.031242371 0.18777251 -0.35139632 0
0.14348316 0.13662601 -0.34888518 0
0.15744591 0.11303926 -0.35637456 0
0.25152636 -0.015688419 -0.35972032 0
0.42469788 -0.13097501 -0.35327351 0
-0.13836861 0.46138525 -0.34387034 0
-0.0094456673 0.36317611 -0.3531006 0
0.089418888 0.27008581 -0.35405087 0
0.20699167 0.19150925 -0.35626134 0
0.30115747 0.074119329 -0.35809267 0
0.44946766 -0.0048911572 -0.36148411 0
0.42988825 -0.076152325 -0.36384684 0
-0.0097541809 0.46762371 -0.34350783 0
0.13188934 0.39750457 -0.3499831 0
0.13707638 0.35284877 -0.35481381 0
0.2473073 0.25811362 -0.356462 0
0.36024237 0.1677978 -0.35871518 0
0.47510242 0.074879885 -0.34733245 0
0.12825227 0.47382903 -0.3435514 0
0.26246333 0.43266487 -0.34450701 0
0.26870608 0.34677505 -0.35218629 0
0.38853049 0.30931759 -0.34918225 0
0.41149688 0.23780274 -0.36097264 0
0.75713944 0.0012087822 -0.34055418 0
0.23891902 0.48429227 -0.33574069 0
0.40974522 0.37102175 -0.34960544 0
0.75688982 0.083608627 -0.38223389 0
0.78046513 0.055963039 -0.33685136 0
0.41351509 0.45813608 -0.34470084 0
0.80473375 0.14831638 -0.38904583 0
-0.94002342 0.41784167 -0.30627459 0
-0.89459276 0.38892317 -0.31600493 0
-0.90722394 0.48808908 -0.29765534 0
-0.86854076 0.44765997 -0.27585435 0
0.1063652 -0.42828369 -0.3517502 0
0.22046566 -0.4973309 -0.33918798 0
0.26787138 -0.4224174 -0.31084621 0
0.34776688 -0.36565447 -0.29611769 0
0.40630674 -0.27892351 -0.29250643 0
0.42414665 -0.1685853 -0.29810387 0
0.44827795 -0.19298863 -0.30588442 0
0.42770815 -0.0022368431 -0.3099336 0
0.44368744 -0.069615364 -0.28109759 0
0.4619832 0.028662682 -0.30076724 0
0.75497675 -0.054454327 -0.26697665 0
0.8040061 0.008105278 -0.30177647 0
0.28907013 -0.45425391 -0.20911996 0
0.35517645 -0.44907832 -0.16307952 0
0.35297585 -0.37374544 -0.19617708 0
0.40405512 -0.29360652 -0.19642308 0
0.45130157 -0.14600348 -0.1799309 0
0.42434502 -0.20442033 -0.18516055 0
0.467134 -0.077083588 -0.1989505 0
0.47260189 -0.1409874 -0.20258556 0
0.52692842 -0.046377659 -0.17185692 0
0.56249285 -0.060280323 -0.14579448 0
0.76087356 -0.074144363 -0.21949305 0
0.30820227 -0.41482782 -0.14807534 0
0.35920143 -0.48396993 -0.11780725 0
0.36614132 -0.38723278 -0.097441278 0
0.3978858 -0.47915649 -0.082453318 0
0.37114859 -0.22485399 -0.046870582 0
0.39982891 -0.28757691 -0.090725414 0
0.41681385 -0.1722734 -0.049643271 0
0.45293188 -0.19263625 -0.097905323 0
0.47196722 -0.10812593 -0.098832607 0
0.49568605 -0.12177563 -0.10233487 0
0.74669838 -0.12692857 -0.12867223 0
0.76325607 -0.1342802 -0.1003319 0
0.37507868 -0.49587798 -0.0026185364 0
0.37362623 -0.37291622 0.00018557906 0
0.39928579 -0.4507854 0.0029943287 0
0.38512659 -0.2936306 -0.0044721663 0
0.43288183 -0.16886163 0.00553523 0
0.42855358 -0.22140837 0.018223941 0
0.49766016 -0.13876319 0.018427148 0
0.69936132 -0.18458176 0.055052772 0
0.38762188 -0.38023806 0.10346748 0
0.40377092 -0.43724537 0.0967246 0
0.39709044 -0.28979373 0.10789594 0
0.42286921 -0.19134808 0.12798637 0
0.42504025 -0.21346688 0.11087562 0
0.47708321 -0.16081357 0.081401825 0
0.62389183 -0.1484046 0.081440568 0
0.3766942 -0.38363123 0.16385713 0
0.3970027 -0.42898178 0.19438386 0
0.41557503 -0.30024242 0.19186373 0
0.44860601 -0.33816433 0.24440575 0
0.46172667 -0.2232821 0.21487622 0
0.53243542 -0.18806601 0.22725645 0
0.41144705 -0.45134139 0.29207671 0
0.41442585 -0.35372066 0.31147301 0
0.44687939 -0.38014507 0.29156899 0
0.18508434 0.026949883 0.34851265 0
0.47757292 -0.26548266 0.30673921 0
0.52045631 -0.28777933 0.32933265 0
0.15975428 0.11327004 0.33954427 0
0.20551586 0.091430426 0.33238009 0
0.62396336 -0.22090125 0.3040095 0
0.71568298 -0.2463913 0.34963983 0
0.44540644 -0.45270777 0.39141083 0
0.19311523 -0.10668111 0.43446231 0
0.21691942 -0.1730969 0.44650933 0
0.46096277 -0.37273121 0.40658671 0
0.18903399 0.014175415 0.41918331 0
0.21322155 -0.041509867 0.41711435 0
0.4688549 -0.31251502 0.37223649 0
0.507658 -0.2843926 0.40860993 0
0.18855524 0.074223042 0.39190334 0
0.57527781 -0.24465132 0.39337063 0
0.66897011 -0.26226759 0.38892508 0
0.21356869 -0.37992406 0.53543186 0
0.20441723 -0.24514437 0.50982761 0
0.21348524 -0.32305455 0.52152586 0
0.43834162 -0.45822525 0.45473513 0
0.1479702 -0.041992903 0.53299844 0
0.17631865 -0.12086725 0.52440441 0
0.2151289 -0.17904258 0.49440315 0
0.48284054 -0.40295005 0.49019045 0
0.49320793 -0.46810341 0.50142658 0
0.16163588 -0.035652161 0.51477242 0
0.4975934 -0.3226347 0.45942503 0
0.17606497 -0.34119034 0.62478685 0
0.19842434 -0.41922927 0.60193145 0
0.19724417 -0.48740292 0.61672992 0
0.16006899 -0.20406055 0.63926661 0
0.20086145 -0.25570416 0.59984994 0
0.22453594 -0.32501769 0.59729588 0
0.13471842 -0.082886457 0.60598969 0
0.16853809 -0.13322377 0.59701496 0
0.20649719 -0.20574093 0.58544838 0
-0.092174053 -0.28454614 0.71908975 0
-0.085431576 -0.36798763 0.72191012 0
0.17583609 -0.4950099 0.68830895 0
-0.10540533 -0.17119622 0.67374188 0
-0.018520832 -0.22487855 0.72554111 0
0.044229507 -0.23093009 0.75325793 0
0.21035624 -0.40944695 0.69347167 0
0.2165575 -0.48716021 0.67972249 0
0.050088882 -0.16681886 0.72453803 0
0.12342548 -0.18451428 0.68318713 0
0.18430376 -0.28612113 0.69204086 0
0.20207596 -0.3368237 0.6737501 0
0.11305714 -0.1373167 0.68357766 0
0.288095 -0.044455051 0.753582 0
0.38977528 -0.021187544 0.75392914 0
-0.038085938 -0.36546254 0.76548338 0
0.011555195 -0.29746962 0.78582454 0
0.13827991 -0.32798576 0.83298218 0
0.15859556 -0.42104578 0.80978918 0
0.097132683 -0.22191119 0.80043727 0
0.13163471 -0.29839325 0.81775832 0
0.19006634 -0.17492843 0.78635395 0
0.46743584 -0.24091339 0.79696649 0
0.56087589 -0.21640778 0.79369843 0
0.61096001 -0.27525663 0.76853228 0
0.5878644 -0.16926622 0.79740602 0
0.08523798 -0.42007804 0.88257098 0
0.11021233 -0.49971533 0.8931945 0
0.1014533 -0.36375237 0.89905363 0
0.15265512 -0.45807314 0.90984154 0
0.081653595 -0.27134633 0.89119756 0
0.55454636 -0.34734464 0.92128813 0
0.66172934 -0.32492113 0.93395519 0
0.088229179 -0.29859471 1.0198108 0
0.1309576 -0.38037968 0.98924845 0
0.14566135 -0.32593155 0.97383249 0
0.49403191 -0.42721272 1.043052 0
0.54667711 -0.3660903 1.0082524 0
0.59343052 -0.32455301 0.97262043 0
0.7014699 -0.31663132 1.043682 0
0.49911165 -0.41095662 1.0798622 0
0.54523849 -0.36476898 1.1066164 0
0.6003561 -0.33086872 1.1248088 0
0.62003136 -0.3265419 1.0756285 0
0.94134831 0.3766377 -0.43068999 0
-0.97408819 -0.34869909 -0.41517493 0
-0.90932155 -0.46743822 -0.41734725 0
-0.98314714 -0.25346589 -0.41427678 0
-0.90118909 -0.29994893 -0.41269636 0
-0.84116888 -0.3762393 -0.41216514 0
-0.77052164 -0.46259212 -0.41366097 0
-0.68272638 -0.48480749 -0.40476537 0
-0.92446446 -0.18450379 -0.40552115 0
-0.86671519 -0.23581958 -0.40692884 0
-0.78664255 -0.31193876 -0.40654784 0
-0.6982584 -0.38002658 -0.40515476 0
-0.63927937 -0.41364431 -0.39942852 0
-0.56445217 -0.48321795 -0.39900792 0
-0.94258904 -0.023898125 -0.38387653 0
-0.84583879 -0.061519384 -0.39667338 0
-0.78216219 -0.1610961 -0.40153211 0
-0.70923281 -0.24273419 -0.40236127 0
-0.63040352 -0.30466628 -0.39657214 0
-0.56191111 -0.35417056 -0.39448166 0
-0.47896051 -0.42273855 -0.38887754 0
-0.43872547 -0.46504688 -0.3902263 0
-0.98357797 0.15723848 -0.39687699 0
-0.92344737 0.11198664 -0.39054212 0
-0.86472607 0.044245005 -0.39400744 0
-0.80211091 -0.022319794 -0.39677435 0
-0.7167232 -0.075658798 -0.38811013 0
-0.662709 -0.17003727 -0.38991395 0
-0.56356096 -0.23094392 -0.39432091 0
-0.46606445 -0.31862569 -0.38856614 0
-0.39337921 -0.37216854 -0.38212997 0
-0.32156467 -0.44433331 -0.37824404 0
-0.21530962 -0.48665643 -0.37739614 0
-0.94086981 0.23349309 -0.39498582 0
-0.86576462 0.20262599 -0.38809246 0
-0.79949641 0.13374376 -0.38971409 0
-0.72345185 0.045687199 -0.39075974 0
-0.64434552 -0.018723965 -0.38511795 0
-0.55173016 -0.10541797 -0.38743222 0
-0.48149824 -0.1452713 -0.38562584 0
-0.40572834 -0.23209071 -0.38704765 0
-0.33690119 -0.28845286 -0.37991539 0
-0.2518611 -0.35785842 -0.37833831 0
-0.16620731 -0.41874719 -0.3757804 0
-0.97005343 0.46275115 -0.35494322 0
-0.92544413 0.40075636 -0.35452113 0
-0.89882255 0.31940031 -0.37827209 0
-0.83450174 0.25950694 -0.38396579 0
-0.74476504 0.20354104 -0.38210896 0
-0.66387391 0.13745952 -0.38431495 0
-0.57682657 0.072983265 -0.38667572 0
-0.50984097 -0.015354395 -0.38253105 0
-0.45565033 -0.075178385 -0.37965593 0
-0.36563969 -0.13668323 -0.37991554 0
-0.29328537 -0.20624638 -0.37552625 0
-0.19582987 -0.29013157 -0.37942272 0
-0.11730623 -0.31393743 -0.36760521 0
0.012598991 -0.41103578 -0.37454373 0
-0.91634488 0.45799422 -0.35864812 0
-0.709167 0.29756284 -0.38256517 0
-0.66660309 0.24789715 -0.37966406 0
-0.58456349 0.1924262 -0.37502837 0
-0.52047205 0.13884091 -0.38199881 0
-0.44641781 0.079215288 -0.37655646 0
-0.42213964 0.017172813 -0.3729673 0
-0.3336978 -0.056923866 -0.37454823 0
-0.23948336 -0.11823678 -0.37418234 0
-0.16240168 -0.18690729 -0.36956179 0
-0.08732605 -0.22457027 -0.35951829 0
0.023499966 -0.34824872 -0.36509198 0
0.10776854 -0.47891283 -0.36351693 0
-0.53478265 0.27337074 -0.37614781 0
-0.44335961 0.20166206 -0.37464389 0
-0.36521912 0.14615011 -0.36810058 0
-0.28614426 0.067153931 -0.3674103 0
-0.22688246 -0.010423183 -0.36874419 0
-0.12334156 -0.055250645 -0.35834748 0
-0.052815437 -0.17968726 -0.36090839 0
0.05118084 -0.27692199 -0.35976994 0
0.17089653 -0.35842443 -0.35711831 0
-0.47416925 0.32121086 -0.36854443 0
-0.40041208 0.27372551 -0.36691988 0
-0.33707786 0.2419405 -0.36190844 0
-0.25225067 0.17123795 -0.36104369 0
-0.17421579 0.094245195 -0.35822093 0
-0.11433554 0.025685787 -0.34866452 0
-0.00016307831 -0.037104845 -0.35228845 0
0.057723999 -0.12340784 -0.3584224 0
0.096099854 -0.2009306 -0.35877091 0
0.20512867 -0.29542398 -0.35322368 0
0.27757311 -0.25596452 -0.36009625 0
0.37485027 -0.3470695 -0.3540144 0
-0.36261892 0.38839054 -0.36218211 0
-0.30911779 0.35739493 -0.36648396 0
-0.24732089 0.2950511 -0.36151963 0
-0.16834736 0.23948526 -0.35615939 0
-0.10657167 0.17428231 -0.35236949 0
-0.048356056 0.10516238 -0.35362798 0
0.19077969 -0.075241804 -0.35783675 0
0.33698177 -0.21807647 -0.363776 0
0.41764545 -0.2929461 -0.35521829 0
-0.36129665 0.49313259 -0.35170618 0
-0.26397657 0.43588996 -0.36260915 0
-0.17052555 0.36424804 -0.35657337 0
-0.12256002 0.28103948 -0.34595019 0
0.020028591 0.21446228 -0.35431057 0
0.10266018 0.10125089 -0.35553646 0
0.25910664 -0.0075581074 -0.3612203 0
0.43317127 -0.15568566 -0.35686898 0
0.45512104 -0.24349976 -0.35572881 0
-0.11833096 0.4797461 -0.35659909 0
-0.019618034 0.36248255 -0.36021972 0
0.08364296 0.28278518 -0.35937762 0
0.19189024 0.20887089 -0.35893625 0
0.34293175 0.055469036 -0.35644662 0
0.40238333 -0.040466785 -0.35285521 0
-0.0076985359 0.44302702 -0.35375279 0
0.097940445 0.38633537 -0.34998274 0
0.20036459 0.26372695 -0.35190511 0
0.3565259 0.15377283 -0.35845655 0
0.48631096 0.072256565 -0.34241974 0
0.23042822 0.39512253 -0.34632128 0
0.26966953 0.32211161 -0.36102748 0
0.4108932 0.24842095 -0.35769981 0
0.74400163 0.015829086 -0.3641642 0
0.3987422 0.36639762 -0.34548265 0
0.77822804 0.069493294 -0.36660212 0
0.77175593 0.14610839 -0.38866609 0
-0.079660892 -0.47222042 -0.362627 0
-0.92533803 0.40310693 -0.30404496 0
-0.93925142 0.49073386 -0.30836958 0
-0.88913107 0.46580005 -0.29610255 0
0.091508389 -0.44636846 -0.35248888 0
0.22128582 -0.43435359 -0.31277913 0
0.27288342 -0.4141202 -0.32811123 0
0.34660912 -0.36768126 -0.29826349 0
0.41834593 -0.27640438 -0.29089218 0
0.43699121 -0.16732383 -0.2758657 0
0.43844128 -0.042913198 -0.29326868 0
0.46928501 -0.084898233 -0.28095347 0
0.47493839 0.024873972 -0.29047784 0
0.77531457 -0.050067902 -0.25932223 0
0.79852772 0.012478828 -0.30686992 0
0.2906003 -0.45023084 -0.22544354 0
0.34454823 -0.3803823 -0.20167711 0
0.41782427 -0.28864574 -0.20627359 0
0.43976688 -0.17413831 -0.18565392 0
0.46142626 -0.22008467 -0.15609547 0
0.46033335 -0.10350966 -0.19386694 0
0.51051092 -0.037501097 -0.20175506 0
0.73761082 -0.12729883 -0.14434265 0
0.78313971 -0.099446774 -0.18653782 0
0.083099365 -0.48412776 -0.077043414 0
0.36557674 -0.49230289 -0.10682585 0
0.35517025 -0.39736032 -0.11901449 0
0.40065289 -0.26020622 -0.088973649 0
0.39700031 -0.31385422 -0.10978036 0
0.43230772 -0.17564011 -0.091773584 0
0.4219594 -0.24944282 -0.049519233 0
0.49072123 -0.11177254 -0.084907502 0
0.84975982 -0.13009596 -0.12585314 0
0.36573076 -0.40801907 -0.0083317906 0
0.38911486 -0.25663233 0.016037911 0
0.39012051 -0.31617451 -0.0047606975 0
0.43296385 -0.20257711 0.00098516047 0
0.48065901 -0.14856219 0.0044899136 0
