# .PCD v0.7 - Point Cloud Data file format
VERSION 0.7
FIELDS x y z intensity
SIZE 4 4 4 4
TYPE F F F F
COUNT 1 1 1 1
WIDTH 1288
HEIGHT 1
VIEWPOINT 0 0 0 1 0 0 0
POINTS 1288
DATA ascii
-0.4189055 -0.45032787 0.062406301 0
-0.40347981 -0.3413868 0.069954276 0
-0.38201356 -0.36169815 0.094782323 0
-0.35970283 -0.2869463 0.074351817 0
-0.31463313 -0.27311563 0.095222473 0
-0.2375679 -0.25515127 0.10925817 0
-0.42312121 -0.46168327 0.17222366 0
-0.37973309 -0.36918068 0.18159968 0
-0.31435227 -0.30095434 0.19541192 0
-0.24422026 -0.29632568 0.23403057 0
-0.26884913 -0.26025581 0.16081783 0
-0.18665028 -0.29474878 0.20351762 0
-0.42223334 -0.46181631 0.26573846 0
-0.39571738 -0.49693632 0.28397876 0
-0.36545086 -0.38941813 0.29023597 0
-0.37500691 -0.43068504 0.28931993 0
-0.31334853 -0.33416271 0.28243127 0
-0.27308011 -0.33352852 0.31369495 0
-0.20073128 -0.33199215 0.3241275 0
-0.48898911 0.091593742 0.27437878 0
-0.48255515 0.054708958 0.30169648 0
-0.46388578 0.12983847 0.26309392 0
-0.42671156 0.10442781 0.26454714 0
-0.44270897 -0.48832226 0.37160975 0
-0.3895328 -0.39984417 0.34936723 0
-0.36243415 -0.42388058 0.38948837 0
-0.56731272 -0.11622334 0.3817665 0
-0.53965735 -0.14422226 0.39091274 0
-0.29601264 -0.36541319 0.41216028 0
-0.52661872 -0.036546707 0.36949807 0
-0.51262426 -0.091807365 0.38578534 0
-0.53051782 0.071115017 0.33883783 0
-0.50049663 0.034409523 0.35433599 0
-0.60041404 -0.34058952 0.48776668 0
-0.60301566 -0.25504208 0.47220546 0
-0.36787057 -0.43946028 0.48613262 0
-0.57836676 -0.12568998 0.43579027 0
-0.56660795 -0.16337681 0.4548074 0
-0.30391812 -0.3895092 0.48536262 0
-0.63364959 0.0092105865 0.47502431 0
-0.56059456 -0.038189888 0.44883376 0
-0.54222417 -0.11142588 0.46983784 0
-0.5657413 0.053814411 0.40165511 0
-0.52967906 0.030365467 0.42043379 0
-0.66538715 -0.43698692 0.56301564 0
-0.64653015 -0.35051632 0.54858249 0
-0.6351769 -0.3849473 0.54055727 0
-0.60722852 -0.2670188 0.54457158 0
-0.62411618 -0.11118937 0.55349565 0
-0.59990859 -0.17384386 0.53785914 0
-0.64493132 -0.025799751 0.53337181 0
-0.60420084 -0.052508831 0.5300529 0
-0.73368478 -0.44589138 0.6174441 0
-0.69913721 -0.45393467 0.63536561 0
-0.65805125 -0.33611727 0.62564039 0
-0.65039825 -0.38677931 0.63482857 0
-0.79890776 -0.088429451 0.62967336 0
-0.67432237 -0.18858004 0.62795794 0
-0.64878154 -0.25741911 0.64000231 0
-0.66517568 -0.11678171 0.63259709 0
-0.62838006 -0.18967199 0.60675722 0
-0.45166445 -0.020850182 0.70924234 0
-0.40670848 -0.07699728 0.74092948 0
-0.32409739 -0.11278725 0.74854267 0
-0.24460983 -0.16133881 0.76383066 0
-0.35165191 -0.028706074 0.71591663 0
-0.29410839 -0.087108612 0.73685431 0
-0.75875735 -0.46275377 0.69379997 0
-0.72722316 -0.45367384 0.70977294 0
-0.70245004 -0.34989119 0.71493435 0
-0.67618442 -0.38886547 0.70179713 0
-0.70346522 -0.19192553 0.69645733 0
-0.67497396 -0.25846195 0.70471001 0
-0.69456363 -0.136549 0.68763983 0
-0.58193898 -0.15924215 0.7590003 0
-0.56556797 -0.094940662 0.727494 0
-0.45797682 -0.1606884 0.76763427 0
-0.39298153 -0.21310854 0.79287744 0
-0.30120659 -0.25362158 0.80023348 0
-0.24193668 -0.29111433 0.80287707 0
-0.3745141 -0.10982513 0.74991369 0
-0.32452607 -0.17185354 0.77364695 0
-0.23364305 -0.2485795 0.79954529 0
-0.21175027 -0.29017162 0.8082875 0
-0.01889658 -0.30003595 0.0049837828 0
-0.44744706 -0.47811222 0.019059151 0
-0.41525626 -0.33004951 0.0014525056 0
-0.40913177 -0.38790083 0.018028229 0
-0.39346933 -0.27438211 0.013954639 0
-0.35056973 -0.28265905 0.018864691 0
-0.34093499 -0.2328701 0.0089788139 0
-0.27792764 -0.2154007 0.018248588 0
-0.16048431 -0.23015881 0.067588925 0
-0.45150685 -0.45501089 0.087390095 0
-0.41087198 -0.36682034 0.093870878 0
-0.39646506 -0.42767906 0.13970956 0
-0.39479589 -0.30260992 0.036965311 0
-0.36146021 -0.28523731 0.094933778 0
-0.2894783 -0.22558546 0.086575806 0
-0.16377974 -0.25790787 0.13085231 0
-0.18806887 -0.23147058 0.097666591 0
-0.44872832 -0.44866371 0.17311576 0
-0.42671895 -0.49145555 0.21745163 0
-0.40125132 -0.36041164 0.19698215 0
-0.3946836 -0.40295935 0.22357228 0
-0.35559726 -0.29007435 0.18847641 0
-0.30056214 -0.31224823 0.2540718 0
-0.30180931 -0.24445343 0.17119214 0
-0.25505161 -0.25468779 0.21864715 0
-0.15042949 -0.27161264 0.21781635 0
-0.42948556 -0.48254871 0.31253269 0
-0.407269 -0.36285353 0.26894617 0
-0.39064217 -0.39350367 0.31114557 0
-0.31708574 -0.31976604 0.31938523 0
-0.25141239 -0.28960228 0.3017419 0
-0.20075083 -0.31701183 0.32361975 0
-0.14335561 -0.3644371 0.35778752 0
-0.42827153 -0.46256208 0.41576707 0
-0.41172218 -0.49903154 0.44727844 0
-0.38354754 -0.39081001 0.404176 0
-0.35149717 -0.38520622 0.44910103 0
-0.3184278 -0.33321667 0.40185753 0
-0.28324747 -0.33832407 0.43804809 0
-0.18672132 -0.36108303 0.46452165 0
-0.54233909 0.0062637329 0.32475808 0
-0.53272057 -0.016640186 0.34602463 0
-0.22646165 -0.31009722 0.40212238 0
-0.50119042 0.07925415 0.3101671 0
-0.48071933 0.018294334 0.32552147 0
-0.47552872 0.14424086 0.265376 0
-0.6336081 -0.27609825 0.4827714 0
-0.44872475 -0.48487186 0.49427751 0
-0.42408371 -0.49291372 0.52153933 0
-0.60452938 -0.18378687 0.45213008 0
-0.60514569 -0.23048306 0.46448603 0
-0.4049027 -0.41199017 0.49071786 0
-0.36052108 -0.40804577 0.49733338 0
-0.57297587 -0.11167002 0.42562652 0
-0.54890895 -0.13963985 0.44693655 0
-0.32337713 -0.34462357 0.47356233 0
-0.55511236 0.034796238 0.40280184 0
-0.54440355 -0.032300949 0.4012363 0
-0.53408527 0.083973408 0.37217253 0
-0.52312469 0.043931484 0.3913022 0
-0.7639215 -0.47407675 0.57318902 0
-0.69909215 -0.39314222 0.56192589 0
-0.653723 -0.38588858 0.56720799 0
-0.64703465 -0.32064295 0.54527867 0
-0.63284135 -0.37121582 0.5804159 0
-0.6355629 -0.16783619 0.54244715 0
-0.60905957 -0.23289442 0.53485584 0
-0.64613366 -0.038627148 0.53180355 0
-0.59653759 -0.082841396 0.5116294 0
-0.57682467 -0.15067101 0.51603049 0
-0.60522628 0.027448654 0.47358227 0
-0.5888555 -0.0077834129 0.49360412 0
-0.74430013 -0.45131493 0.62600166 0
-0.75901198 -0.46953154 0.66735035 0
-0.71716189 -0.4057107 0.64401585 0
-0.69288468 -0.39455652 0.66017354 0
-0.66859865 -0.29233646 0.64860725 0
-0.64784122 -0.33914232 0.65696859 0
-0.86183715 -0.051123142 0.5965327 0
-0.66862583 -0.14395714 0.61874598 0
-0.6474216 -0.21480846 0.624888 0
-0.66250873 -0.023616791 0.5676142 0
-0.64881134 -0.075563431 0.59923804 0
-0.1813221 -0.24463797 0.79791594 0
-0.34836459 -0.0053749084 0.71141279 0
-0.35684776 0.039421558 0.69349504 0
-0.87499571 -0.33713818 0.70023668 0
-0.80919647 -0.44799328 0.75819063 0
-0.77082038 -0.45649099 0.73043561 0
-0.97015119 -0.1928277 0.64025462 0
-0.9234457 -0.23630524 0.68525505 0
-0.73484373 -0.37520933 0.72363782 0
-0.71726084 -0.38489962 0.7253567 0
-0.9023993 -0.10111952 0.61877877 0
-0.85035968 -0.15865231 0.67211628 0
-0.77394891 -0.18752098 0.73617351 0
-0.70686102 -0.27758741 0.71928692 0
-0.84346247 -0.062306881 0.62056386 0
-0.80149722 -0.082268715 0.65203267 0
-0.71777225 -0.13326406 0.70320225 0
-0.68005252 -0.20108891 0.67637992 0
-0.69628978 -0.078086376 0.67167515 0
-0.57984447 -0.14182997 0.75693482 0
-0.50541186 -0.21780062 0.78150696 0
-0.38032699 -0.22024441 0.78307188 0
-0.35984778 -0.24563313 0.78967422 0
-0.40080285 -0.062839508 0.73862362 0
-0.3790257 -0.16131449 0.77553296 0
-0.26851034 -0.2293725 0.78884971 0
-0.43771815 0.0069899559 0.6995697 0
-0.37708592 -0.052304745 0.73411429 0
-0.33488655 -0.096925259 0.74951392 0
-0.26885486 -0.15030289 0.76500624 0
-0.81038165 -0.4124341 0.82890975 0
-0.7884078 -0.43213606 0.84150136 0
-0.81898379 -0.25363302 0.84617817 0
-0.78702283 -0.32804871 0.82999861 0
-0.77177167 -0.19815779 0.81786895 0
-0.75488949 -0.252491 0.79498947 0
-0.75695825 -0.13722324 0.77448106 0
-0.35515118 -0.37734842 0.96066439 0
-0.32240963 -0.36890697 0.9771663 0
-0.24367571 -0.390028 0.96854508 0
-0.78641272 -0.3173399 0.89813244 0
-0.79953074 -0.19465351 0.8645823 0
-0.75081778 -0.24399805 0.94293475 0
-0.45045352 -0.43187571 1.0840591 0
-0.70486426 -0.16014194 0.96014071 0
-0.38482475 -0.38672209 1.0388616 0
-0.30806565 -0.36657715 1.0205401 0
-0.3051548 -0.36629915 1.0780843 0
-0.61346173 -0.0036096573 0.94884223 0
-0.86850524 -0.48070288 1.0526701 0
-0.83127975 -0.47382927 1.0625429 0
-0.75397825 -0.47164059 1.0638604 0
-0.72207046 -0.4241848 1.1099555 0
-0.76488709 -0.21695614 0.98858643 0
-0.46775293 -0.43995619 1.123095 0
-0.70752048 -0.12710524 0.97446191 0
-0.40835333 -0.39228296 1.1443636 0
-0.34259152 -0.36483622 1.1630132 0
-0.6850822 -0.035295963 0.96096027 0
-0.6808095 -0.060799599 0.96470928 0
-0.30437851 -0.36734486 1.1494818 0
-0.33400393 -0.36638355 1.2429812 0
-0.2926991 -0.36773205 1.2178109 0
0.62202191 -0.057581902 -0.38900751 0
0.6469605 -0.14301586 -0.37357068 0
0.67645407 -0.016457081 -0.39171094 0
0.99581027 -0.19699955 -0.4079245 0
0.72623968 0.10817099 -0.38946244 0
0.73049903 0.042118073 -0.39312252 0
0.69459891 0.24217892 -0.37911242 0
0.79845667 0.17454958 -0.3926968 0
0.81939316 0.37402964 -0.36218205 0
0.94579077 0.31106806 -0.37618968 0
0.10680842 -0.071714878 -0.36435843 0
0.044397354 0.10305405 -0.36360329 0
0.15434051 -0.031278133 -0.36558309 0
0.22483397 -0.052581787 -0.35903615 0
0.50382471 -0.22455359 -0.34124759 0
0.49482059 -0.25342703 -0.31721354 0
0.10093975 0.16444969 -0.36491701 0
0.25986886 0.034449577 -0.37059093 0
0.46866989 -0.10564661 -0.37858525 0
0.52076793 -0.22134256 -0.36941651 0
0.57157159 -0.18690872 -0.34351045 0
0.12245989 0.25971127 -0.36202246 0
0.15729213 0.26108551 -0.3649016 0
0.33819485 0.095701218 -0.37414676 0
0.50018334 -0.07950592 -0.37959188 0
0.64627242 -0.13268232 -0.34450328 0
0.16048479 0.37307215 -0.35966274 0
0.398592 0.19032669 -0.37420827 0
0.15031242 0.4586091 -0.35348681 0
0.29212761 0.40376663 -0.35164604 0
0.33125472 0.30784082 -0.36072648 0
0.26463938 0.48651838 -0.34490776 0
0.45885444 0.42345428 -0.34689668 0
0.54801345 0.36648369 -0.35819218 0
0.62806058 0.31009817 -0.36878145 0
0.76342797 0.44273281 -0.35415342 0
-0.71132135 -0.49867773 -0.40545923 0
-0.58524179 -0.44926882 -0.38738701 0
-0.60894299 -0.38437271 -0.38827908 0
-0.53533888 -0.36888695 -0.37843677 0
-0.44731569 -0.43149948 -0.35404605 0
-0.51820064 -0.291152 -0.3785041 0
-0.39442945 -0.35639811 -0.37010166 0
-0.34715343 -0.4022069 -0.3359229 0
-0.42265797 -0.23436213 -0.37728119 0
-0.31228733 -0.27154589 -0.36655098 0
-0.27486396 -0.33465672 -0.33992293 0
-0.34214783 -0.17283964 -0.37555707 0
-0.24632812 -0.21243811 -0.34282357 0
-0.22347569 -0.24877787 -0.32677779 0
-0.25876069 -0.071982861 -0.37055773 0
-0.21426368 -0.12471914 -0.33855733 0
-0.17622209 -0.040157795 -0.34289587 0
0.00074791908 -0.098223209 -0.3572152 0
0.08581996 -0.21430349 -0.26651254 0
0.14442968 -0.2313652 -0.25405908 0
-0.15555525 0.097787857 -0.36367592 0
-0.10674334 0.031906128 -0.36400706 0
-0.021597147 0.047778606 -0.36111382 0
0.14117599 -0.14950085 -0.31900182 0
0.17753601 -0.22063112 -0.25211379 0
-0.099128246 0.15891171 -0.36370829 0
0.029098511 0.077316284 -0.36379656 0
-0.073741674 0.26392651 -0.35781804 0
-0.093836069 0.41083336 -0.3488242 0
-0.051612854 0.34736681 -0.35496715 0
-0.018577337 0.49127436 -0.35237131 0
-0.50811529 -0.49912977 -0.29921225 0
-0.54317951 -0.43992901 -0.32526278 0
-0.44780469 -0.44603157 -0.28351018 0
-0.34357023 -0.39771461 -0.25991499 0
-0.30236173 -0.28154039 -0.25608379 0
-0.28297114 -0.3318224 -0.2541936 0
-0.25491381 -0.18939066 -0.25337687 0
-0.2357204 -0.23792505 -0.24658522 0
-0.20222187 -0.13703012 -0.25615671 0
-0.17386913 -0.16067314 -0.22434592 0
-0.17184234 -0.083864689 -0.28173751 0
-0.12717652 -0.11752415 -0.24020019 0
0.11971879 -0.26760054 -0.18733671 0
-0.50466061 -0.48306227 -0.20083237 0
-0.46061182 -0.46226072 -0.18231407 0
-0.41552567 -0.46955061 -0.16255376 0
-0.36978984 -0.40546894 -0.16615704 0
-0.32377005 -0.29480171 -0.19007796 0
-0.29772472 -0.33609676 -0.14760339 0
-0.27095103 -0.21990585 -0.18434787 0
-0.2416935 -0.2490983 -0.14322814 0
-0.17815423 -0.18797874 -0.14786181 0
-0.10912919 -0.19864893 -0.12157267 0
0.095927477 -0.32237577 -0.094049186 0
-0.73147893 -0.43387508 -0.12023786 0
-0.57478476 -0.49387503 -0.12489271 0
-0.42117333 -0.489254 -0.071712852 0
-0.37022471 -0.40110874 -0.064218491 0
-0.32796049 -0.31946564 -0.05271548 0
-0.25607419 -0.24902391 -0.055340856 0
-0.19764972 -0.21885777 -0.044137031 0
-0.022177219 -0.33093882 0.0024954081 0
0.00816679 -0.332582 0.019570738 0
-0.42911053 -0.48690033 0.028237045 0
-0.4051466 -0.35433865 -0.0039474964 0
-0.3856523 -0.40380907 0.044686854 0
-0.37899852 -0.31204271 0.026870936 0
-0.34112382 -0.31340027 0.044807255 0
-0.2606051 -0.25197506 0.04673788 0
-0.41838574 -0.49351406 0.13459599 0
-0.38931608 -0.41481876 0.13658601 0
-0.39248061 -0.30957174 0.10870081 0
-0.3462522 -0.32818222 0.15550628 0
-0.28870225 -0.26354456 0.14602306 0
-0.20013881 -0.27812099 0.1903685 0
-0.419065 -0.49499989 0.21665972 0
-0.39230394 -0.41968584 0.23468222 0
-0.37306428 -0.46875906 0.27446741 0
-0.33671212 -0.33982277 0.23675022 0
-0.30092549 -0.35870981 0.2724227 0
-0.29524207 -0.29619932 0.2325384 0
-0.23944139 -0.3069768 0.27009305 0
-0.42507124 0.11498785 0.25820857 0
-0.38034725 -0.41284132 0.31537351 0
-0.37179279 -0.45652437 0.35333955 0
-0.33454609 -0.35993576 0.33065432 0
-0.30642867 -0.36372423 0.3642405 0
-0.5176394 -0.057666302 0.35554644 0
-0.22604609 -0.33166504 0.35552317 0
-0.14543986 -0.35252142 0.36666769 0
-0.5109427 0.081729412 0.34367988 0
-0.48476768 0.025767803 0.32886839 0
-0.48523378 0.10890055 0.31185746 0
-0.46205902 0.08687973 0.30326426 0
-0.56226516 -0.27097321 0.46020746 0
-0.37773824 -0.40508175 0.39262602 0
-0.37085748 -0.44677544 0.44295144 0
-0.57535291 -0.15537834 0.42057264 0
-0.55281186 -0.19254732 0.43431029 0
-0.30104303 -0.38653469 0.45926973 0
-0.54007339 -0.070044041 0.41548437 0
-0.51711845 -0.11941195 0.41830683 0
-0.23226666 -0.35054016 0.44648623 0
-0.54619336 0.045095921 0.4246268 0
-0.52174234 0.010942936 0.39802068 0
-0.640095 -0.36072159 0.52581477 0
-0.64286494 -0.40850592 0.53934264 0
-0.60485482 -0.28506136 0.50927067 0
-0.39637494 -0.46528864 0.52346635 0
-0.58370638 -0.13226032 0.50667584 0
-0.57196641 -0.20103455 0.50816059 0
-0.33392763 -0.41520739 0.51111984 0
-0.5782814 -0.062880516 0.50594473 0
-0.53537107 -0.12749863 0.48314804 0
-0.58585978 0.016311646 0.48851147 0
-0.55493951 0.0065817833 0.46737728 0
-0.70474291 -0.45697451 0.62407601 0
-0.65167546 -0.38049936 0.59006828 0
-0.64572239 -0.414258 0.60813922 0
-0.62032914 -0.28868723 0.60364395 0
-0.66543293 -0.070027828 0.5902288 0
-0.63193798 -0.14511108 0.60616088 0
-0.59015512 -0.20413542 0.58918053 0
-0.62949347 -0.036311626 0.56699491 0
-0.61145329 -0.073727608 0.58668029 0
-0.72448397 -0.45314741 0.67931336 0
-0.70656824 -0.47107077 0.68291843 0
-0.65985966 -0.36247349 0.68527782 0
-0.66231251 -0.41175413 0.67727435 0
-0.66348839 -0.20903969 0.66324568 0
-0.64958358 -0.27957106 0.67041659 0
-0.6841414 -0.093648434 0.65199471 0
-0.65732241 -0.14846706 0.65927839 0
-0.26444292 -0.26782751 0.80561447 0
-0.37110996 -0.096413612 0.7525143 0
-0.33277655 -0.15504837 0.77477461 0
-0.23907518 -0.20988846 0.79093921 0
-0.12321448 -0.27324629 0.80821812 0
-0.36859202 -0.00011587143 0.71437097 0
-0.34832978 -0.053195 0.73507679 0
-0.15617228 -0.20734787 0.78362375 0
-0.3420012 -0.24254465 0.80116916 0
-0.32480359 -0.28566217 0.8012265 0
0.94089365 -0.148283 -0.40417197 0
0.49326706 -0.24186659 -0.34394261 0
0.56071496 -0.1808486 -0.36424607 0
0.63971066 -0.12520599 -0.36691257 0
0.59895635 0.42990065 -0.35376805 0
0.73934746 0.36032104 -0.36818883 0
0.88758659 0.2785759 -0.38369784 0
0.79080343 0.49910927 -0.34180644 0
0.12133193 -0.13503838 -0.33685812 0
0.19049215 -0.13901949 -0.31638798 0
0.17589831 -0.091840267 -0.33752555 0
0.44471765 -0.26759529 -0.31370187 0
0.51099324 -0.20977068 -0.32796195 0
-0.53950763 -0.4941535 -0.34369722 0
-0.51398063 -0.49192572 -0.32236454 0
-0.49332905 -0.45094967 -0.32837453 0
-0.43843317 -0.42966604 -0.32972583 0
-0.36210418 -0.39259958 -0.32589149 0
-0.29789853 -0.32612753 -0.30688319 0
-0.28497267 -0.35543108 -0.30097762 0
-0.2490375 -0.22012854 -0.30417508 0
-0.23608661 -0.095632076 -0.28438911 0
-0.22426271 -0.14230347 -0.30195788 0
-0.18807125 -0.070637703 -0.30109486 0
0.088644266 -0.22551489 -0.25432998 0
0.10875106 -0.16127205 -0.31200868 0
0.14172482 -0.18813229 -0.27983633 0
-0.50108409 -0.43684673 -0.30220503 0
-0.4737165 -0.45509243 -0.25159863 0
-0.37401271 -0.3996644 -0.24580279 0
-0.30415177 -0.30560637 -0.23517272 0
-0.29182792 -0.35155487 -0.24030739 0
-0.25563335 -0.23112297 -0.22916409 0
-0.21840072 -0.24455452 -0.17704064 0
-0.21578813 -0.15281057 -0.23240858 0
-0.15902257 -0.16775751 -0.16926175 0
-0.16306829 -0.11743736 -0.24952555 0
0.082585573 -0.27954197 -0.16640764 0
0.093481064 -0.31064892 -0.11070168 0
-0.45199561 -0.46859503 -0.15600741 0
-0.38872552 -0.4008708 -0.15018484 0
-0.35820675 -0.40616417 -0.16037801 0
-0.324862 -0.32141972 -0.13572058 0
-0.31854343 -0.34716892 -0.11423436 0
-0.2630043 -0.23403645 -0.13331762 0
-0.24660039 -0.24635935 -0.093807459 0
-0.22162485 -0.18846846 -0.14809024 0
-0.18449163 -0.19945526 -0.10593033 0
-0.012679815 -0.31865501 -0.0642865 0
0.065185308 -0.34897947 -0.030731022 0
-0.77441478 -0.48916101 -0.11292043 0
-0.44954348 -0.47301912 -0.064062119 0
-0.39438534 -0.3886137 -0.050450444 0
-0.39067054 -0.42724276 -0.040394127 0
-0.34292579 -0.31116247 -0.040821433 0
-0.30951071 -0.30823183 -0.022302151 0
-0.29971337 -0.26812887 -0.041290462 0
-0.24886131 -0.24294853 -0.012940794 0
-0.210747 -0.2259388 -0.051083624 0
-0.40644979 -0.3738203 0.05224517 0
-0.40911031 -0.42043972 0.056802839 0
-0.37714124 -0.30814505 0.052337617 0
-0.35691857 -0.35882664 0.091653168 0
-0.31865478 -0.26169062 0.073309004 0
-0.27209449 -0.24846029 0.061332524 0
-0.42559075 -0.3996644 0.13485709 0
-0.41023922 -0.42460775 0.16128483 0
-0.3843689 -0.31333208 0.1455366 0
-0.35411 -0.33781719 0.17291796 0
-0.33744431 -0.26833677 0.15464705 0
-0.28459144 -0.2675271 0.17159137 0
-0.21499586 -0.28233719 0.22373664 0
-0.40136623 -0.42803049 0.25945801 0
-0.37967253 -0.47662067 0.27076545 0
-0.34341788 -0.34661055 0.26242828 0
-0.28657436 -0.30893946 0.28262305 0
-0.19865704 -0.31715393 0.26891446 0
-0.4662838 0.12897444 0.26113155 0
-0.40565181 -0.43046951 0.36684448 0
-0.38281059 -0.4633956 0.36428541 0
-0.33432269 -0.36197042 0.35381329 0
-0.31248116 -0.36916876 0.38476086 0
-0.54797649 -0.06374836 0.36398891 0
-0.24231076 -0.33675194 0.38403979 0
-0.53348374 0.05391264 0.34060258 0
-0.50404572 0.025075912 0.33956969 0
-0.49950457 0.10818815 0.29409549 0
-0.46636915 0.069496632 0.30822057 0
-0.40249825 -0.43546581 0.45029452 0
-0.38063502 -0.44703913 0.47183919 0
-0.58938146 -0.16539288 0.44364315 0
-0.57340217 -0.21829987 0.45745981 0
-0.35989523 -0.38238049 0.43611428 0
-0.32222438 -0.37373829 0.47058067 0
-0.59656334 -0.011031628 0.4460136 0
-0.55695486 -0.07748127 0.41478592 0
-0.53042817 -0.1307745 0.43117273 0
-0.21433759 -0.36288977 0.45833498 0
-0.21920586 -0.36673927 0.48153266 0
-0.55419612 0.042199612 0.40727237 0
-0.52623177 -0.0010414124 0.40447962 0
-0.66338944 -0.37797022 0.54728723 0
-0.62630224 -0.28421736 0.52696002 0
-0.44758654 -0.47862864 0.51249468 0
-0.40574551 -0.46596146 0.53320473 0
-0.61737561 -0.15583515 0.52357179 0
-0.58811545 -0.2032876 0.51513439 0
-0.62235951 -0.018755913 0.50764906 0
-0.58328295 -0.075148106 0.50095725 0
-0.55182028 0.00088357925 0.48390621 0
-0.7275095 -0.44940424 0.61785066 0
-0.70954227 -0.4881382 0.63974309 0
-0.65831399 -0.37225914 0.61288548 0
-0.65813994 -0.41458321 0.62029284 0
-0.8734777 -0.089308739 0.61032712 0
-0.64002895 -0.29720068 0.62133348 0
-0.64277267 -0.14591122 0.60608518 0
-0.62282372 -0.21915627 0.60273606 0
-0.66251922 -0.048937798 0.58823705 0
-0.62624836 -0.07171154 0.59745634 0
-0.95866966 -0.24856997 0.6573236 0
-0.9423914 -0.2834506 0.69385231 0
-0.74822688 -0.46128845 0.71006656 0
-0.91012859 -0.18275356 0.6525079 0
-0.87943268 -0.23921394 0.6944235 0
-0.69908214 -0.36680841 0.70830214 0
-0.66724777 -0.42765045 0.68308461 0
-0.87853742 -0.13288689 0.64806712 0
-0.82268691 -0.17282963 0.69239849 0
-0.708992 -0.20507383 0.69654083 0
-0.65896726 -0.27793789 0.68670392 0
-0.82610106 -0.080949306 0.63233805 0
-0.72809458 -0.093027592 0.66541028 0
-0.69311714 -0.13285255 0.69721651 0
-0.57369041 -0.15383816 0.77350324 0
-0.39492917 -0.24115229 0.79987407 0
-0.28305554 -0.27589083 0.80497253 0
-0.39632845 -0.11193752 0.75931424 0
-0.34332013 -0.16176224 0.77650154 0
-0.24941063 -0.24488163 0.80151057 0
-0.17541242 -0.31072712 0.76382917 0
-0.33675885 -0.035415649 0.72387481 0
-0.79693699 -0.43770885 0.79862124 0
-0.79721379 -0.29124784 0.80684996 0
-0.77100658 -0.35935211 0.79878592 0
-0.7478435 -0.21506357 0.78334188 0
-0.70635891 -0.25006199 0.78074598 0
-0.73932695 -0.15666389 0.7648887 0
-0.80849123 -0.45550632 0.84909612 0
-0.40159488 -0.43414068 1.02013 0
-0.32471657 -0.40321159 0.98921525 0
-0.24456549 -0.40275383 1.0092111 0
-0.39759803 -0.41236782 1.0357366 0
-0.31584811 -0.39675617 1.05059 0
0.68741441 -0.12174845 -0.39178038 0
0.78578639 -0.10023212 -0.39744508 0
0.82013774 -0.036343098 -0.39592072 0
0.91906595 0.058493137 -0.39888421 0
0.93112326 0.20682287 -0.39384192 0
0.19228625 -0.074083805 -0.35488313 0
0.4713788 -0.25520277 -0.3297579 0
0.19617844 0.059409142 -0.37047377 0
0.44097495 -0.14008093 -0.37587005 0
0.55594277 -0.19997072 -0.34553781 0
0.29992414 0.12193871 -0.37469161 0
0.58562326 -0.13854218 -0.3717126 0
0.29063511 0.2752676 -0.36552271 0
0.31835747 0.20010614 -0.37169817 0
0.36817384 0.445014 -0.34043983 0
0.62979913 0.33738804 -0.36514321 0
0.68781567 0.4924736 -0.33947045 0
0.84254408 0.40727568 -0.35247993 0
-0.78531599 -0.46331549 -0.41659322 0
-0.7162168 -0.37943077 -0.41018549 0
-0.65355945 -0.44488668 -0.39448902 0
-0.59022975 -0.49264526 -0.38876897 0
-0.65586782 -0.30106258 -0.39956233 0
-0.58342934 -0.35794687 -0.38965181 0
-0.51101637 -0.43024158 -0.37211895 0
-0.59785628 -0.23112774 -0.39205542 0
-0.53558064 -0.28732157 -0.38094845 0
-0.4186244 -0.35103559 -0.3733682 0
-0.35371971 -0.39648914 -0.35065895 0
-0.51313353 -0.16439199 -0.38834634 0
-0.43705702 -0.23453426 -0.3793219 0
-0.28837705 -0.31962919 -0.35293436 0
-0.43475199 -0.096526623 -0.38474616 0
-0.33075881 -0.16144419 -0.36481732 0
-0.26236391 -0.24618912 -0.3562794 0
-0.3521843 -0.012399197 -0.38128877 0
-0.24739313 -0.093521595 -0.36880925 0
-0.19977546 -0.15494251 -0.34415919 0
-0.28379488 0.061144352 -0.37925091 0
-0.19584584 -0.037767887 -0.34960252 0
0.087671995 -0.17890692 -0.30581227 0
-0.23771858 0.13505363 -0.37659317 0
-0.15178728 0.066756248 -0.3661944 0
-0.056361675 -0.031381607 -0.35839063 0
0.1028316 -0.14023876 -0.34619722 0
0.16313386 -0.17638493 -0.29840234 0
-0.21435308 0.24299622 -0.37017471 0
-0.16736817 0.20075941 -0.3657864 0
-0.10112453 0.13695288 -0.36463967 0
0.059824705 0.0095057487 -0.36346543 0
0.1790297 -0.10654116 -0.33206075 0
-0.20763326 0.39564085 -0.36096454 0
-0.15982747 0.31591415 -0.36984333 0
-0.10678697 0.27897596 -0.35427061 0
-0.17250347 0.47267675 -0.36009449 0
-0.017729282 0.37112141 -0.35694793 0
-0.019394875 0.48254871 -0.35226402 0
-0.021559954 0.42592907 -0.35428861 0
0.21131253 0.33956385 -0.35577929 0
0.16921854 0.47912359 -0.34672728 0
0.21524358 0.39770699 -0.3536796 0
-0.49063587 -0.45482826 -0.32236516 0
-0.46249461 -0.46473789 -0.29165196 0
-0.36920619 -0.41038942 -0.28971449 0
-0.29118133 -0.34030056 -0.26996514 0
-0.2486763 -0.23611307 -0.27251497 0
-0.22971058 -0.31137037 -0.30997202 0
-0.23900676 -0.1455698 -0.31373122 0
-0.20242977 -0.14573145 -0.26788157 0
-0.19385099 -0.073432446 -0.30956361 0
-0.16901588 -0.088029385 -0.27700645 0
0.09178853 -0.26156378 -0.21392286 0
-0.53540134 -0.49337626 -0.25585768 0
-0.49288678 -0.46662951 -0.25485486 0
-0.46180272 -0.46716404 -0.19326925 0
-0.37245679 -0.40565491 -0.18329331 0
-0.31100845 -0.32597446 -0.17706621 0
-0.2551291 -0.24466419 -0.16877228 0
-0.20345473 -0.19338751 -0.17686999 0
-0.14983463 -0.18787861 -0.15352941 0
0.034363985 -0.31909657 -0.094284356 0
-0.69685841 -0.44527245 -0.11552629 0
-0.44445086 -0.48593426 -0.10209042 0
-0.39316988 -0.40895081 -0.088709921 0
-0.33012009 -0.32701397 -0.078853548 0
-0.3123188 -0.37898684 -0.11622375 0
-0.26368475 -0.25447559 -0.076730579 0
-0.22848487 -0.25179148 -0.044501424 0
-0.2120955 -0.21609259 -0.099475056 0
-0.20199776 -0.22459698 -0.054422557 0
-0.4366231 -0.47351074 -0.0047538579 0
-0.40644002 -0.41295767 0.010490328 0
-0.35329223 -0.4107976 0.029604048 0
-0.35048819 -0.32368135 0.016621888 0
-0.34059238 -0.36643553 0.032704562 0
-0.29174709 -0.26651669 0.022325516 0
-0.23717141 -0.25801563 0.030774266 0
-0.19984198 -0.24204731 -0.0081966519 0
-0.038034916 -0.34400368 0.046860069 0
-0.44007778 -0.45171642 0.1194118 0
-0.40385532 -0.38926506 0.11115807 0
-0.3915832 -0.43893719 0.11689833 0
-0.35811782 -0.32048178 0.11140984 0
-0.3307395 -0.33867931 0.1116232 0
-0.31265497 -0.26569033 0.11009032 0
-0.25220251 -0.26105547 0.1413573 0
-0.40022993 -0.37896538 0.18976331 0
-0.39106274 -0.43290043 0.22236136 0
-0.37522292 -0.32503605 0.17836753 0
-0.33328366 -0.33919334 0.22534242 0
-0.33213973 -0.2778492 0.17957857 0
-0.28002167 -0.29804039 0.23468763 0
-0.19564962 -0.31359529 0.25322235 0
-0.38786817 -0.44670296 0.32390347 0
-0.32867956 -0.36997223 0.33081862 0
-0.25798893 -0.33869457 0.30618119 0
-0.21544909 -0.34036779 0.35719666 0
-0.48740673 0.041451931 0.31706366 0
-0.48190069 0.018693447 0.33539096 0
-0.47150445 0.097331524 0.28645214 0
-0.39447165 -0.46096468 0.42130044 0
-0.36396742 -0.45815945 0.43553841 0
-0.55467105 -0.16837072 0.42267901 0
-0.33938694 -0.40161419 0.4134185 0
-0.30218244 -0.37441969 0.44986627 0
-0.55981493 -0.055081844 0.3590633 0
-0.53677726 -0.078808308 0.40203205 0
-0.21285629 -0.36630011 0.43688947 0
-0.5445075 0.022809505 0.38186663 0
-0.50666475 -0.013222694 0.38332307 0
-0.63270855 -0.36812639 0.51797771 0
-0.59442329 -0.29221439 0.49088693 0
-0.41011977 -0.45498943 0.48630774 0
-0.39016247 -0.47936249 0.51568305 0
-0.59129333 -0.17922974 0.47902584 0
-0.57722259 -0.24672127 0.49248815 0
-0.33187151 -0.41217041 0.5008719 0
-0.59486508 -0.02686739 0.49636522 0
-0.56718063 -0.092496872 0.48595768 0
-0.55969954 0.0069904327 0.45724592 0
-0.53063393 -0.04028368 0.45881087 0
-0.69503975 -0.45441437 0.59358406 0
-0.66473484 -0.39032841 0.58255142 0
-0.63671494 -0.26394606 0.57466817 0
-0.61785173 -0.29182196 0.57250988 0
-0.65852833 -0.098482609 0.56741458 0
-0.61858964 -0.17292786 0.57758123 0
-0.58324432 -0.22513771 0.54331446 0
-0.63586593 -0.051224232 0.56706482 0
-0.61299586 -0.093369007 0.57548094 0
-0.7303462 -0.47274637 0.67740858 0
-0.92105269 -0.18778658 0.64516795 0
-0.89304781 -0.28184462 0.67763001 0
-0.67045569 -0.39699173 0.67174864 0
-0.89059281 -0.13182211 0.64402425 0
-0.80510044 -0.15558338 0.6829229 0
-0.68549037 -0.26019907 0.67502111 0
-0.66660953 -0.31852913 0.66201055 0
-0.81262136 -0.090512276 0.63280594 0
-0.68782735 -0.10643101 0.65701234 0
-0.6602869 -0.17059708 0.64972067 0
-0.37924767 -0.082837582 0.74344635 0
-0.26871419 -0.1735034 0.77275103 0
-0.33331299 -0.053073406 0.72857964 0
-0.25884485 -0.12558889 0.75235689 0
-0.75533032 -0.46096992 0.76010203 0
-0.9422884 -0.25836182 0.69083488 0
-0.82862592 -0.24315405 0.71752775 0
-0.76175857 -0.32417727 0.80350518 0
-0.72442651 -0.39617252 0.75856328 0
-0.78930497 -0.1903615 0.74230796 0
-0.72159505 -0.23372221 0.77632987 0
-0.71873236 -0.15524387 0.75099456 0
-0.6667304 -0.17467928 0.75814164 0
-0.42273617 -0.21980667 0.79632211 0
-0.35870647 -0.26960421 0.80096805 0
-0.31099653 -0.3026948 0.80237639 0
-0.36833596 -0.18367386 0.78301185 0
-0.26463223 -0.24444056 0.80156118 0
-0.1849587 -0.28699112 0.80932772 0
-0.81307268 -0.42129469 0.84419227 0
-0.80946207 -0.46439695 0.83726323 0
-0.77922153 -0.33324718 0.82940483 0
-0.75593042 -0.23293352 0.82663423 0
-0.33329248 -0.41246653 0.97333831 0
-0.27672982 -0.40584946 0.92652386 0
-0.42098594 -0.441957 1.0279971 0
-0.34216189 -0.4133091 1.028079 0
-0.28927755 -0.41184473 1.0262657 0
0.92697906 -0.13375807 -0.40828788 0
0.49638581 -0.21598816 -0.3603071 0
0.43761754 -0.11191893 -0.380032 0
0.55729389 -0.19802475 -0.34305125 0
0.55007744 -0.11540318 -0.3854197 0
0.65212488 -0.12007523 -0.37032005 0
0.28304386 0.25041723 -0.37275228 0
0.71169639 0.41529989 -0.36298424 0
-0.963763 -0.42398119 -0.45030275 0
-0.90805387 -0.45846653 -0.43581367 0
-0.98957515 -0.30517626 -0.45721805 0
-0.91308999 -0.33261251 -0.4414582 0
-0.84547448 -0.39627218 -0.4263792 0
-0.75194931 -0.46761608 -0.41179499 0
-0.94237113 -0.21762657 -0.45237666 0
-0.8520062 -0.27695084 -0.43614143 0
-0.74879503 -0.3207674 -0.41822028 0
-0.68656397 -0.37621689 -0.40797636 0
-0.6451304 -0.4326148 -0.39740288 0
-0.96226525 -0.055354118 -0.46356854 0
-0.88297462 -0.13011408 -0.45027438 0
-0.79773068 -0.20716 -0.43168634 0
-0.7041955 -0.22833633 -0.41268554 0
-0.62998605 -0.30511045 -0.39901969 0
-0.559515 -0.36078072 -0.39053088 0
-0.49926591 -0.42670345 -0.37623015 0
-0.93391609 0.065815449 -0.46030617 0
-0.88562775 0.0057067871 -0.45524839 0
-0.80703902 -0.048546791 -0.44014806 0
-0.73185372 -0.10429144 -0.42456385 0
-0.61982942 -0.17733383 -0.40304291 0
-0.56478906 -0.22683334 -0.39099291 0
-0.49751949 -0.2742815 -0.37952852 0
-0.40772724 -0.37559843 -0.37077701 0
-0.87216449 0.14089727 -0.45395821 0
-0.83513284 0.089959621 -0.44985911 0
-0.75542331 0.033466339 -0.43328896 0
-0.68134356 -0.039849281 -0.41473526 0
-0.58191276 -0.074802399 -0.39942166 0
-0.47451401 -0.16279316 -0.38729668 0
-0.40822291 -0.22575808 -0.37660697 0
-0.2713747 -0.32145548 -0.36415082 0
-0.81411862 0.21747208 -0.44833407 0
-0.75944972 0.17587852 -0.43597853 0
-0.70867157 0.09399271 -0.42665872 0
-0.6210556 0.050282478 -0.40540719 0
-0.55128908 -0.025606155 -0.39684111 0
-0.452811 -0.011237621 -0.39127141 0
-0.39250159 -0.10626602 -0.38426316 0
-0.29746461 -0.18223333 -0.36844796 0
-0.22279358 -0.23226786 -0.36266592 0
-0.76389527 0.29599619 -0.44324961 0
-0.70185828 0.25595617 -0.43119764 0
-0.63985658 0.17823601 -0.42157125 0
-0.55667305 0.12159157 -0.4015972 0
-0.41075993 0.033802986 -0.38883778 0
-0.33040833 -0.033305645 -0.37904242 0
-0.22134161 -0.10484457 -0.36004516 0
-0.7080822 0.37553883 -0.4398219 0
-0.6364181 0.33791876 -0.4281618 0
-0.58431602 0.26095438 -0.41698414 0
-0.49926472 0.22818804 -0.40306756 0
-0.42869711 0.15215492 -0.3957386 0
-0.35160422 0.086794853 -0.38714236 0
-0.26337814 0.047389984 -0.37463245 0
-0.16204786 -0.01612854 -0.3584455 0
-0.65103889 0.46410751 -0.43141666 0
-0.61612868 0.38698006 -0.4212175 0
-0.50858045 0.3485899 -0.41521847 0
-0.43709946 0.29649782 -0.40181112 0
-0.36175299 0.23928213 -0.39236537 0
-0.28825545 0.16209698 -0.38398758 0
-0.19096851 0.11009216 -0.37343669 0
-0.083215714 0.051482201 -0.36486512 0
0.11732078 -0.1210885 -0.34266695 0
0.17181039 -0.17403555 -0.29597855 0
-0.4618516 0.4159174 -0.41265905 0
-0.37687898 0.37913895 -0.39985257 0
-0.26528192 0.31374407 -0.38649261 0
-0.21573138 0.24352837 -0.38214055 0
-0.14146852 0.18025494 -0.37065658 0
-0.052630186 0.095168114 -0.36224416 0
0.030040741 0.11828184 -0.36575988 0
0.15128613 -0.055168629 -0.35920194 0
0.46322227 -0.25687695 -0.33398202 0
-0.39382648 0.49411297 -0.39956674 0
-0.29426479 0.45468903 -0.3869479 0
-0.2383709 0.39622402 -0.37506211 0
-0.1589644 0.33479691 -0.36414805 0
-0.10356545 0.26020241 -0.36701551 0
0.093618393 0.1411953 -0.36805785 0
-0.20737886 0.48672438 -0.36434057 0
-0.10234094 0.43235397 -0.35465017 0
0.20747137 0.18235731 -0.37281969 0
0.26721787 0.32998943 -0.36667445 0
0.1914134 0.44774961 -0.35456789 0
0.2339139 0.38792324 -0.36096808 0
-0.57729864 -0.48531961 -0.38145384 0
-0.51993656 -0.4701786 -0.32163495 0
-0.46454954 -0.42806005 -0.31841496 0
-0.40960407 -0.4275341 -0.3119247 0
-0.38407397 -0.38620043 -0.34716952 0
-0.3652873 -0.38545942 -0.30100995 0
-0.28043747 -0.31618404 -0.28993547 0
-0.26490116 -0.17959404 -0.28254578 0
-0.25009942 -0.23372364 -0.28790835 0
-0.22162318 -0.11237621 -0.30065292 0
-0.1953721 -0.14991808 -0.26051262 0
-0.16628885 -0.060237885 -0.29919088 0
-0.11421633 -0.12797165 -0.23571536 0
0.13299346 -0.22830439 -0.23195112 0
-0.51498008 -0.47156334 -0.24088135 0
-0.46375012 -0.44889832 -0.22854835 0
-0.44565916 -0.46790981 -0.17447269 0
-0.41637754 -0.39054251 -0.18457437 0
-0.36991644 -0.39612675 -0.20265567 0
-0.30315065 -0.32302189 -0.19214872 0
-0.24832988 -0.23583746 -0.1878944 0
-0.2297287 -0.13689899 -0.2080844 0
-0.18727732 -0.17043877 -0.18102407 0
0.050095081 -0.28464127 -0.14434141 0
0.076061487 -0.29340935 -0.11912927 0
-0.71366668 -0.42883015 -0.12120858 0
-0.46041608 -0.45570946 -0.1477218 0
-0.43509054 -0.47498274 -0.11896542 0
-0.38032866 -0.39512396 -0.10217535 0
-0.32193422 -0.31009483 -0.10359329 0
-0.31003308 -0.25168896 -0.12535873 0
-0.25397277 -0.24101734 -0.08367753 0
-0.20200753 -0.19537592 -0.087656885 0
-0.017669678 -0.31837463 -0.018891484 0
-0.43854642 -0.49962282 -0.0079999864 0
-0.4178853 -0.34657574 0.022526145 0
-0.39640832 -0.39826441 -0.007272929 0
-0.33605838 -0.30624294 -0.0054047108 0
-0.25942588 -0.24313211 0.014943987 0
0.0016152859 -0.32682037 0.0057317913 0
-0.42655325 -0.49695444 0.088234961 0
-0.40085912 -0.40879774 0.097934157 0
-0.37148333 -0.29102182 0.058168977 0
-0.35320401 -0.31095219 0.099317044 0
-0.34093618 -0.24503088 0.1221627 0
-0.27034688 -0.24134398 0.10459247 0
-0.21951556 -0.2526989 0.15506381 0
-0.3956995 -0.42863607 0.19800779 0
-0.34911537 -0.3330307 0.19913372 0
-0.28359818 -0.2726593 0.19394842 0
-0.21736574 -0.29959869 0.25095838 0
-0.44542313 -0.49026632 0.27105224 0
-0.39355636 -0.41668081 0.29998547 0
-0.3772862 -0.44062138 0.33347219 0
-0.32867765 -0.35523224 0.29657722 0
-0.30465651 -0.33682775 0.3382462 0
-0.24474883 -0.31235313 0.31568965 0
-0.5076263 0.095511913 0.30174765 0
-0.5038991 0.037798882 0.31329173 0
-0.48410463 0.11768246 0.2873877 0
-0.48451018 0.082411289 0.28205374 0
-0.39897847 -0.42587805 0.38517049 0
-0.38289094 -0.45091391 0.41551051 0
-0.5875442 -0.14437675 0.40263751 0
-0.55316758 -0.17026854 0.41988495 0
-0.35434866 -0.36672497 0.40333056 0
-0.31344867 -0.3595047 0.42472234 0
-0.53798795 -0.065731525 0.38619655 0
-0.23072839 -0.33998823 0.39242303 0
-0.17702746 -0.3513217 0.41630062 0
-0.52783275 0.052205086 0.34173864 0
-0.51226854 0.022922993 0.37979978 0
-0.48740387 0.096622467 0.33498725 0
-0.62047005 -0.35827637 0.5089649 0
-0.60900307 -0.27667522 0.48284984 0
-0.37998772 -0.45631838 0.48868224 0
-0.57925773 -0.1462636 0.48379022 0
-0.56969571 -0.1884532 0.47896299 0
-0.32267928 -0.39118433 0.471425 0
-0.59269142 0.0014119148 0.49835181 0
-0.57052493 -0.060504436 0.4749715 0
-0.53179789 -0.11136389 0.44071421 0
-0.58409381 0.027835369 0.43540022 0
-0.54248738 0.019238472 0.45660645 0
-0.71288514 -0.43322468 0.58036113 0
-0.6492157 -0.37843657 0.56685442 0
-0.63895154 -0.21936607 0.59064376 0
-0.6277802 -0.28261805 0.56604481 0
-0.62654662 -0.13164425 0.57789052 0
-0.58677173 -0.20080853 0.56209075 0
-0.65057468 -0.0386343 0.56839263 0
-0.61691189 -0.062963486 0.55741513 0
-0.94291854 -0.27035856 0.66094691 0
-0.72193742 -0.44665861 0.65986502 0
-0.69048858 -0.4660902 0.61543739 0
-0.92663121 -0.16408014 0.64218915 0
-0.89380336 -0.22502708 0.67331827 0
-0.67848277 -0.36279058 0.67063427 0
-0.63884568 -0.39919662 0.63297284 0
-0.86780524 -0.1047101 0.62601745 0
-0.79733539 -0.15268469 0.67820215 0
-0.67754817 -0.21975994 0.66128939 0
-0.65925908 -0.29302216 0.65512228 0
-0.8000226 -0.077020168 0.64043987 0
-0.66885495 -0.13105202 0.65806323 0
-0.50646377 -0.068843365 0.72325182 0
-0.34244919 -0.089079857 0.74875963 0
-0.14918375 -0.32823229 0.76593447 0
-0.39765716 0.0082287788 0.71360767 0
-0.75401711 -0.44378185 0.74503422 0
-0.83880377 -0.24267817 0.72611487 0
-0.69604778 -0.37284136 0.72614694 0
-0.72954774 -0.19548035 0.7405684 0
-0.71121764 -0.12193775 0.72697484 0
-0.68277669 -0.16754913 0.75163507 0
-0.53899074 -0.18998289 0.76181757 0
-0.5853622 -0.13008928 0.73432183 0
-0.37926412 -0.23039198 0.79865515 0
-0.30838466 -0.27223206 0.80138803 0
-0.28845358 -0.1795435 0.78255868 0
-0.20425153 -0.26224136 0.80994868 0
-0.38418126 -0.40136051 0.9453553 0
-0.28233933 -0.38759708 0.93575537 0
-0.2738409 -0.38787699 0.96424997 0
0.84189606 -0.138309 -0.40154055 0
0.96316242 -0.12185812 -0.40615091 0
0.51089239 -0.23751163 -0.33679458 0
0.3604672 -0.067041397 -0.37459835 0
0.55949235 -0.18286896 -0.36126217 0
0.56170964 -0.08251667 -0.38474524 0
0.63283038 -0.15083265 -0.34717885 0
-0.95117903 -0.45012188 -0.43715751 0
-0.9314487 -0.30642176 -0.44727492 0
-0.89377642 -0.36225843 -0.43498662 0
-0.83817625 -0.42355108 -0.42669502 0
-0.76809525 -0.47657871 -0.41070545 0
-0.97189903 -0.17745447 -0.45790398 0
-0.87445903 -0.24052095 -0.4381991 0
-0.82116866 -0.28854132 -0.4343226 0
-0.76527643 -0.34067583 -0.4149757 0
-0.69878459 -0.42007828 -0.40423378 0
-0.61395097 -0.47544813 -0.3886281 0
-0.98426557 -0.056197166 -0.47059739 0
-0.92280269 -0.072007179 -0.45668945 0
-0.84919286 -0.1409235 -0.44004256 0
-0.76149631 -0.22909498 -0.42549029 0
-0.67447186 -0.26372004 -0.40785766 0
-0.62090397 -0.34495401 -0.39597738 0
-0.52667117 -0.39697933 -0.38063991 0
-0.95031619 0.044591427 -0.46243793 0
-0.86291051 0.004796505 -0.4484773 0
-0.77069807 -0.063514233 -0.4296858 0
-0.71483016 -0.15260935 -0.41803175 0
-0.61430264 -0.20469856 -0.40271211 0
-0.55181432 -0.26206207 -0.38724416 0
-0.49304605 -0.35565805 -0.37492606 0
-0.38484788 -0.36723232 -0.3637287 0
-0.96757269 0.19906998 -0.47159255 0
-0.88247442 0.14609432 -0.45386755 0
-0.81212473 0.080733776 -0.43924609 0
-0.76913071 0.025202274 -0.42539418 0
-0.64181018 -0.060499191 -0.41106912 0
-0.57328582 -0.12133074 -0.39290419 0
-0.50726557 -0.21864176 -0.38321438 0
-0.44199991 -0.19897795 -0.38413993 0
-0.33632517 -0.28344297 -0.36934924 0
-0.29981542 -0.33486462 -0.35133484 0
-0.94971204 0.31645679 -0.46621323 0
-0.92673564 0.26096582 -0.46326837 0
-0.81277084 0.20438004 -0.44507834 0
-0.72768474 0.13236141 -0.43039826 0
-0.6369276 0.074302197 -0.40665576 0
-0.58675122 0.014799118 -0.40107495 0
-0.49500394 -0.066668034 -0.39033487 0
-0.43881798 -0.044708729 -0.3911413 0
-0.36519957 -0.15219641 -0.38098758 0
-0.27671146 -0.21262503 -0.36332458 0
-0.24508548 -0.29112816 -0.34982124 0
-0.90054941 0.35577202 -0.46561924 0
-0.84121633 0.35448885 -0.4591186 0
-0.77135396 0.28526115 -0.44221047 0
-0.68847322 0.24403048 -0.42958257 0
-0.61597562 0.15009403 -0.41197634 0
-0.48314238 0.091944218 -0.39273068 0
-0.44969511 0.025108814 -0.38848075 0
-0.38235426 0.052799225 -0.38221484 0
-0.29392076 -0.07763958 -0.37500307 0
-0.20292473 -0.11811161 -0.34992623 0
-0.85194802 0.46168423 -0.45874318 0
-0.79248595 0.4410243 -0.45280099 0
-0.71748185 0.37639189 -0.4380497 0
-0.63238883 0.32241058 -0.42116642 0
-0.560853 0.25074625 -0.41355059 0
-0.49936557 0.19117022 -0.40318778 0
-0.43324041 0.14101791 -0.3905125 0
-0.33427691 0.09428215 -0.38068458 0
-0.24263906 -0.0089073181 -0.36985275 0
-0.17899418 -0.044662952 -0.34253123 0
-0.65690541 0.44688129 -0.43180469 0
-0.56885791 0.39776945 -0.41923442 0
-0.50018001 0.33819437 -0.40963751 0
-0.43029261 0.2634449 -0.40091038 0
-0.34586883 0.21166754 -0.38955265 0
-0.25579524 0.17366743 -0.37768829 0
-0.16290808 0.058112144 -0.36814076 0
0.026219845 -0.069406033 -0.36115244 0
0.12677574 -0.15183973 -0.31873742 0
-0.50161648 0.46560192 -0.41226229 0
-0.430758 0.4126811 -0.40156186 0
-0.36369872 0.34732294 -0.39071953 0
-0.29329944 0.29731894 -0.3854748 0
-0.18169165 0.26346779 -0.36596179 0
-0.099653721 0.15320063 -0.36316776 0
0.17677689 -0.069607735 -0.35814515 0
-0.34762764 0.48035765 -0.3889989 0
-0.2770803 0.44666624 -0.37498793 0
-0.2191267 0.39476061 -0.37287974 0
-0.15195394 0.33923721 -0.37184367 0
-0.020484447 0.27455759 -0.3582404 0
0.52814817 -0.20305681 -0.33250421 0
-0.16803122 0.47040176 -0.36122701 0
0.040504932 0.2947135 -0.36039206 0
0.15866709 0.33708572 -0.36498794 0
0.086008072 0.48043394 -0.351731 0
0.15151739 0.41495037 -0.35993564 0
0.34509015 0.44701624 -0.33998176 0
-0.8922646 -0.42252827 -0.42200151 0
-0.56372237 -0.47328568 -0.3537268 0
-0.51451182 -0.43739414 -0.34807292 0
-0.46435642 -0.44313526 -0.29968446 0
-0.36565685 -0.3931365 -0.29795697 0
-0.32718325 -0.38638639 -0.29642332 0
-0.29539776 -0.30701685 -0.29406416 0
-0.28850317 -0.32278299 -0.27605122 0
-0.25481176 -0.22170782 -0.2951037 0
-0.2097342 -0.20420122 -0.26840302 0
-0.21315455 -0.13666868 -0.28207523 0
-0.17720652 -0.16385555 -0.26584849 0
-0.17808843 -0.07674408 -0.29276517 0
0.081833601 -0.2156949 -0.25080901 0
0.137609 -0.24763107 -0.21659666 0
-0.46583867 -0.46432924 -0.21214712 0
-0.39238954 -0.4103961 -0.20696896 0
-0.35638857 -0.39090967 -0.18448761 0
-0.32333612 -0.31645393 -0.19977733 0
-0.2929461 -0.3320055 -0.19230396 0
-0.25492716 -0.22494936 -0.19366744 0
-0.25382423 -0.25875044 -0.17351583 0
-0.215065 -0.17655802 -0.16264132 0
-0.16761088 -0.16627073 -0.19182438 0
0.040842533 -0.28865576 -0.13240469 0
0.063319921 -0.27562857 -0.17650101 0
-0.77677202 -0.48185778 -0.11983043 0
-0.70950794 -0.45306396 -0.11315441 0
-0.45691228 -0.47315741 -0.11912838 0
-0.41061044 -0.3991313 -0.099065155 0
-0.37257552 -0.40899277 -0.11058989 0
-0.35253239 -0.31468534 -0.084216028 0
-0.312639 -0.32067204 -0.097862959 0
-0.26536274 -0.22195864 -0.067356944 0
-0.245327 -0.24044895 -0.09041363 0
-0.16999269 -0.19885254 -0.10354117 0
-0.017802 -0.32115316 -0.042819351 0
-0.43680644 -0.4848814 -0.0077243149 0
-0.39938021 -0.38874626 0.0032931864 0
-0.38738537 -0.41032076 -0.012127936 0
-0.34659553 -0.29444551 0.022296757 0
-0.34125328 -0.33580256 -0.025527239 0
-0.28729153 -0.25125027 -0.025408834 0
-0.24726725 -0.25228596 0.01030454 0
-0.19195104 -0.23681164 0.015049815 0
-0.4537313 -0.44788933 0.055217415 0
-0.40301538 -0.35730696 0.084303021 0
-0.40182567 -0.41210175 0.097329259 0
-0.35922527 -0.29595661 0.10042191 0
-0.33523035 -0.25062799 0.097378254 0
-0.24338651 -0.25335979 0.10629967 0
-0.18420315 -0.28015184 0.14973852 0
-0.44083285 -0.41347361 0.18230122 0
-0.39917827 -0.42791271 0.19524267 0
-0.37823486 -0.3206315 0.17130631 0
-0.34362531 -0.33618116 0.20965183 0
-0.32162476 -0.26004362 0.17213279 0
-0.27357364 -0.28393269 0.20306826 0
-0.38912272 -0.43151855 0.28651449 0
-0.39829564 -0.3436656 0.26684612 0
-0.32741761 -0.35635757 0.30212614 0
-0.27788472 -0.32512665 0.31823626 0
-0.21282053 -0.31997204 0.30797303 0
-0.15203428 -0.3529439 0.36717442 0
-0.47870231 0.058613777 0.29277909 0
-0.47119331 0.021845818 0.32083878 0
-0.4659667 0.10651207 0.28690088 0
-0.37830472 -0.4343257 0.39591864 0
-0.38370514 -0.47914648 0.39721841 0
-0.56045914 -0.16112852 0.41358092 0
-0.33008289 -0.36617517 0.4047378 0
-0.30430055 -0.38251734 0.44414178 0
-0.56048369 -0.0139184 0.41929519 0
-0.53488588 -0.073862076 0.39133018 0
-0.26292872 -0.34067774 0.39883938 0
-0.53453636 0.03643322 0.36968169 0
-0.5023551 0.012837887 0.366952 0
-0.64874482 -0.37293625 0.51634854 0
-0.43025231 -0.49483633 0.5378536 0
-0.61877227 -0.23778105 0.44743642 0
-0.61497068 -0.30099154 0.50210381 0
-0.39587235 -0.45389938 0.49549264 0
-0.3805387 -0.47698069 0.4901168 0
-0.59529805 -0.19130707 0.47966212 0
-0.55037069 -0.1922555 0.47569597 0
-0.35170436 -0.40930796 0.46529594 0
-0.28653312 -0.37993193 0.46898055 0
-0.5983429 -0.021136761 0.49166688 0
-0.55714893 -0.085071564 0.47731242 0
-0.55336523 0.02840662 0.45175523 0
-0.52682924 -0.0082445145 0.43446374 0
-0.68083 -0.44962788 0.59622645 0
-0.65901136 -0.39534903 0.57703364 0
-0.63593006 -0.23843765 0.56387782 0
-0.62965894 -0.3040843 0.57372105 0
-0.64696789 -0.11679459 0.58738053 0
-0.62079191 -0.16922188 0.57612002 0
-0.59501767 -0.2375102 0.53592324 0
-0.61978841 -0.061107159 0.56372309 0
-0.9633522 -0.28680277 0.66459846 0
-0.72097135 -0.46464777 0.66808259 0
-0.90719199 -0.21349382 0.66011721 0
-0.66541791 -0.39743137 0.6700933 0
-0.9034543 -0.093669415 0.62203038 0
-0.85599828 -0.12358284 0.65147448 0
-0.78919911 -0.1329937 0.6869067 0
-0.68704343 -0.2539897 0.66801721 0
-0.64659119 -0.30794048 0.66540587 0
-0.68039632 -0.11017227 0.66549861 0
-0.65467668 -0.17361879 0.65323979 0
-0.65610909 -0.057994366 0.61950314 0
-0.32345843 -0.094110966 0.74734306 0
-0.7581861 -0.44656801 0.75180829 0
-0.88129401 -0.20202589 0.68852866 0
-0.8281374 -0.25119734 0.72487903 0
-0.73152995 -0.33803129 0.79784834 0
-0.7133441 -0.37529707 0.72554576 0
-0.77886081 -0.1727314 0.73156953 0
-0.71104312 -0.22879887 0.77646053 0
-0.71560788 -0.16261816 0.76038826 0
-0.66035914 -0.18029356 0.77155095 0
-0.579916 -0.13549471 0.73246932 0
-0.44082808 -0.24985313 0.79982245 0
-0.2895081 -0.27297592 0.79680181 0
-0.2788465 -0.31127214 0.80190718 0
-0.38732576 -0.12590122 0.76471204 0
-0.27085114 -0.20976973 0.79080927 0
-0.24132657 -0.27379274 0.80800927 0
-0.81456423 -0.41370487 0.81373692 0
-0.7949717 -0.44962931 0.83408523 0
-0.76436543 -0.33359814 0.8197428 0
-0.71742845 -0.26581573 0.8130793 0
-0.36663532 -0.40223312 0.94151688 0
-0.2001164 -0.42573833 0.96917814 0
-0.35165477 -0.40718269 0.98039514 0
-0.23617911 -0.40705204 1.0106769 0
0.96291518 -0.088480949 -0.40278134 0
0.28195238 0.0031466484 -0.37141865 0
0.57023311 -0.18697119 -0.34851041 0
0.42525697 0.0040845871 -0.37685785 0
0.63925457 -0.14393425 -0.36468449 0
0.81715894 -0.088361263 -0.39775136 0
0.41194487 0.30643082 -0.35653424 0
-0.91372609 -0.32864952 -0.45018139 0
-0.86228967 -0.38355017 -0.43306231 0
-0.78728676 -0.45424986 -0.41972697 0
-0.94509912 -0.20164394 -0.45400584 0
-0.87068343 -0.25884104 -0.43918315 0
-0.78355122 -0.31184721 -0.4245424 0
-0.72824836 -0.37625074 -0.40822369 0
-0.97875762 -0.058026791 -0.46264559 0
-0.89836526 -0.12516499 -0.44734657 0
-0.80124116 -0.18397665 -0.43076748 0
-0.72834539 -0.24928141 -0.41732752 0
-0.67131019 -0.31598854 -0.40146467 0
-0.57506156 -0.38352489 -0.38781393 0
-0.46642637 -0.43483925 -0.37076753 0
-0.99921632 0.093211174 -0.47673786 0
-0.94107914 0.019874573 -0.45840821 0
-0.85434175 -0.018254757 -0.44169915 0
-0.75869989 -0.099540234 -0.42801628 0
-0.6677506 -0.16268969 -0.40773764 0
-0.60239315 -0.24586535 -0.39513272 0
-0.50902796 -0.29983187 -0.37811255 0
-0.36929703 -0.39296818 -0.36603364 0
-0.94343424 0.16506624 -0.46509513 0
-0.83885217 0.094867706 -0.445802 0
-0.78165483 0.041640759 -0.43224826 0
-0.70140171 -0.028376102 -0.41964927 0
-0.61142111 -0.07590723 -0.39896008 0
-0.53198051 -0.16076231 -0.38681576 0
-0.38334703 -0.25792313 -0.37712148 0
-0.2814436 -0.30816364 -0.35795057 0
-0.94593453 0.30164242 -0.47246525 0
-0.87781072 0.25841236 -0.45752504 0
-0.80878258 0.18587303 -0.44460028 0
-0.70428133 0.11027622 -0.42292857 0
-0.60915685 0.066919327 -0.40792948 0
-0.56637502 0.0038156509 -0.40073907 0
-0.41930532 -0.097053528 -0.38332614 0
-0.24428439 -0.20796108 -0.36730561 0
-0.98127413 0.44641829 -0.48339984 0
-0.89040351 0.37798405 -0.46140105 0
-0.81910729 0.31724024 -0.45356825 0
-0.75670671 0.28035307 -0.43694383 0
-0.66742015 0.1969409 -0.42289016 0
-0.56716347 0.12918472 -0.40298647 0
-0.47451329 0.04841423 -0.39146963 0
-0.35807633 -0.035813332 -0.37869096 0
-0.22821021 -0.13555193 -0.35511875 0
-0.86803699 0.45874834 -0.46530083 0
-0.75940323 0.42235374 -0.44960898 0
-0.67577291 0.33889437 -0.42964131 0
-0.58851051 0.28734493 -0.41633329 0
-0.51671195 0.22282791 -0.40647119 0
-0.46150684 0.18934584 -0.40358374 0
-0.3773222 0.12245989 -0.38871098 0
-0.27889299 0.032242775 -0.37570357 0
-0.2013731 -0.030770302 -0.35676733 0
-0.16263962 -0.068270683 -0.35256055 0
-0.72812796 0.49660492 -0.44678551 0
-0.63855171 0.43680906 -0.4300873 0
-0.55458546 0.362391 -0.4149546 0
-0.45553708 0.34961843 -0.40880126 0
-0.39349556 0.26589537 -0.3998889 0
-0.29964876 0.20138216 -0.38486558 0
-0.22371912 0.099162579 -0.37099451 0
-0.079265594 0.0019583702 -0.35890296 0
0.01851511 0.0073623657 -0.36153242 0
0.093217611 -0.14982653 -0.334804 0
0.1713109 -0.15404224 -0.30852795 0
-0.48991466 0.45290709 -0.41193435 0
