# .PCD v0.7 - Point Cloud Data file format
VERSION 0.7
FIELDS x y z intensity
SIZE 4 4 4 4
TYPE F F F F
COUNT 1 1 1 1
WIDTH 1295
HEIGHT 1
VIEWPOINT 0 0 0 1 0 0 0
POINTS 1295
DATA ascii
0.92894936 0.44356966 -0.3610779 0
0.55982089 0.36807311 -0.2687636 0
0.56167293 0.4235847 -0.27374458 0
0.59579802 0.48142886 -0.2768386 0
0.6900239 -0.4569205 -0.35961688 0
0.77211523 -0.43487847 -0.36199263 0
0.84382248 -0.48238802 -0.35816908 0
0.96216583 -0.42865157 -0.36021268 0
0.70364094 -0.39623725 -0.3596465 0
0.76521587 -0.3324188 -0.36232594 0
0.85522461 -0.35479367 -0.35557425 0
0.95039845 -0.3622669 -0.35805666 0
0.66797447 -0.23252428 -0.3405914 0
0.77755523 -0.23597658 -0.36404806 0
0.84864998 -0.2458818 -0.35779226 0
0.95959902 -0.26873851 -0.35456741 0
0.75957155 -0.15823507 -0.35599393 0
0.86158919 -0.16924465 -0.35597265 0
0.95395207 -0.14612567 -0.35511118 0
0.76316452 -0.066717982 -0.35767272 0
0.85584092 -0.074271202 -0.3567858 0
0.96554232 -0.045148492 -0.35168198 0
0.75662661 0.031990409 -0.35871124 0
0.84245396 0.025457859 -0.35855106 0
0.95202398 0.044848204 -0.3519856 0
0.76894665 0.1424371 -0.36087489 0
0.85830998 0.13671339 -0.36113808 0
0.94697022 0.13764811 -0.35310599 0
0.76023936 0.22280967 -0.36188489 0
0.83669615 0.2350806 -0.35790119 0
0.97034264 0.2473321 -0.3589727 0
0.87559056 0.30603504 -0.36442477 0
0.95158601 0.34787261 -0.35786498 0
0.89772606 0.42139268 -0.35694185 0
0.95756841 0.46682525 -0.35605323 0
0.3667717 -0.45891798 -0.26391831 0
0.48360038 0.26569808 -0.27443865 0
0.51272607 0.24329531 -0.29194948 0
0.48053718 0.35572386 -0.28040308 0
0.52851653 0.34869289 -0.27517912 0
0.48997927 0.44955623 -0.29616341 0
0.55624747 0.43951702 -0.27407238 0
0.54085732 -0.46353483 -0.35793763 0
0.5919981 -0.39104748 -0.36290941 0
0.66862154 -0.42906106 -0.36209837 0
0.75671864 -0.49184227 -0.35427123 0
0.52403641 -0.2407378 -0.33105668 0
0.62168074 -0.31712389 -0.36137092 0
0.75378466 -0.32307065 -0.36282963 0
0.78330898 -0.38668931 -0.36110744 0
0.89592266 -0.39815342 -0.36104158 0
0.99361515 -0.48292184 -0.35086867 0
0.59038687 -0.1966784 -0.34045157 0
0.66944766 -0.17937934 -0.3583149 0
0.76299572 -0.25518072 -0.35812825 0
0.86109805 -0.3049165 -0.35783359 0
0.92825627 -0.32894504 -0.35322136 0
0.6205287 -0.097807407 -0.36181438 0
0.69443083 -0.11387658 -0.35846329 0
0.77488971 -0.16996789 -0.35601133 0
0.85322189 -0.20831108 -0.35092658 0
0.95740604 -0.22015619 -0.3573513 0
0.60563421 0.075686216 -0.35534334 0
0.63917232 0.013700962 -0.36125302 0
0.73001623 -0.032811761 -0.35870525 0
0.82003498 -0.066994429 -0.3528448 0
0.91424942 -0.11397922 -0.35355395 0
0.4651103 0.20354068 -0.31302375 0
0.63740468 0.16592503 -0.36487541 0
0.68156171 0.10966539 -0.36233559 0
0.76300168 0.075982809 -0.35562539 0
0.8610146 0.023742914 -0.35637867 0
0.96039963 -0.026441574 -0.35290021 0
0.62599397 0.19136238 -0.36211258 0
0.72696161 0.16592932 -0.36089665 0
0.83587766 0.16046548 -0.36156076 0
0.90065217 0.11964107 -0.35940364 0
0.76644278 0.23444462 -0.36321872 0
0.84579062 0.2341125 -0.3588433 0
0.94268537 0.20686448 -0.36013615 0
0.88794017 0.29869199 -0.35876945 0
0.98630095 0.29562342 -0.36198711 0
0.96003056 0.44270766 -0.35979182 0
0.94650602 0.49647987 -0.35873112 0
0.3229084 -0.49580431 -0.28507125 0
0.35161161 -0.43268573 -0.28242353 0
0.44003868 0.23329878 -0.29259646 0
0.49237704 0.22032309 -0.30193153 0
0.44809532 0.31075752 -0.28811902 0
0.49799228 0.28638732 -0.2652601 0
0.40801358 0.45576322 -0.301388 0
0.47530174 0.39822674 -0.28251818 0
0.54170489 0.37843764 -0.26949579 0
0.50491023 0.49129653 -0.28820705 0
0.58647132 0.47057962 -0.26656631 0
0.2632103 -0.47443211 -0.3241826 0
0.31957817 -0.42488229 -0.3338576 0
0.3978219 -0.39631128 -0.35418728 0
0.44258404 -0.32752323 -0.37282145 0
0.52824974 -0.38315642 -0.36781928 0
0.61834717 -0.42003381 -0.3670297 0
0.71100998 -0.43706203 -0.36503819 0
0.79268885 -0.4894377 -0.36216271 0
0.47503519 -0.23966527 -0.35987505 0
0.53578711 -0.29201269 -0.35148847 0
0.65128279 -0.33533168 -0.36293307 0
0.72263527 -0.36498177 -0.36315012 0
0.82320547 -0.41065753 -0.36088157 0
0.92900848 -0.44598687 -0.35817647 0
0.9957695 -0.45815563 -0.35215279 0
0.48894668 -0.14352655 -0.36449432 0
0.58172584 -0.18853319 -0.34867731 0
0.68539071 -0.19313145 -0.36180189 0
0.77811456 -0.26657486 -0.36326486 0
0.873734 -0.31985486 -0.36177814 0
0.96851778 -0.35226095 -0.35476705 0
0.48366094 -0.031659722 -0.36949831 0
0.55531979 -0.05439949 -0.36233026 0
0.63295412 -0.099343181 -0.36382985 0
0.71388531 -0.141868 -0.36477593 0
0.81206942 -0.16387105 -0.35545602 0
0.89397907 -0.23540115 -0.3539035 0
0.4990797 0.054346323 -0.37225145 0
0.58018613 0.05009973 -0.36555612 0
0.66533327 0.0066409111 -0.36532825 0
0.76599598 -0.051690817 -0.36381716 0
0.86185145 -0.086353779 -0.35683957 0
0.97772026 -0.13805771 -0.35703182 0
0.39670897 0.26329827 -0.34269506 0
0.45914769 0.2193774 -0.34027475 0
0.51079512 0.15003133 -0.36065489 0
0.59113932 0.11420429 -0.36488435 0
0.69425654 0.090780735 -0.3623324 0
0.79230356 0.054708004 -0.36315069 0
0.89564061 0.022151828 -0.36433882 0
0.98786283 -0.039127469 -0.35742849 0
0.39576435 0.33615804 -0.32950184 0
0.44899702 0.27614605 -0.34736633 0
0.69713068 0.19110858 -0.3681294 0
0.75361681 0.15828669 -0.36378384 0
0.84931374 0.13296473 -0.35830873 0
0.92737103 0.10294843 -0.36411291 0
0.33993888 0.45780611 -0.33183569 0
0.39359021 0.42868698 -0.32629004 0
0.86986494 0.22554612 -0.36445314 0
0.97972417 0.18779755 -0.36153039 0
0.91153026 0.29088461 -0.36052927 0
0.99677086 0.27023554 -0.3582617 0
0.99499369 0.39103711 -0.35991913 0
0.96203041 0.49087143 -0.35455081 0
0.2928791 -0.48874354 -0.29439664 0
0.31252766 -0.44408834 -0.29158589 0
0.36109161 -0.43121886 -0.30704811 0
0.45874786 0.22430539 -0.28998625 0
0.41690803 0.30223 -0.29822934 0
0.47249269 0.29571128 -0.28589574 0
0.42588544 0.41170394 -0.30442047 0
0.48820829 0.38927984 -0.28177318 0
0.55128312 0.47004175 -0.28170839 0
0.19886065 -0.47544563 -0.33954811 0
0.28426266 -0.4775877 -0.33687598 0
0.26599646 -0.35862076 -0.37123927 0
0.3219862 -0.41120207 -0.34725294 0
0.40830851 -0.40536129 -0.34667438 0
0.27813244 -0.26854098 -0.36697239 0
0.34481764 -0.28880537 -0.36697108 0
0.4388895 -0.32910216 -0.36612663 0
0.53167009 -0.37737501 -0.36342138 0
0.61687422 -0.41366804 -0.36555475 0
0.69505119 -0.4440943 -0.3636488 0
0.83543491 -0.48555088 -0.3619222 0
0.32264757 -0.17357612 -0.36550301 0
0.41677809 -0.23097134 -0.36866388 0
0.49377775 -0.24903452 -0.35131842 0
0.59208441 -0.28883231 -0.3396675 0
0.72422838 -0.35438788 -0.36619297 0
0.78635645 -0.3750391 -0.35684314 0
0.84733868 -0.40304148 -0.36424956 0
0.97918892 -0.45729733 -0.36013415 0
0.35058212 -0.095165372 -0.36787412 0
0.46419382 -0.12416136 -0.37184957 0
0.5403161 -0.17262959 -0.35691929 0
0.73526335 -0.23498178 -0.36228779 0
0.82440758 -0.29492509 -0.36417902 0
0.88591671 -0.3191489 -0.3563714 0
0.99448776 -0.35570812 -0.35728985 0
0.32506847 0.0025888681 -0.36702245 0
0.39650726 -0.00069987774 -0.37195063 0
0.47397518 -0.030734181 -0.363518 0
0.57696629 -0.078436017 -0.36467096 0
0.68479061 -0.11443651 -0.36132991 0
0.72790956 -0.15725827 -0.35592192 0
0.84126902 -0.19074905 -0.36400914 0
0.92255712 -0.21571827 -0.36262169 0
0.34028172 0.12464488 -0.36916462 0
0.42775726 0.086500645 -0.36449432 0
0.53723836 0.062658906 -0.36571577 0
0.5942204 0.009432435 -0.36232024 0
0.69243979 -0.0046983957 -0.36645302 0
0.80071211 -0.047507524 -0.36457708 0
0.89061451 -0.10736895 -0.35898796 0
0.31640387 0.30072415 -0.36282226 0
0.37051582 0.24714601 -0.37071794 0
0.46183109 0.19622409 -0.35954508 0
0.57787824 0.1462754 -0.36596525 0
0.64011526 0.09843266 -0.36154297 0
0.748734 0.075208783 -0.36381948 0
0.8385253 0.029791713 -0.36435303 0
0.94288802 -0.0052497387 -0.3606419 0
0.26201153 0.37960482 -0.34811363 0
0.3128469 0.35817015 -0.34830818 0
0.41554213 0.31333196 -0.34929195 0
0.46758366 0.25282264 -0.33949474 0
0.70543766 0.18817747 -0.36728442 0
0.78175879 0.15853167 -0.36392602 0
0.88992763 0.12852645 -0.36864096 0
0.96676254 0.091296315 -0.36570403 0
0.34406352 0.44623303 -0.33945155 0
0.41548991 0.39984107 -0.32115269 0
0.91422939 0.20475459 -0.36240625 0
0.94616389 0.26582026 -0.35882697 0
0.041381359 -0.36812949 -0.3049325 0
0.30918646 -0.4926461 -0.29228511 0
0.3487649 -0.4379065 -0.28633541 0
0.47747231 0.21681881 -0.29818675 0
0.42784715 0.31577766 -0.2995868 0
0.48638916 0.28203321 -0.27990851 0
0.37089157 0.45236516 -0.31092539 0
0.46085739 0.40748835 -0.29308873 0
0.52571082 0.3775357 -0.27637759 0
0.48064113 0.49360299 -0.29390618 0
0.56214762 0.46961093 -0.28086841 0
-0.013683319 -0.46040964 -0.36432505 0
-0.058233261 -0.33580458 -0.33183232 0
0.0003323555 -0.34995794 -0.32706487 0
0.097719669 -0.46162784 -0.37538686 0
0.19076824 -0.46958768 -0.34079507 0
0.28278971 -0.47368419 -0.33013347 0
-0.03995657 -0.2552284 -0.33042166 0
0.057229042 -0.2887522 -0.34526467 0
0.1827817 -0.32270598 -0.36388382 0
0.24887848 -0.35216343 -0.3711262 0
0.30875349 -0.41443539 -0.34992003 0
0.073003292 -0.18306887 -0.35441214 0
0.16416836 -0.24737215 -0.36334068 0
0.28097534 -0.26792288 -0.37129235 0
0.35993481 -0.3090924 -0.36998171 0
0.43806648 -0.32336533 -0.36858514 0
0.50275373 -0.40804088 -0.36559883 0
0.63026047 -0.41289628 -0.36822933 0
0.67208004 -0.47231102 -0.36397231 0
0.79273462 -0.49964929 -0.36743066 0
0.054316521 -0.078162193 -0.34977716 0
0.10782433 -0.081322432 -0.34473339 0
0.21580362 -0.13894522 -0.37038517 0
0.30747223 -0.1735971 -0.37263596 0
0.41046095 -0.21143508 -0.36404654 0
0.51164484 -0.23740673 -0.3465322 0
0.57787657 -0.31603515 -0.37173992 0
0.70157862 -0.34541011 -0.36296263 0
0.73863649 -0.32318306 -0.37367928 0
0.82668686 -0.38190305 -0.3686814 0
0.90551567 -0.42804301 -0.35796744 0
0.99952078 -0.48415375 -0.35332 0
0.08246541 0.023876905 -0.35324275 0
0.14306927 0.019100547 -0.3509112 0
0.26532531 -0.055513024 -0.36932898 0
0.34533024 -0.063759685 -0.37185436 0
0.42597675 -0.10306263 -0.36920056 0
0.5259614 -0.1612618 -0.36605108 0
0.59799433 -0.19289196 -0.34631506 0
0.73408127 -0.21105874 -0.36460528 0
0.82750368 -0.26167369 -0.36057818 0
0.88240886 -0.31442368 -0.36206362 0
0.98784113 -0.34691942 -0.35862336 0
0.11129189 0.10840142 -0.35899127 0
0.19031405 0.10135031 -0.36215782 0
0.26815271 0.059365153 -0.36542323 0
0.36292577 0.0078892708 -0.36630303 0
0.46605849 -0.032786369 -0.37128285 0
0.55813313 -0.075978756 -0.36735037 0
0.66474175 -0.099225521 -0.3652364 0
0.72452545 -0.15765059 -0.35856363 0
0.84665275 -0.18379557 -0.36240345 0
0.9544363 -0.21007299 -0.35981447 0
0.15159392 0.22242904 -0.36922124 0
0.23384881 0.19037724 -0.36797026 0
0.32187843 0.14789486 -0.36821204 0
0.4158814 0.098077178 -0.37360564 0
0.51429152 0.053040028 -0.36948767 0
0.60358238 0.043348312 -0.36949545 0
0.69058537 -0.008368969 -0.36914018 0
0.76668406 -0.03194809 -0.36575729 0
0.87199068 -0.086251736 -0.36550876 0
0.97079349 -0.11724997 -0.36029518 0
0.1778214 0.31942952 -0.3603183 0
0.2831912 0.2816354 -0.37300214 0
0.35605454 0.24102783 -0.37072772 0
0.45575118 0.19930518 -0.35479763 0
0.52294111 0.15028107 -0.36955175 0
0.64268827 0.12632167 -0.36957946 0
0.74736071 0.079116344 -0.36965704 0
0.87069821 0.030285478 -0.36018488 0
0.91322279 0.018532991 -0.35550639 0
0.98431134 -0.023160577 -0.36037421 0
0.16097188 0.44466412 -0.37318605 0
0.22212887 0.39548588 -0.36571833 0
0.30409861 0.3732276 -0.3526656 0
0.40167451 0.32200563 -0.34436136 0
0.45903635 0.2771579 -0.34151557 0
0.70993137 0.17989409 -0.36982727 0
0.78114724 0.15729654 -0.36438668 0
0.88274145 0.12431908 -0.36143279 0
0.97788954 0.110273 -0.35472015 0
0.24960089 0.48371327 -0.36751187 0
0.33559513 0.46681952 -0.34517244 0
0.41666603 0.42276955 -0.32618216 0
0.90333891 0.22455192 -0.36591622 0
0.29559612 -0.47624147 -0.29838341 0
0.34411335 -0.49891293 -0.28552175 0
0.34983969 -0.4359535 -0.29892746 0
0.38158178 -0.42302287 -0.28005758 0
0.46214175 0.22144306 -0.29991186 0
0.46684575 0.28698993 -0.29073381 0
0.3575933 0.48643076 -0.3066757 0
0.43977547 0.41826117 -0.30084854 0
0.49784684 0.3786689 -0.29173696 0
0.47356319 0.47870862 -0.29460913 0
0.56284857 0.47113633 -0.27811638 0
-0.15099287 -0.39389563 -0.3612189 0
-0.098898411 -0.44858563 -0.36816347 0
-0.033246994 -0.49332964 -0.36280149 0
-0.070875168 -0.35581696 -0.34396568 0
0.01026535 -0.36076367 -0.31598109 0
0.12689447 -0.47952282 -0.34933951 0
0.22120142 -0.46746969 -0.32775933 0
-0.10700655 -0.22422683 -0.34055832 0
-0.058495045 -0.28062212 -0.32712117 0
0.14787436 -0.32136703 -0.35286513 0
0.25088835 -0.3970139 -0.36185476 0
0.32122803 -0.42000508 -0.33381057 0
-0.13889074 -0.074429393 -0.33470801 0
-0.097634315 -0.13695443 -0.3359254 0
0.010122299 -0.14847291 -0.34337789 0
0.08786726 -0.19581509 -0.34898341 0
0.18287754 -0.25045395 -0.35695216 0
0.29691839 -0.28865361 -0.36675531 0
0.3734026 -0.32286751 -0.36418885 0
0.44277 -0.34313571 -0.3588672 0
0.53397703 -0.37446594 -0.35778072 0
0.63029146 -0.45725894 -0.35751805 0
0.76656818 -0.456388 -0.36098638 0
-0.10328722 0.0010689497 -0.34142458 0
-0.043572903 -0.045100808 -0.34148598 0
0.02007246 -0.086546779 -0.34186509 0
0.10840464 -0.096837401 -0.34757808 0
0.20856285 -0.15348506 -0.35639098 0
0.30586147 -0.18232107 -0.36090034 0
0.4066329 -0.22918701 -0.35521486 0
0.51645422 -0.23873878 -0.33879727 0
0.65809441 -0.36050045 -0.3582603 0
0.77013874 -0.37146795 -0.35516369 0
0.88667202 -0.4045639 -0.35386232 0
0.98830652 -0.46378124 -0.352043 0
-0.056949615 0.074808359 -0.35186833 0
0.0037350655 0.056418419 -0.3447527 0
0.061103344 0.018693686 -0.34288955 0
0.17826509 -0.0030150414 -0.34811568 0
0.28036404 -0.065103412 -0.35923162 0
0.37093759 -0.077152848 -0.36019477 0
0.44131398 -0.11146188 -0.35963696 0
0.53934121 -0.17241728 -0.35258377 0
0.66691422 -0.19889474 -0.3500638 0
0.77792001 -0.2194649 -0.34780908 0
0.81549335 -0.23582923 -0.36097047 0
0.88942289 -0.31528842 -0.34852925 0
0.0068936348 0.14458382 -0.35814646 0
0.12545586 0.096631527 -0.35114622 0
0.21765947 0.088561893 -0.35475481 0
0.36168242 0.056881905 -0.36509794 0
0.37890005 -0.001850605 -0.35879099 0
0.53591585 -0.032584429 -0.36517474 0
0.59128857 -0.07365036 -0.35578349 0
0.70996237 -0.12254322 -0.35961866 0
0.8094852 -0.13395166 -0.35330936 0
0.91901445 -0.20510924 -0.35187694 0
-0.0076467991 0.26189601 -0.36196616 0
0.060797215 0.23774242 -0.36587918 0
0.15566516 0.21545398 -0.36050293 0
0.25985479 0.16685855 -0.36486176 0
0.36982536 0.13739562 -0.36500382 0
0.43401146 0.069364548 -0.359034 0
0.52470756 0.057226181 -0.35804081 0
0.60929441 0.036430359 -0.356484 0
0.70761299 -0.045075417 -0.35471153 0
0.82713032 -0.061447978 -0.35503787 0
0.9299922 -0.10901856 -0.35028189 0
0.007568121 0.38184106 -0.36194941 0
0.1087811 0.32880235 -0.36454636 0
0.20567489 0.31515622 -0.3548438 0
0.26881886 0.24521065 -0.35897103 0
0.37767529 0.24192548 -0.35889751 0
0.4495759 0.18126583 -0.34574774 0
0.58441997 0.15059721 -0.35958442 0
0.65791845 0.13164914 -0.36839229 0
0.72933459 0.071016312 -0.35672209 0
0.85854745 0.048435092 -0.36024478 0
0.97290945 -0.013859868 -0.35930148 0
0.053197145 0.47168756 -0.36476278 0
0.15165019 0.42458427 -0.36300999 0
0.22208309 0.38463044 -0.35211208 0
0.34499621 0.35233319 -0.34838855 0
0.416008 0.31189847 -0.33326882 0
0.46265411 0.25349712 -0.32076654 0
0.80310678 0.16121459 -0.35832849 0
0.86523557 0.13658345 -0.35938841 0
0.96379638 0.067765951 -0.35360527 0
0.29316616 0.47678864 -0.3511351 0
0.37093377 0.43433452 -0.32244402 0
0.43035102 0.41963279 -0.31301346 0
0.95053816 0.20207679 -0.34661853 0
0.96086335 0.16058004 -0.35053748 0
0.97939062 0.26570773 -0.35399735 0
0.33723783 -0.43506408 -0.27389753 0
0.56975555 -0.24715674 -0.30814636 0
0.44843125 0.24423635 -0.29268345 0
0.38147116 0.34806561 -0.29922438 0
0.44340587 0.31974351 -0.29172596 0
0.4869988 0.25244677 -0.28716481 0
0.46875095 0.39939058 -0.28784248 0
0.51930428 0.36016953 -0.26137826 0
0.49642324 0.48309529 -0.28874555 0
0.53961277 0.45584261 -0.26470253 0
-0.35708475 -0.46336532 -0.35924593 0
-0.32023358 -0.37883735 -0.35796008 0
-0.2493391 -0.39769447 -0.35860968 0
-0.17249918 -0.43485105 -0.36448422 0
-0.099742413 -0.44442856 -0.3564311 0
-0.0071368217 -0.49781203 -0.36346695 0
-0.28234887 -0.28717005 -0.35810688 0
-0.21660161 -0.30744851 -0.3570739 0
-0.11096144 -0.33102453 -0.35505509 0
-0.053490162 -0.36883569 -0.33220395 0
0.070404053 -0.46607625 -0.36317551 0
0.15349102 -0.48451078 -0.34447956 0
0.23734808 -0.46746719 -0.32733077 0
-0.25073767 -0.22114325 -0.36096337 0
-0.1841073 -0.19211626 -0.35912696 0
-0.085006714 -0.24472606 -0.33783871 0
-0.022140026 -0.30781364 -0.31640807 0
0.17659521 -0.31470764 -0.35131973 0
0.28874159 -0.40800118 -0.35083568 0
0.3657937 -0.41985953 -0.33220124 0
-0.21991658 -0.087116241 -0.35777497 0
-0.14441252 -0.11310494 -0.3467513 0
-0.071606636 -0.15517759 -0.33008462 0
0.068758011 -0.20644832 -0.34091187 0
0.19487143 -0.29915762 -0.35644731 0
0.32245111 -0.29280353 -0.36278385 0
0.39546871 -0.34294403 -0.35279834 0
0.48994923 -0.3997854 -0.35646474 0
0.62165833 -0.40675437 -0.35882169 0
0.72166872 -0.43414676 -0.35043594 0
0.78908777 -0.4605751 -0.35390437 0
-0.19898558 0.009042263 -0.35726106 0
-0.10392857 -0.020277977 -0.34578484 0
-0.003256321 -0.074715972 -0.3359364 0
0.077865601 -0.10686266 -0.33554319 0
0.12648582 -0.12144887 -0.35285935 0
0.2666173 -0.18429685 -0.35984039 0
0.35205364 -0.20432818 -0.36513552 0
0.44898748 -0.2546891 -0.34846219 0
0.51753187 -0.30362868 -0.3449873 0
0.63230753 -0.34150577 -0.3564204 0
0.74345636 -0.35641921 -0.35165864 0
0.84828472 -0.40499616 -0.34759492 0
0.98288918 -0.4616822 -0.34600738 0
-0.15535593 0.12023711 -0.36054265 0
-0.081066847 0.076407909 -0.35720977 0
0.022538662 0.039678574 -0.34594029 0
0.11877441 -0.0067639351 -0.34265459 0
0.25904417 -0.091371179 -0.35838574 0
0.39594817 -0.11975181 -0.35771158 0
0.50111246 -0.1712153 -0.35335359 0
0.56803799 -0.2189095 -0.32789999 0
0.87186527 -0.34054029 -0.35083517 0
0.97986746 -0.3572228 -0.33589202 0
0.99647713 -0.3891145 -0.34417817 0
-0.16785455 0.25063884 -0.35653344 0
-0.12281632 0.20843709 -0.35847759 0
-0.016633987 0.16792548 -0.3617748 0
0.053340673 0.13617182 -0.35536724 0
0.15408897 0.079097033 -0.34798914 0
0.28343058 0.048545837 -0.35803035 0
0.34362531 0.012714624 -0.36365992 0
0.43260765 -0.037000179 -0.35952434 0
0.58020473 -0.065243363 -0.36089596 0
0.66991115 -0.1294055 -0.35446456 0
0.77979875 -0.19638717 -0.35310152 0
0.88528013 -0.21835506 -0.34774005 0
-0.15165806 0.34199631 -0.35995382 0
-0.065272093 0.30860555 -0.36498857 0
0.0079903603 0.27028179 -0.36095116 0
0.11090946 0.21022844 -0.36040083 0
0.20799637 0.17829025 -0.35810989 0
0.30361199 0.13595748 -0.36095035 0
0.38834357 0.096089125 -0.3589156 0
0.48047352 0.059800506 -0.36030793 0
0.57868433 0.0085072517 -0.35663778 0
0.6754241 -0.042195201 -0.35108158 0
0.81084228 -0.068430662 -0.35554808 0
0.90721464 -0.090992093 -0.34742951 0
-0.15388227 0.42136037 -0.35896733 0
-0.044922352 0.3970542 -0.3619732 0
0.053632021 0.34676337 -0.36262074 0
0.13637233 0.29077148 -0.36064807 0
0.2114172 0.29013813 -0.35747924 0
0.2976532 0.22666705 -0.35665816 0
0.41914129 0.19848859 -0.34949058 0
0.47362518 0.14924812 -0.35607883 0
0.60987592 0.13585854 -0.3614926 0
0.71384573 0.092617393 -0.35721171 0
0.83337569 0.035949111 -0.35738599 0
0.93181658 -0.0058108568 -0.35095492 0
-0.026114702 0.49311912 -0.36366093 0
0.095414162 0.46468198 -0.3640449 0
0.16274858 0.38869607 -0.36123902 0
0.24281311 0.36071467 -0.34987706 0
0.37501144 0.33015013 -0.34060314 0
0.43028927 0.28352547 -0.3382749 0
0.50392532 0.22081876 -0.31259468 0
0.82756448 0.11937201 -0.3524358 0
0.93866539 0.09228158 -0.34933883 0
0.21441293 0.49922812 -0.35780716 0
0.30782747 0.46121359 -0.34727177 0
0.36855745 0.4123652 -0.31980217 0
0.93341565 0.16112173 -0.34598422 0
0.025885582 -0.3811667 -0.30051398 0
0.26508141 -0.49009848 -0.2896803 0
0.33255005 -0.49970746 -0.28448471 0
0.29368782 -0.43983638 -0.29285604 0
0.36589336 -0.42701316 -0.27595037 0
0.46160984 0.2854706 -0.28052321 0
0.44221258 0.4159857 -0.29568869 0
0.48326635 0.38016534 -0.27300611 0
0.35461593 0.49896979 -0.30082077 0
0.40165257 0.49439251 -0.28668642 0
0.51226091 0.48329198 -0.27961251 0
-0.57030153 -0.49451375 -0.36267859 0
-0.4814806 -0.48932612 -0.36444688 0
-0.5118072 -0.41039312 -0.36826128 0
-0.4528141 -0.4014287 -0.36872295 0
-0.3742373 -0.44653153 -0.36624271 0
-0.46793747 -0.30091655 -0.36473116 0
-0.41037607 -0.3355695 -0.37072641 0
-0.31403637 -0.36823332 -0.3627474 0
-0.22072506 -0.40812993 -0.36831692 0
-0.10834837 -0.46076047 -0.36987635 0
-0.016252995 -0.48593032 -0.37050465 0
-0.43055749 -0.22158456 -0.36673397 0
-0.35400963 -0.23277044 -0.36864665 0
-0.29560018 -0.27117133 -0.36711073 0
-0.23017263 -0.30385625 -0.36660904 0
-0.095182896 -0.34001315 -0.3616713 0
-0.026420116 -0.37948966 -0.32411724 0
0.21962833 -0.46470571 -0.35149461 0
-0.39104557 -0.12255895 -0.36837015 0
-0.33088064 -0.14345694 -0.36557189 0
-0.26735258 -0.18753755 -0.36657792 0
-0.15827537 -0.21561158 -0.36262438 0
-0.046281338 -0.25207698 -0.34061632 0
0.043640137 -0.26966536 -0.33451477 0
0.31367397 -0.4193604 -0.35222265 0
0.42192173 -0.40259504 -0.3601236 0
0.54637146 -0.48426962 -0.35821769 0
-0.36720753 -0.033731818 -0.36743721 0
-0.28682971 -0.041452765 -0.36560932 0
-0.20016408 -0.083104253 -0.36844543 0
-0.13063383 -0.12479186 -0.35310924 0
-0.060956955 -0.16788614 -0.33366892 0
0.11207914 -0.20805097 -0.35367507 0
0.23996735 -0.30319118 -0.36717185 0
0.35011768 -0.32664108 -0.36485699 0
0.44861269 -0.36906338 -0.36245349 0
0.58648348 -0.38199735 -0.36164364 0
0.57840681 -0.42443812 -0.36315307 0
0.70765066 -0.44695222 -0.3641417 0
-0.33824134 0.067039967 -0.3689554 0
-0.24383688 0.05137682 -0.36535907 0
-0.14413691 0.0044869184 -0.36209106 0
-0.071144342 -0.04417789 -0.3451587 0
0.032930851 -0.080631733 -0.35147333 0
0.11874104 -0.10750306 -0.3488684 0
0.26963329 -0.1733346 -0.36542931 0
0.37876749 -0.23175359 -0.3658258 0
0.47300768 -0.28762698 -0.35450691 0
0.70896912 -0.37765408 -0.35855991 0
0.86497021 -0.41437685 -0.35989007 0
-0.32507014 0.16289473 -0.36736381 0
-0.22972322 0.13939404 -0.36700997 0
-0.1356895 0.091976404 -0.36198097 0
-0.040030241 0.066806793 -0.36101726 0
0.054213762 0.036121726 -0.34896126 0
0.13057137 -0.0043553114 -0.34584802 0
0.2748189 -0.10318744 -0.36139292 0
0.40841818 -0.13390732 -0.36810523 0
0.50728703 -0.18440497 -0.36462724 0
0.5779314 -0.2158432 -0.34304881 0
0.85330009 -0.34668338 -0.35085246 0
-0.32895613 0.30833828 -0.36078557 0
-0.28164029 0.26518202 -0.36564505 0
-0.17965698 0.22228456 -0.37289158 0
-0.081465721 0.19841099 -0.36628056 0
0.012736797 0.14781964 -0.36649942 0
0.11110783 0.12985647 -0.35918152 0
0.1900003 0.075697541 -0.35730001 0
0.32373166 0.06651473 -0.36684173 0
0.36429811 0.0029524565 -0.37067196 0
0.44523382 -0.029920578 -0.3731328 0
0.53387928 -0.074757338 -0.36404982 0
0.66010427 -0.09219718 -0.3646425 0
0.76339221 -0.16030836 -0.36146533 0
0.89649439 -0.24620569 -0.3585591 0
-0.30332351 0.37332618 -0.36714673 0
-0.23176265 0.36401844 -0.3676368 0
-0.1632545 0.31835091 -0.36783049 0
-0.067330837 0.2935189 -0.36951342 0
0.050145864 0.24225533 -0.37160704 0
0.14943981 0.2273035 -0.36563706 0
0.24120259 0.17202628 -0.36574161 0
0.33995509 0.15683556 -0.36808708 0
0.44846272 0.096628189 -0.36762041 0
0.5556066 0.025918245 -0.3654598 0
0.68328595 -0.010409355 -0.36703503 0
0.79950523 -0.04573977 -0.36582625 0
0.92017913 -0.13199496 -0.35929343 0
-0.2250824 0.43818438 -0.36374483 0
-0.098316908 0.41819036 -0.36823571 0
-0.020402193 0.36524987 -0.36571541 0
0.078960419 0.32553017 -0.36945981 0
0.18020892 0.30894446 -0.36006749 0
0.24764895 0.25542402 -0.36513609 0
0.34800839 0.22469628 -0.36830476 0
0.4529953 0.18504632 -0.35651883 0
0.53234553 0.12285721 -0.35746503 0
0.68187475 0.12315941 -0.36038843 0
0.70014572 0.063883662 -0.36852276 0
0.80135059 0.046209931 -0.36135644 0
0.93057036 -0.031046152 -0.35643926 0
0.027326345 0.47798419 -0.37027386 0
0.11783624 0.44083416 -0.36640337 0
0.20575881 0.37791967 -0.36583439 0
0.28502774 0.3807776 -0.35130441 0
0.39805984 0.32064545 -0.35248941 0
0.44039392 0.25664365 -0.34893543 0
0.80180168 0.11770856 -0.3582696 0
0.94501686 0.076968551 -0.35605127 0
0.27669764 0.48243415 -0.36526161 0
0.35059214 0.45266008 -0.33633167 0
0.39012456 0.38676596 -0.32299817 0
0.96179867 0.15830076 -0.35855725 0
0.014102459 -0.38583565 -0.29688323 0
0.30374718 -0.48770511 -0.30062085 0
0.34293795 -0.48579812 -0.27337733 0
0.30772734 -0.44197047 -0.31169817 0
0.37166786 -0.43607295 -0.28953212 0
0.44512272 0.2091583 -0.2952269 0
0.42421961 0.31860268 -0.3066124 0
0.47630286 0.27705133 -0.28746361 0
0.44571543 0.41513669 -0.31083184 0
0.51505518 0.39535451 -0.28627148 0
0.46849108 0.47257018 -0.29974237 0
0.52755976 0.47113693 -0.27354836 0
-0.84364486 -0.45590448 -0.35776073 0
-0.80682898 -0.36156857 -0.35788268 0
-0.73073268 -0.3961904 -0.35776836 0
-0.65028739 -0.42950743 -0.36386478 0
-0.55434227 -0.48616469 -0.36096346 0
-0.75974727 -0.27665222 -0.35918495 0
-0.69999075 -0.33277762 -0.35671672 0
-0.59078479 -0.34096432 -0.36210889 0
-0.52691412 -0.39564645 -0.36223692 0
-0.44384909 -0.4127537 -0.36448145 0
-0.31759119 -0.45252669 -0.36890692 0
-0.72074151 -0.20240235 -0.36120072 0
-0.64451218 -0.21956158 -0.36198464 0
-0.56553364 -0.27084172 -0.35944521 0
-0.47804403 -0.30577183 -0.36535895 0
-0.40984678 -0.31968808 -0.36132538 0
-0.29533124 -0.35890257 -0.36460605 0
-0.16342068 -0.40551507 -0.36829922 0
-0.072535038 -0.4527719 -0.36821058 0
-0.6791141 -0.10241294 -0.3617371 0
-0.61997628 -0.11695313 -0.36093882 0
-0.537112 -0.15970659 -0.3644146 0
-0.45738816 -0.22240615 -0.36007425 0
-0.33410549 -0.22145224 -0.36472827 0
-0.26182556 -0.26499224 -0.36548695 0
-0.1432116 -0.30347693 -0.3715907 0
-0.080159187 -0.36517334 -0.35799235 0
0.14273834 -0.48366201 -0.36948258 0
-0.64702535 -0.0011965036 -0.36082292 0
-0.60242319 -0.027065754 -0.35641474 0
-0.50288129 -0.067850113 -0.36356571 0
-0.40002728 -0.11126137 -0.3657409 0
-0.33648562 -0.14367771 -0.3642447 0
-0.21216583 -0.18228221 -0.36767372 0
-0.1316483 -0.22708869 -0.37192845 0
0.29305077 -0.39608634 -0.36775708 0
-0.61354685 0.091575027 -0.36334366 0
-0.54824829 0.060897589 -0.36100134 0
-0.45115495 0.026218534 -0.36570126 0
-0.36519742 -0.0016967058 -0.36735386 0
-0.28242302 -0.046756864 -0.36314222 0
-0.17870522 -0.10083485 -0.36541799 0
-0.12127948 -0.16739154 -0.35783637 0
0.22740889 -0.22616601 -0.36773568 0
0.32781076 -0.26241302 -0.36557883 0
-0.59003115 0.185817 -0.36389241 0
-0.49865699 0.1593436 -0.3644366 0
-0.41650009 0.12477136 -0.3618595 0
-0.31443977 0.0812186 -0.36405006 0
-0.21949863 0.029236436 -0.36860353 0
-0.10942054 -7.6770782e-05 -0.35970196 0
0.25679588 -0.17710745 -0.37222508 0
0.36361647 -0.19242191 -0.37168869 0
-0.55702472 0.28848648 -0.36195469 0
-0.46895099 0.24275303 -0.3638376 0
-0.37550569 0.20601547 -0.36294317 0
-0.28532481 0.16266084 -0.36795837 0
-0.17000341 0.13016391 -0.36866301 0
-0.078683853 0.08415091 -0.36557785 0
0.25761414 -0.10007107 -0.36543635 0
0.38273406 -0.10855758 -0.37090722 0
-0.5655458 0.41180515 -0.36127177 0
-0.53651786 0.3612026 -0.35893488 0
-0.42948556 0.33840835 -0.36359465 0
-0.33660293 0.28025138 -0.3660875 0
-0.24012065 0.25589561 -0.36507022 0
-0.16755772 0.2337594 -0.36367118 0
-0.068158627 0.1948806 -0.37032741 0
0.026032448 0.13842785 -0.3661074 0
0.17190361 0.12163293 -0.36250395 0
0.30147147 0.082839847 -0.36643544 0
0.40476346 -0.0098515749 -0.37062007 0
0.5410862 -0.073592782 -0.37549669 0
-0.56544375 0.49330246 -0.35989818 0
-0.47547507 0.47474086 -0.36457351 0
-0.38697577 0.4325093 -0.36724895 0
-0.28852367 0.38552415 -0.36907855 0
-0.18967676 0.37369037 -0.36388639 0
-0.10360813 0.33076394 -0.36650851 0
-0.016307831 0.27377927 -0.3701345 0
0.09812212 0.23668587 -0.36306477 0
0.16626406 0.21498871 -0.36897269 0
0.22631717 0.16036141 -0.37329572 0
0.31605625 0.13467157 -0.36826065 0
0.42490602 0.11032999 -0.36973321 0
0.5605123 0.070461392 -0.37233615 0
-0.25759411 0.46839976 -0.36491507 0
-0.15384173 0.46589577 -0.36854377 0
-0.065994978 0.3780607 -0.36377099 0
0.044045687 0.34459507 -0.37372142 0
0.12098145 0.35419226 -0.36605504 0
0.32976508 0.24711728 -0.36744955 0
0.45183754 0.19389093 -0.37407964 0
-0.035531759 0.48354673 -0.36616719 0
0.063750029 0.43434024 -0.36739504 0
0.14029241 0.4340173 -0.37002361 0
0.22695374 0.3942101 -0.36546558 0
0.17314649 0.49725628 -0.36319309 0
0.29787064 0.48046958 -0.36459026 0
-0.055206299 -0.34308088 -0.34601092 0
0.0022444725 -0.37087333 -0.31777498 0
0.19089699 -0.48851538 -0.33736965 0
-0.11298943 -0.24098814 -0.34744692 0
-0.032472134 -0.25061834 -0.33091396 0
0.013359547 -0.32105577 -0.33133748 0
0.16353941 -0.30766928 -0.35901999 0
0.29742861 -0.35579884 -0.36460212 0
0.34206247 -0.43697739 -0.32042271 0
-0.13745117 -0.12932503 -0.3493695 0
-0.086157799 -0.14235818 -0.33942151 0
0.059877872 -0.14933288 -0.35055721 0
0.171175 -0.26935959 -0.3569887 0
0.29788923 -0.31717491 -0.36048523 0
0.43923712 -0.30741262 -0.36129311 0
0.41976547 -0.37124693 -0.36225948 0
0.57961845 -0.40319967 -0.36851323 0
0.69047451 -0.47271001 -0.35892648 0
0.85047913 -0.48954785 -0.36388218 0
-0.040530443 -0.043821812 -0.34404272 0
0.077980518 -0.070091605 -0.34956986 0
0.2099762 -0.17029309 -0.35546482 0
0.32280207 -0.1809144 -0.35677364 0
0.46076727 -0.22772551 -0.36123383 0
0.52743196 -0.24801457 -0.35087007 0
0.58290529 -0.34302175 -0.36325461 0
0.73909521 -0.34647846 -0.36413831 0
0.86403036 -0.40753543 -0.36099419 0
0.98269463 -0.47455239 -0.34493679 0
-0.010693312 0.030501246 -0.34624937 0
0.10440636 0.01953423 -0.35129103 0
0.21274757 0.010854483 -0.35105908 0
0.23941803 -0.077545762 -0.35716194 0
0.48511481 -0.15143824 -0.36281139 0
0.58615232 -0.18558383 -0.35812286 0
0.60362768 -0.21619213 -0.33499116 0
0.86789227 -0.29886913 -0.35384619 0
0.90515471 -0.32792699 -0.36857945 0
0.12794065 0.072030067 -0.3528955 0
0.25075078 0.056193471 -0.35836214 0
0.50365829 -0.036648035 -0.36040863 0
0.65197897 -0.093298197 -0.36656576 0
0.76359034 -0.18296123 -0.36004004 0
0.89572668 -0.20497692 -0.35671559 0
0.29712033 0.16572058 -0.36068505 0
0.66781259 0.004424572 -0.36463493 0
0.79467988 -0.074305892 -0.36225915 0
0.92775083 -0.089270234 -0.35891807 0
0.16896439 0.28827429 -0.35286775 0
0.3082912 0.29800403 -0.35914406 0
0.42960882 0.2268616 -0.32367358 0
0.49255204 0.20026875 -0.33168721 0
0.54421544 0.10294354 -0.36527288 0
0.66987634 0.097924709 -0.35982072 0
0.79668045 0.089291215 -0.35213137 0
0.80864501 0.028053999 -0.35974699 0
0.95886397 0.0055346489 -0.36257941 0
0.26954341 0.37862015 -0.34976706 0
0.43022323 0.29783511 -0.33279333 0
0.51193285 0.29140496 -0.27641785 0
0.9252634 0.07796824 -0.34762511 0
0.94747543 0.043431878 -0.3563714 0
0.31853533 0.49588561 -0.33488393 0
0.36449933 0.44844115 -0.33468771 0
0.45756316 0.38824344 -0.3073931 0
0.5299139 0.3811084 -0.28716213 0
0.96780586 0.16300678 -0.35735142 0
0.48090196 0.47076988 -0.29906768 0
0.56596446 0.48969817 -0.28189206 0
-0.90490007 -0.39491475 -0.36960447 0
-0.97290826 -0.30292702 -0.36382985 0
-0.89927292 -0.32383478 -0.36858654 0
-0.94101548 -0.19689751 -0.36251381 0
-0.8364172 -0.20087159 -0.3679454 0
-0.90062928 -0.13344216 -0.36671317 0
-0.91263008 0.018533587 -0.36102659 0
-0.87780762 -0.0053170919 -0.3664766 0
-0.88052988 0.10300279 -0.36224848 0
-0.86341715 0.068152428 -0.36558831 0
-0.8396728 0.20145929 -0.36656812 0
-0.79173708 0.19249523 -0.36422491 0
-0.83552599 0.24995136 -0.363864 0
-0.70676041 0.27032745 -0.36748719 0
-0.70738029 0.20691335 -0.37229392 0
-0.81328368 0.37824833 -0.36286095 0
-0.73775291 0.39282942 -0.36819026 0
-0.63557625 0.33604145 -0.36765975 0
-0.78193164 0.49012232 -0.36440763 0
-0.67751789 0.4757427 -0.37171936 0
-0.60784698 0.46960902 -0.3700709 0
-0.61233783 0.49427867 -0.36784109 0
-0.5475769 0.47668147 -0.37081689 0
-0.9034996 -0.46149892 -0.3573139 0
-0.84008193 -0.44640648 -0.36068732 0
-0.95870066 -0.29177737 -0.3554619 0
-0.88634229 -0.35030651 -0.35870582 0
-0.79613233 -0.37596196 -0.36038372 0
-0.70354843 -0.41189516 -0.36374924 0
-0.61358738 -0.44445676 -0.36601353 0
-0.50503135 -0.48648804 -0.36480978 0
-0.95126152 -0.20374417 -0.35948122 0
-0.86740518 -0.22218871 -0.35929757 0
-0.75526118 -0.27996576 -0.36263168 0
-0.66263056 -0.32037401 -0.36163121 0
-0.58592176 -0.34857774 -0.36567104 0
-0.4914794 -0.38421595 -0.36659119 0
-0.36306167 -0.41745639 -0.36822081 0
-0.26198268 -0.49732769 -0.37173066 0
-0.97143888 -0.10150576 -0.35690859 0
-0.90724254 -0.11793828 -0.35520217 0
-0.81669211 -0.12979782 -0.36053619 0
-0.7305522 -0.18543077 -0.358253 0
-0.6220603 -0.22582126 -0.36092019 0
-0.5553422 -0.25753939 -0.36150509 0
-0.44204664 -0.30629253 -0.3660568 0
-0.32608771 -0.36352324 -0.36336458 0
-0.22887182 -0.39408076 -0.36645043 0
-0.1370182 -0.440135 -0.37035808 0
-0.94696617 -0.024223804 -0.35405681 0
-0.87892175 -0.01647532 -0.35641086 0
-0.77612162 -0.040740252 -0.36115849 0
-0.67372131 -0.092617512 -0.36125648 0
-0.57178187 -0.11936593 -0.36411241 0
-0.4962945 -0.17230105 -0.36157823 0
-0.40869308 -0.21824861 -0.36508211 0
-0.29283094 -0.27177989 -0.36213839 0
-0.2026124 -0.26648092 -0.37001935 0
-0.10895395 -0.32491171 -0.35760432 0
-0.041217327 -0.36489272 -0.34471607 0
0.025616646 -0.38069439 -0.32216367 0
0.13140488 -0.46274507 -0.37794334 0
0.24080276 -0.45759511 -0.34172988 0
-0.88356161 0.13506043 -0.35772774 0
-0.81693673 0.069154382 -0.35773733 0
-0.73553634 0.046840549 -0.36213911 0
-0.6480701 -0.0024883747 -0.36090484 0
-0.52734756 -0.024145961 -0.36821404 0
-0.45153141 -0.077503204 -0.36323711 0
-0.33192682 -0.12686694 -0.36419225 0
-0.23932552 -0.15572774 -0.36641312 0
-0.15423369 -0.20742142 -0.3679854 0
-0.080074787 -0.21645439 -0.34422675 0
-0.01305294 -0.29825604 -0.33460373 0
0.27965307 -0.35614705 -0.36892834 0
0.34637547 -0.40993261 -0.35898158 0
-0.87533736 0.19726348 -0.35471979 0
-0.79136658 0.15072656 -0.35841781 0
-0.71013689 0.12331223 -0.35887748 0
-0.59824991 0.098872304 -0.36365795 0
-0.51776433 0.049111724 -0.36358503 0
-0.42689228 0.018942595 -0.36372977 0
-0.29664969 -0.03059411 -0.36587587 0
-0.20723176 -0.072018266 -0.36838201 0
-0.13451195 -0.11486113 -0.35600793 0
-0.058260918 -0.13354254 -0.33770162 0
0.12313557 -0.2035886 -0.35375276 0
0.31492615 -0.25295746 -0.37013841 0
0.41517973 -0.33177483 -0.36878023 0
0.54914761 -0.36946833 -0.36269438 0
0.55705643 -0.40297699 -0.36944801 0
0.70376492 -0.4382726 -0.36345363 0
-0.8509109 0.2764914 -0.35679954 0
-0.77707744 0.26112437 -0.35901663 0
-0.64852571 0.23257005 -0.36274132 0
-0.58200431 0.18824244 -0.36524028 0
-0.4787457 0.16052735 -0.36682284 0
-0.39683938 0.10817063 -0.36411977 0
-0.27876759 0.066104054 -0.37059942 0
-0.16869235 0.033622026 -0.37119877 0
-0.098659039 0.0053427219 -0.35495058 0
0.00756073 -0.051007628 -0.34538138 0
0.13071966 -0.10828829 -0.34926105 0
0.31664848 -0.15089631 -0.36082041 0
0.36295557 -0.15691805 -0.37763983 0
0.45605659 -0.2228235 -0.37163079 0
0.50714397 -0.25208473 -0.35022438 0
0.72916937 -0.35198128 -0.36396864 0
0.89029789 -0.45341492 -0.3662701 0
-0.77391243 0.36961961 -0.3579984 0
-0.7127037 0.34758723 -0.36079326 0
-0.62489104 0.31455338 -0.36316577 0
-0.51596045 0.26683176 -0.36229447 0
-0.47445059 0.23919642 -0.36234653 0
-0.34833455 0.2023381 -0.36668223 0
-0.24017382 0.16978765 -0.36744076 0
-0.15407228 0.12555575 -0.36837149 0
-0.05592823 0.090937734 -0.35822257 0
0.043928146 0.044540286 -0.34652439 0
0.15452623 -0.01237452 -0.34935349 0
0.35993457 -0.043886185 -0.36542669 0
0.34907579 -0.09092319 -0.36607298 0
0.46393657 -0.13308537 -0.36569864 0
0.58576918 -0.16671503 -0.35900581 0
0.89534926 -0.31643546 -0.35563415 0
-0.75955272 0.48984551 -0.35756573 0
-0.67895913 0.44242847 -0.35809046 0
-0.58983707 0.39549375 -0.3654989 0
-0.49462438 0.34361696 -0.36323836 0
-0.38026023 0.31546926 -0.36442935 0
-0.31255937 0.31397283 -0.36371309 0
-0.23381114 0.23987806 -0.36476487 0
-0.137182 0.24156189 -0.36590621 0
-0.040366411 0.20710456 -0.36821425 0
0.066138029 0.13054419 -0.36147204 0
0.17411566 0.051545143 -0.34879524 0
0.26091814 0.094496608 -0.36693558 0
0.35992885 0.020356536 -0.36033607 0
0.47744226 -0.015853763 -0.36041334 0
0.50174975 -0.041646242 -0.37076026 0
0.63198113 -0.059603572 -0.36281791 0
0.7729497 -0.1439234 -0.36150959 0
0.93869781 -0.20330012 -0.36149478 0
-0.45750761 0.45947897 -0.36607859 0
-0.34775972 0.43911147 -0.36890104 0
-0.28055406 0.39236999 -0.3607533 0
-0.17781973 0.34097815 -0.36719194 0
-0.11920738 0.32694209 -0.36685181 0
-0.016267061 0.29928994 -0.37053937 0
0.077157021 0.2353524 -0.37378919 0
0.15637088 0.18580353 -0.36631683 0
0.30999231 0.18090749 -0.37560913 0
0.39407754 0.10627484 -0.36552209 0
0.51507521 0.077431202 -0.36619177 0
0.65189028 0.019737363 -0.36284256 0
0.79908562 -0.014431596 -0.35905826 0
0.79070473 -0.067676902 -0.36076826 0
0.9463706 -0.12530315 -0.35774955 0
-0.207654 0.47140014 -0.36216071 0
-0.13067746 0.45769536 -0.36743391 0
-0.035977364 0.42454171 -0.37363467 0
0.027158737 0.35138392 -0.36689276 0
0.14936256 0.32339251 -0.3683992 0
0.20772696 0.3025775 -0.36061895 0
0.29606748 0.25343668 -0.36678776 0
0.43568325 0.22751057 -0.37161976 0
0.4949007 0.15162885 -0.35737783 0
0.66377997 0.097051144 -0.36136267 0
0.83693027 0.061159253 -0.36587283 0
0.96937823 -0.015948057 -0.35611305 0
0.010921001 0.49983525 -0.37106407 0
0.081860542 0.44819725 -0.36582723 0
0.21458602 0.42682803 -0.37182909 0
0.27031565 0.38767529 -0.35774526 0
0.38199997 0.36840284 -0.33831891 0
0.44242287 0.30792701 -0.3577047 0
0.50592661 0.23978746 -0.36165002 0
0.82514596 0.10062349 -0.35886794 0
0.98114824 0.06782937 -0.35406393 0
0.32353544 0.46857071 -0.34875727 0
0.39535284 0.44766283 -0.33242878 0
0.27163458 -0.46867537 -0.31956205 0
0.36724138 -0.43593585 -0.30785388 0
0.5774951 -0.23465276 -0.33363509 0
0.84162235 -0.43364882 -0.34707621 0
0.62156796 -0.18787885 -0.33846527 0
0.45095682 0.18421125 -0.31591299 0
0.51201677 0.21979582 -0.3039811 0
0.47068596 0.30309904 -0.29820418 0
0.5107305 0.26251018 -0.27307513 0
0.98535085 0.12633061 -0.35190415 0
0.42675591 0.39229071 -0.30778888 0
0.50937581 0.39016676 -0.28144541 0
0.51408482 0.49812615 -0.29564685 0
0.59360361 0.48033011 -0.28290221 0
-0.99809575 -0.48832631 -0.35676658 0
-0.98933101 -0.4000299 -0.35716093 0
-0.86765862 -0.45013869 -0.36282721 0
-0.78240991 -0.48637462 -0.35825878 0
-0.93719292 -0.32167029 -0.35992464 0
-0.8535285 -0.35813808 -0.3598761 0
-0.7639153 -0.40355802 -0.35962197 0
-0.65399146 -0.4350583 -0.35931769 0
-0.56676316 -0.48775709 -0.36534292 0
-0.99108338 -0.19574594 -0.35943124 0
-0.89675426 -0.2179271 -0.36466172 0
-0.78436828 -0.25912392 -0.36193424 0
-0.6774497 -0.31133771 -0.36314321 0
-0.59658337 -0.32608593 -0.36065024 0
-0.5224812 -0.39637613 -0.36416131 0
-0.43266606 -0.41100228 -0.36447147 0
-0.33864975 -0.46501648 -0.36360124 0
-0.22928619 -0.4884789 -0.36028254 0
-0.94709253 -0.099615216 -0.35801208 0
-0.86109042 -0.13903093 -0.35398257 0
-0.77131557 -0.17298472 -0.3587102 0
-0.666857 -0.21042228 -0.35783908 0
-0.55823088 -0.23386526 -0.35961476 0
-0.46170759 -0.27921283 -0.3670834 0
-0.39564252 -0.31921053 -0.36278975 0
-0.29488325 -0.38091433 -0.36588526 0
-0.18582559 -0.41729128 -0.3651529 0
-0.062865734 -0.426018 -0.36393556 0
-0.046029091 -0.44905913 -0.37370291 0
-0.90840459 0.00093591213 -0.35530144 0
-0.830024 -0.049007773 -0.36109033 0
-0.73147464 -0.062183857 -0.3570309 0
-0.62939906 -0.10057414 -0.36392403 0
-0.49271226 -0.13774526 -0.37027425 0
-0.449646 -0.20424473 -0.3598071 0
-0.39420342 -0.26231527 -0.35417649 0
-0.25019813 -0.2767452 -0.36664653 0
-0.12631512 -0.2908324 -0.3586182 0
-0.079324245 -0.33965445 -0.35768694 0
-0.85996008 0.10497081 -0.36014056 0
-0.76383853 0.031795502 -0.36605251 0
-0.68447375 0.034159422 -0.36218405 0
-0.62110949 0.038233876 -0.36519253 0
-0.49279451 -0.047702789 -0.36662549 0
-0.40463376 -0.10015452 -0.36274487 0
-0.31317353 -0.14469504 -0.36859238 0
-0.2083075 -0.15393448 -0.36592397 0
-0.12514424 -0.20439982 -0.36262074 0
0.23532581 -0.36797011 -0.3631829 0
0.33178139 -0.40361273 -0.35756645 0
-0.83808398 0.18219638 -0.35993999 0
-0.74931788 0.118662 -0.36152428 0
-0.64100528 0.1096741 -0.36080223 0
-0.52503037 0.066352248 -0.36604944 0
-0.47630262 0.028411865 -0.36658058 0
-0.38560414 -0.011714339 -0.35956621 0
-0.28057265 -0.047279239 -0.36878833 0
-0.16323686 -0.079458714 -0.35167226 0
-0.098248482 -0.11048019 -0.34969208 0
-0.058903217 -0.18225491 -0.35236382 0
0.069373608 -0.18013668 -0.35148707 0
0.2899828 -0.27588427 -0.37083733 0
0.40479469 -0.32570946 -0.35918292 0
0.41500998 -0.35657799 -0.36755055 0
0.57201958 -0.40692067 -0.36573267 0
0.7156539 -0.45303476 -0.3614313 0
-0.85515642 0.30548084 -0.35585836 0
-0.80336547 0.26005435 -0.36294118 0
-0.68776155 0.24656451 -0.36192352 0
-0.61549401 0.19968259 -0.36404338 0
-0.51176095 0.14920151 -0.36307257 0
-0.43033075 0.12487972 -0.36335099 0
-0.35205793 0.093278885 -0.36141577 0
-0.26636863 0.02723217 -0.36621419 0
-0.14479542 0.014227629 -0.36270684 0
-0.031211138 -0.02512145 -0.34496722 0
0.00028657913 -0.041279078 -0.35714245 0
0.10026789 -0.10372376 -0.35432568 0
0.30218697 -0.18093002 -0.36605954 0
0.46028805 -0.20459306 -0.36656684 0
0.45860291 -0.23995876 -0.36955625 0
0.59905672 -0.34682751 -0.36880657 0
0.74462128 -0.3317126 -0.36035129 0
-0.83263659 0.39120519 -0.35826936 0
-0.74065518 0.3655206 -0.36255673 0
-0.68070745 0.3271786 -0.35903797 0
-0.55312657 0.30095208 -0.36089838 0
-0.49534941 0.25643444 -0.36073443 0
-0.41734862 0.21671593 -0.36076564 0
-0.31812477 0.20221019 -0.36448705 0
-0.24088216 0.13459253 -0.36586666 0
-0.11179543 0.084050655 -0.35832906 0
-0.015597582 0.028882027 -0.34305736 0
0.085580826 -0.0075757504 -0.34159565 0
0.34104347 -0.073032022 -0.36924928 0
0.47259784 -0.12150741 -0.36352929 0
0.58475637 -0.17200327 -0.35678309 0
-0.72450113 0.46241486 -0.35966986 0
-0.6293509 0.41339624 -0.35819632 0
-0.5520401 0.40288401 -0.36134604 0
-0.4753263 0.36770332 -0.36109278 0
-0.35713673 0.31594777 -0.36465928 0
-0.26959777 0.27621436 -0.36622059 0
-0.20987678 0.22711694 -0.36962664 0
-0.092605352 0.22869194 -0.37154493 0
0.022146702 0.16604948 -0.36603335 0
0.11512542 0.10673261 -0.35724178 0
0.14657521 0.061911106 -0.3550812 0
0.36742997 0.032758236 -0.36951554 0
0.51100039 -0.031555176 -0.36928684 0
0.63268971 -0.083352327 -0.35779828 0
-0.49865556 0.47212946 -0.36262015 0
-0.41204047 0.42948282 -0.36507684 0
-0.31627297 0.4006182 -0.36887699 0
-0.21598458 0.31670165 -0.36275712 0
-0.097612381 0.31988692 -0.36515236 0
0.010202169 0.27262139 -0.36454588 0
0.12468433 0.23627329 -0.36541304 0
0.24711299 0.18385327 -0.36864963 0
0.38797498 0.15827227 -0.36820132 0
0.38514566 0.11212456 -0.37002483 0
0.51070213 0.04306531 -0.363949 0
0.68311787 0.022137523 -0.36655927 0
0.81019592 -0.057563663 -0.36118376 0
-0.29463124 0.46910739 -0.35944223 0
-0.18414521 0.43500245 -0.36788875 0
-0.084739447 0.43223488 -0.36485308 0
0.022840261 0.34261727 -0.36555248 0
0.18036199 0.31842828 -0.34746531 0
0.23885059 0.26189101 -0.36194426 0
0.39146209 0.20531917 -0.36676887 0
0.51149821 0.19807529 -0.36169872 0
0.53846359 0.13453579 -0.36735567 0
0.69571018 0.12445974 -0.36401194 0
0.82362747 0.024543881 -0.35939857 0
0.042955637 0.44954252 -0.36844 0
0.15361595 0.43220985 -0.3663083 0
0.22255993 0.38166988 -0.3722336 0
0.40347338 0.28935981 -0.36680567 0
0.85174131 0.095330834 -0.36384743 0
0.27591562 0.48856866 -0.36641446 0
0.33682871 0.45581138 -0.3512072 0
-0.080871105 -0.44587195 -0.33285171 0
-0.051569939 -0.32881927 -0.31970114 0
-0.012277603 -0.38362384 -0.31864902 0
0.20708084 -0.48503268 -0.32818052 0
0.31383371 -0.4584533 -0.31417757 0
0.36922169 -0.48984706 -0.28206986 0
-0.056763172 -0.25523138 -0.32920685 0
0.34862614 -0.42869103 -0.30254799 0
-0.10288334 -0.16407025 -0.33633712 0
-0.021564484 -0.17347693 -0.33600825 0
0.056970119 -0.070133567 -0.33668858 0
0.51640606 -0.24132752 -0.34859207 0
0.92837095 -0.41639936 -0.35888094 0
0.58702254 -0.16157258 -0.34887615 0
0.58428812 -0.22035885 -0.33191746 0
0.76071405 -0.21671879 -0.35698187 0
0.94343209 -0.30023277 -0.3542428 0
0.76800942 -0.16411316 -0.35577354 0
0.953264 -0.20708609 -0.35110113 0
0.9625144 -0.14774358 -0.349877 0
0.41941071 0.22484505 -0.30801693 0
0.44346786 0.24522078 -0.34467977 0
0.27902341 0.3594197 -0.33862549 0
0.43595052 0.32189453 -0.31424904 0
0.49191713 0.28464603 -0.28340921 0
0.83550024 0.13748312 -0.35584307 0
0.99722767 0.089099765 -0.34563768 0
0.36446762 0.44531238 -0.32624596 0
0.44732547 0.39005768 -0.30827346 0
0.52910423 0.38346314 -0.27059034 0
0.47908878 0.47809374 -0.30667576 0
0.58053398 0.49677455 -0.27746803 0
0.25240612 -0.15309095 -0.377361 0
-0.38891244 0.30717444 -0.37562588 0
-0.3623662 0.47336602 -0.37506905 0
-0.041115046 0.43997812 -0.37725171 0
0.0770154 0.33742297 -0.37634495 0
0.66230583 0.11534214 -0.37617746 0
0.081062317 0.40644455 -0.37473655 0
-0.922544 -0.43174213 -0.36024916 0
-0.82934713 -0.44475031 -0.36317766 0
-0.73172879 -0.48799849 -0.36823508 0
-0.99591088 -0.29028571 -0.36022741 0
-0.91510439 -0.34145683 -0.35914648 0
-0.78585148 -0.36592734 -0.36110899 0
-0.71521974 -0.42601573 -0.35779983 0
-0.61233854 -0.46806884 -0.36279434 0
-0.97441459 -0.19791079 -0.35638615 0
-0.8716228 -0.23074949 -0.36102003 0
-0.77827907 -0.27750754 -0.36319005 0
-0.64922547 -0.3135463 -0.35991287 0
-0.54966664 -0.36657822 -0.36565444 0
-0.44817996 -0.4042933 -0.36549366 0
-0.34812808 -0.41541791 -0.36020249 0
-0.34450483 -0.4521693 -0.37011427 0
-0.22622991 -0.4899931 -0.36406571 0
-0.98373032 -0.079989791 -0.36360455 0
-0.92348695 -0.11148691 -0.35970801 0
-0.83664608 -0.16113603 -0.35783559 0
-0.71409249 -0.19080698 -0.36248198 0
-0.59481072 -0.21446598 -0.36262807 0
-0.52099085 -0.27369535 -0.35831124 0
-0.49395394 -0.29195786 -0.37335911 0
-0.34990048 -0.33473229 -0.36769059 0
-0.18054104 -0.40064406 -0.36503506 0
-0.053548336 -0.47348404 -0.36769876 0
-0.95014119 0.0077251196 -0.36139846 0
-0.87231565 -0.0082813501 -0.36225721 0
-0.81356668 -0.050986052 -0.35941046 0
-0.69524455 -0.090379596 -0.36457857 0
-0.55566573 -0.13406479 -0.36437282 0
-0.48486471 -0.20537615 -0.36068016 0
-0.36767888 -0.21125269 -0.36164391 0
-0.33932924 -0.25337696 -0.36497509 0
-0.26957488 -0.28566301 -0.36790267 0
-0.12234545 -0.31317914 -0.35879579 0
-0.048056602 -0.35626292 -0.33988985 0
0.00063610077 -0.40200984 -0.31477854 0
0.22356749 -0.48305678 -0.32652116 0
-0.92348289 0.095369577 -0.35875118 0
-0.86617351 0.068169355 -0.3534902 0
-0.76877522 0.055627942 -0.36089608 0
-0.66576648 -0.0020109415 -0.36257526 0
-0.52159595 -0.040762305 -0.36371791 0
-0.45967102 -0.074066043 -0.36438695 0
-0.43224406 -0.13930678 -0.37068829 0
-0.31015062 -0.12486792 -0.37083611 0
-0.22298646 -0.16088378 -0.36657828 0
-0.10052991 -0.20960903 -0.35269415 0
-0.020187378 -0.29441988 -0.31865311 0
0.33118534 -0.36262977 -0.37437725 0
0.36408615 -0.42337155 -0.32434249 0
-0.88800335 0.19742072 -0.35970986 0
-0.80635285 0.15770042 -0.35741273 0
-0.69396877 0.10473943 -0.36175549 0
-0.57943201 0.077235579 -0.36560711 0
-0.49409151 0.054943562 -0.36188978 0
-0.3965075 -0.025617123 -0.36812776 0
-0.32742262 -0.0038019419 -0.36985114 0
-0.30200505 -0.073428512 -0.36678398 0
-0.13715053 -0.089696527 -0.36169514 0
-0.060092926 -0.10725558 -0.3412374 0
-0.013779163 -0.19298422 -0.32971808 0
0.14130259 -0.21851873 -0.35557655 0
0.34633732 -0.28480709 -0.36970115 0
0.4565568 -0.31263113 -0.35485533 0
0.49170351 -0.38006723 -0.36461538 0
0.66480064 -0.45602226 -0.36129892 0
-0.87480903 0.2874732 -0.35604346 0
-0.75088859 0.27194822 -0.3636609 0
-0.67578554 0.21455073 -0.3648752 0
-0.57726097 0.18280339 -0.3653163 0
-0.48207593 0.12497389 -0.35892799 0
-0.3813436 0.063056946 -0.36339164 0
-0.27508259 0.047266364 -0.36272028 0
-0.14459968 0.046622872 -0.3700605 0
-0.12542176 -0.0073413849 -0.3638671 0
