# .PCD v0.7 - Point Cloud Data file format
VERSION 0.7
FIELDS x y z intensity
SIZE 4 4 4 4
TYPE F F F F
COUNT 1 1 1 1
WIDTH 1288
HEIGHT 1
VIEWPOINT 0 0 0 1 0 0 0
POINTS 1288
DATA ascii
-0.58922553 -0.38640976 0.13477618 0
-0.62211204 -0.31653547 0.10190225 0
-0.57837105 -0.28601646 0.12817347 0
-0.42444205 -0.26986599 0.15642923 0
-0.38824224 -0.27268744 0.15036106 0
-0.60472298 -0.25912523 0.080181658 0
-0.54402995 -0.24531746 0.10954487 0
-0.470227 -0.24268818 0.1251049 0
-0.67180228 -0.49988651 0.21146816 0
-0.70779514 -0.3870306 0.16486061 0
-0.64573836 -0.40535069 0.20945632 0
-0.59963989 -0.37560177 0.2374067 0
-0.62755966 -0.33339977 0.19281381 0
-0.56812501 -0.30176306 0.21576321 0
-0.47842455 -0.28205967 0.23426768 0
-0.39901638 -0.29258776 0.23335567 0
-0.53902864 -0.25567484 0.17428392 0
-0.49391651 -0.25699711 0.18328434 0
-0.67367482 0.17200708 0.19145316 0
-0.67585063 -0.49717236 0.30139989 0
-0.62401652 -0.49926424 0.3350161 0
-0.65016747 -0.41249084 0.28979498 0
-0.60202861 -0.38254738 0.29696694 0
-0.36202598 -0.37776995 0.37360525 0
-0.64772964 -0.35369873 0.25986981 0
-0.56537271 -0.32473803 0.29572785 0
-0.49194717 -0.30753326 0.31395742 0
-0.41819334 -0.33169365 0.33926335 0
-0.62971091 -0.47277403 -0.014488399 0
-0.4282527 -0.23293209 0.011202455 0
-0.21087861 -0.33024073 -0.0037668943 0
-0.67090392 -0.45499229 0.036766768 0
-0.63888597 -0.48460531 0.064848721 0
-0.64017391 -0.36708164 0.042883396 0
-0.60016108 -0.36790323 0.067462444 0
-0.59738255 -0.28214025 0.048713982 0
-0.55430126 -0.26412964 0.060655355 0
-0.49850297 -0.23973274 0.053824008 0
-0.41830373 -0.25564432 0.07675004 0
-0.67970943 -0.4526782 0.12880307 0
-0.65524125 -0.47036695 0.15254402 0
-0.64421558 -0.3640523 0.12777853 0
-0.61258435 -0.36887789 0.15552479 0
-0.60888886 -0.29437637 0.11827683 0
-0.56247187 -0.27691174 0.15245694 0
-0.4472003 -0.28521347 0.21054029 0
-0.51062059 -0.2473917 0.13899422 0
-0.44492078 -0.27053642 0.17224461 0
-0.68908834 -0.45259571 0.22192556 0
-0.6595211 -0.46581984 0.24369356 0
-0.65654445 -0.37470198 0.21177381 0
-0.61769414 -0.37443686 0.24551135 0
-0.62547088 -0.30353594 0.19744766 0
-0.55936432 -0.30772161 0.24398017 0
-0.48841667 -0.30167913 0.27157199 0
-0.41439748 -0.32795954 0.30291316 0
-0.77139091 0.13402939 0.21778709 0
-0.72062898 0.12279415 0.22762442 0
-0.70753407 0.15392351 0.21000874 0
-0.66402316 -0.46668863 0.34069696 0
-0.66766977 -0.35446453 0.2870425 0
-0.61471677 -0.38126469 0.34507728 0
-0.56138825 -0.36577272 0.39783382 0
-0.56694365 -0.32757378 0.3365238 0
-0.51793528 -0.32713223 0.3675223 0
-0.42596221 -0.33988619 0.35270131 0
-0.78028059 0.13492918 0.24339971 0
-0.73694372 0.10824871 0.24437383 0
-0.71750832 -0.45854855 0.38456142 0
-0.67521954 -0.46702814 0.40100151 0
-0.61972523 -0.38833523 0.40715653 0
-0.57044244 -0.36658335 0.41214991 0
-0.56717372 -0.33881521 0.41907591 0
-0.51236415 -0.33939838 0.43186864 0
-0.72475171 -0.47957516 -0.034117043 0
-0.67971611 -0.47595453 -0.034734368 0
-0.64184403 -0.38840532 -0.027047276 0
-0.58888817 -0.2969141 -0.018861055 0
-0.54604268 -0.25506258 -0.012778044 0
-0.48202801 -0.24593163 -0.013704956 0
-0.73840022 -0.47754908 0.034869969 0
-0.68833303 -0.47422981 0.035156965 0
-0.69898081 -0.38342094 0.025565207 0
-0.65626717 -0.38190556 0.040664613 0
-0.65817809 -0.30634069 -0.0049413443 0
-0.60805035 -0.2962718 0.043356359 0
-0.5543797 -0.25486326 0.046650946 0
-0.51412106 -0.25074959 0.056226909 0
-0.42800331 -0.2781682 0.085271478 0
-0.75151062 -0.4515624 0.13442755 0
-0.69249868 -0.47380686 0.1389299 0
-0.70689535 -0.36299562 0.09617281 0
-0.65518904 -0.38765621 0.1400575 0
-0.60463691 -0.38015366 0.17295283 0
-0.68996048 -0.30918026 0.078879833 0
-0.6119256 -0.30270576 0.13460517 0
-0.56482291 -0.29229164 0.17367458 0
-0.57068753 -0.25627089 0.11352527 0
-0.52460074 -0.26286745 0.15115362 0
-0.44240475 -0.29252481 0.19410801 0
-0.69319749 -0.47933435 0.23177791 0
-0.66970062 -0.48991346 0.25774723 0
-0.66297269 -0.39160252 0.22854438 0
-0.62753057 -0.38958168 0.26232857 0
-0.61947775 -0.31427622 0.21824059 0
-0.56743121 -0.32233095 0.25546297 0
-0.48477364 -0.317976 0.28411564 0
-0.41803384 -0.35215092 0.34276393 0
-0.77333879 0.11271238 0.22889879 0
-0.73730898 0.10281324 0.23696315 0
-0.7606926 0.13742542 0.21416131 0
-0.72011304 0.13537502 0.21789667 0
-0.70350766 -0.46909523 0.33732125 0
-0.68107295 -0.48986721 0.34599963 0
-0.67503524 -0.41551542 0.31671423 0
-0.62885499 -0.39842653 0.3560546 0
-0.57405663 -0.34277725 0.35550824 0
-0.50887942 -0.34457397 0.38438538 0
-0.82139301 0.029659748 0.28682151 0
-0.78561497 0.0076932907 0.28852686 0
-0.79217887 0.099869251 0.27193314 0
-0.76521564 0.071172714 0.27244008 0
-0.73326898 -0.48672533 0.39891243 0
-0.69037223 -0.48872042 0.43153682 0
-0.62874365 -0.40443993 0.43601584 0
-0.56511426 -0.38134909 0.45009464 0
-0.5801487 -0.35555792 0.44133404 0
-0.52797413 -0.35620975 0.46121407 0
-0.19398928 -0.32069969 -0.10133821 0
-0.68558335 -0.46552992 -0.067501962 0
-0.65713239 -0.48429823 -0.052433431 0
-0.65186024 -0.37806177 -0.055674195 0
-0.61713672 -0.38182402 -0.052805305 0
-0.607265 -0.30231047 -0.046036243 0
-0.56940961 -0.29545021 -0.046397269 0
-0.51239133 -0.24395752 -0.040931225 0
-0.44267201 -0.2328887 -0.041842818 0
-0.69672823 -0.46055746 0.016658962 0
-0.67467642 -0.47572136 0.046736538 0
-0.66352558 -0.36556005 0.02069664 0
-0.63855457 -0.38591957 0.041102827 0
-0.63052773 -0.30367374 0.033531666 0
-0.59239721 -0.28484774 0.04315573 0
-0.52008438 -0.24578381 0.049123466 0
-0.45302606 -0.25355911 0.057210922 0
-0.38190866 -0.27074432 0.065123737 0
-0.70437217 -0.42711449 0.13312984 0
-0.67948365 -0.47419643 0.13629156 0
-0.68002892 -0.36790323 0.11552387 0
-0.64186382 -0.38421106 0.13699967 0
-0.63640046 -0.27900457 0.10118645 0
-0.5950911 -0.29495955 0.1447736 0
-0.52404523 -0.28166628 0.20334959 0
-0.52891135 -0.24834442 0.12017983 0
-0.49492645 -0.26102972 0.16233271 0
-0.39955521 -0.28725052 0.15293521 0
-0.67814946 -0.4770751 0.23472357 0
-0.61037731 -0.46212101 0.26120231 0
-0.63813996 -0.38712788 0.24014872 0
-0.59947181 -0.40444183 0.28162506 0
-0.59048176 -0.31979847 0.23365182 0
-0.532866 -0.31264544 0.27058798 0
-0.43477798 -0.30947208 0.27188647 0
-0.45260096 -0.29030752 0.23267251 0
-0.73971057 0.11671734 0.23139882 0
-0.70754766 0.093855858 0.24041501 0
-0.72776556 0.14659119 0.21290338 0
-0.686975 0.14416361 0.20906404 0
-0.68254542 -0.4834199 0.33423781 0
-0.64653468 -0.47352457 0.37663868 0
-0.63824296 -0.39311981 0.33206382 0
-0.60950589 -0.39272261 0.36981821 0
-0.61034536 -0.33526039 0.31784329 0
-0.55112267 -0.33687639 0.35695952 0
-0.46040106 -0.3458209 0.36788628 0
-0.82711005 -0.091368675 0.3341704 0
-0.79494476 -0.076929569 0.33366323 0
-0.79242873 0.0076408386 0.30342427 0
-0.7687459 -0.0082101822 0.31406072 0
-0.76759124 0.083692551 0.28508368 0
-0.74258971 0.062758923 0.29008272 0
-0.69408083 -0.47876644 0.43342078 0
-0.66622162 -0.48622704 0.44721201 0
-0.66301131 -0.41602516 0.4195635 0
-0.61298347 -0.39763927 0.45535654 0
-0.55213499 -0.35266447 0.45926577 0
-0.50392723 -0.35286331 0.47229609 0
-0.83359504 -0.083528519 0.34681439 0
-0.81348658 -0.10205412 0.34711382 0
-0.81243253 0.0036005974 0.34166467 0
-0.79692006 -0.03574276 0.3471331 0
-0.70516896 -0.47019339 0.49664471 0
-0.67159128 -0.4929986 0.50170964 0
-0.60846639 -0.39799404 0.51190811 0
-0.56759405 -0.36002207 0.52455491 0
-0.52561831 -0.36028671 0.54207015 0
0.38727784 -0.20724964 -0.36378175 0
0.6523385 -0.41205645 -0.35503274 0
0.73803306 -0.46238327 -0.35024959 0
0.23819399 0.014559746 -0.36810356 0
0.30509353 -0.082980156 -0.36627704 0
0.3838129 -0.12373114 -0.36613244 0
0.48590755 -0.13730192 -0.36432898 0
0.73585868 -0.37202358 -0.36115569 0
0.81064725 -0.42290545 -0.35571641 0
0.23872805 0.11513662 -0.36795413 0
0.31700063 0.080192566 -0.36974877 0
0.3774209 -0.0033335686 -0.36917925 0
0.45611119 -0.039587975 -0.36781067 0
0.51029992 -0.10520506 -0.36821425 0
0.64763498 -0.15633011 -0.36770058 0
0.73517895 -0.22382641 -0.36683363 0
0.86343002 -0.31239605 -0.37025124 0
0.93343592 -0.38183641 -0.36456078 0
0.99844646 -0.43973017 -0.3572585 0
0.2182076 0.26396513 -0.35508835 0
0.28594637 0.20914459 -0.36149353 0
0.33260822 0.16424751 -0.36475188 0
0.42091131 0.087368965 -0.36852831 0
0.48980355 0.024211884 -0.36784953 0
0.58205414 -0.028154373 -0.36789012 0
0.67934942 -0.087542534 -0.36727935 0
0.76320863 -0.18127251 -0.36677182 0
0.83096766 -0.14788246 -0.36929411 0
0.90848231 -0.24302769 -0.3734895 0
0.9879024 -0.3546629 -0.37065941 0
0.2616992 0.32086325 -0.35043281 0
0.33081388 0.28915262 -0.35408896 0
0.4232049 0.21974897 -0.3601262 0
0.50128913 0.1579504 -0.36598527 0
0.5311532 0.092274666 -0.36826861 0
0.63494444 0.075574875 -0.3679772 0
0.71336532 0.023953915 -0.36624789 0
0.8114121 -0.11056471 -0.36916405 0
0.87356591 -0.077354431 -0.3722403 0
0.99880314 -0.18896723 -0.3781842 0
0.39611506 0.38231421 -0.34444863 0
0.46000028 0.30045557 -0.35305339 0
0.52463269 0.22962475 -0.35963184 0
0.62290215 0.22000885 -0.36027575 0
0.66806412 0.14451361 -0.36814076 0
0.78064346 0.096455097 -0.36868787 0
0.89163589 0.00040817261 -0.37334722 0
0.92316008 -0.0036273003 -0.37544984 0
0.44403529 0.43964767 -0.33579946 0
0.51028538 0.39540482 -0.3385604 0
0.58715296 0.32782173 -0.34680927 0
0.6924324 0.29095078 -0.34589934 0
0.76575112 0.1916728 -0.36204326 0
0.80893207 0.13582802 -0.36931944 0
0.92012835 0.12267351 -0.36899698 0
0.5929904 0.46178532 -0.32047063 0
0.67936802 0.41111994 -0.32850337 0
0.75611591 0.36694288 -0.33244061 0
0.82615781 0.26847458 -0.34931213 0
0.88088942 0.21288013 -0.35944325 0
0.80718184 0.4631319 -0.3167789 0
0.88679957 0.3875494 -0.33039999 0
0.96617222 0.32854176 -0.34171891 0
0.94515586 0.4867363 -0.31470275 0
-0.11753273 -0.2020874 -0.32536089 0
-0.092648745 -0.23325682 -0.31381184 0
-0.086951733 -0.1756978 -0.31999451 0
-0.052392721 -0.1831212 -0.31316537 0
0.22276735 -0.33071518 -0.29249907 0
-0.015919685 -0.13426971 -0.33241701 0
0.14202046 -0.1563096 -0.36234385 0
0.21947694 -0.23174 -0.36005628 0
0.26570845 -0.27987719 -0.32264715 0
0.15197921 -0.087053776 -0.36432093 0
0.2610774 -0.1663847 -0.36256504 0
0.33541727 -0.22766209 -0.33946812 0
0.40965962 -0.210145 -0.31294692 0
0.64590335 -0.46295643 -0.34900039 0
0.18727446 -0.030143261 -0.36679924 0
0.45512271 -0.17446852 -0.33617675 0
0.13632393 0.46451378 -0.33597255 0
0.17684698 0.39875841 -0.34245455 0
0.22656226 0.35232592 -0.34806764 0
0.2171073 0.49975872 -0.33294541 0
0.28044176 0.42588043 -0.34110594 0
-0.6907897 -0.4899025 -0.26955342 0
-0.64373732 -0.47425747 -0.26810402 0
-0.57595897 -0.42297459 -0.2630834 0
-0.50788593 -0.35876465 -0.26082802 0
-0.47315955 -0.26824999 -0.24858272 0
-0.41677952 -0.18286085 -0.24814582 0
-0.14100957 -0.25121832 -0.26704645 0
-0.094740629 -0.27201128 -0.22885919 0
-0.067599773 -0.21942425 -0.2831946 0
-0.6850028 -0.48077488 -0.21816486 0
-0.66267061 -0.49980545 -0.18888885 0
-0.58476067 -0.42980957 -0.19440871 0
-0.5591259 -0.32526398 -0.16461176 0
-0.5223875 -0.34961605 -0.18398255 0
-0.53600121 -0.27503061 -0.18477261 0
-0.46815181 -0.26381016 -0.17481452 0
-0.47102571 -0.19046783 -0.22509837 0
-0.40929985 -0.20750427 -0.1821484 0
-0.15442228 -0.32124472 -0.14023024 0
-0.10900402 -0.30996513 -0.16554338 0
-0.9303143 -0.46745348 -0.14985222 0
-0.87784863 -0.49742603 -0.14340758 0
-0.68348217 -0.47521973 -0.12107641 0
-0.62741303 -0.3983922 -0.071366131 0
-0.6068418 -0.42904234 -0.099645019 0
-0.57876492 -0.33630705 -0.081633389 0
-0.54187417 -0.34381628 -0.088874876 0
-0.48121881 -0.27292395 -0.080249369 0
-0.41344786 -0.23649931 -0.095221579 0
-0.1651628 -0.35344553 -0.063196003 0
-0.67749596 -0.46645069 -0.026505172 0
-0.64050674 -0.4023447 0.0056613684 0
-0.61849546 -0.43699598 0.00083726645 0
-0.58569908 -0.32606888 0.020020485 0
-0.56373978 -0.34465265 -0.0072661042 0
-0.54856372 -0.27595043 0.021677673 0
-0.4934051 -0.27700472 0.015363514 0
-0.39998865 -0.2828784 0.066788256 0
-0.41609073 -0.26547241 0.032999933 0
-0.6912756 -0.48774099 0.076617241 0
-0.64584517 -0.40719986 0.099104226 0
-0.62827969 -0.43606234 0.098470449 0
-0.59789467 -0.33169985 0.10390538 0
-0.5711751 -0.34554529 0.12591648 0
-0.55036831 -0.28304911 0.097997367 0
-0.49673724 -0.28215599 0.11800683 0
-0.37057352 -0.29676056 0.088613093 0
-0.69894409 -0.48509121 0.22712886 0
-0.64755702 -0.4066081 0.18730795 0
-0.63284302 -0.44590425 0.20367402 0
-0.60343218 -0.34362316 0.18751413 0
-0.57520318 -0.35507393 0.21825808 0
-0.49393725 -0.30945587 0.21470857 0
-0.43620777 -0.32421875 0.23938063 0
-0.7291069 0.046670437 0.25460884 0
-0.70319772 0.095226288 0.23673746 0
-0.64738297 -0.41856956 0.28356254 0
-0.62780786 -0.45039368 0.30424857 0
-0.564327 -0.37610722 0.31017452 0
-0.49800992 -0.34091949 0.30952522 0
-0.43762112 -0.35321903 0.31879115 0
-0.74462509 0.023616314 0.28728238 0
-0.72146487 -0.014309883 0.28729767 0
-0.72267461 0.07054615 0.27679184 0
-0.6224823 -0.45406389 0.37340897 0
-0.5553503 -0.37931538 0.38022563 0
-0.48747158 -0.35976839 0.39542583 0
-0.40601635 -0.37562227 0.38008717 0
-0.14289546 -0.29081011 -0.18615508 0
-0.7263298 -0.48075771 -0.22781289 0
-0.68084621 -0.43382168 -0.20101857 0
-0.63866949 -0.43400431 -0.20069665 0
-0.56820846 -0.36449385 -0.18296659 0
-0.51271653 -0.27805519 -0.16570187 0
-0.458179 -0.21644831 -0.14986598 0
-0.14970756 -0.32010984 -0.14025247 0
-0.9871316 -0.46617651 -0.16144621 0
-0.65540409 -0.44807243 -0.1183331 0
-0.59958887 -0.36548185 -0.10588801 0
-0.54150558 -0.28596926 -0.079314113 0
-0.47177505 -0.24488449 -0.062497079 0
-0.43952107 -0.25359011 -0.043130934 0
-0.66791439 -0.45694876 -0.023367286 0
-0.64991426 -0.33995819 -0.019090831 0
-0.62890244 -0.36828136 -0.0059820414 0
-0.61335611 -0.29228115 0.038409889 0
-0.56936264 -0.28850222 0.013617516 0
-0.50342226 -0.2590971 0.046455443 0
-0.4359293 -0.25626659 0.0027598739 0
-0.68424845 -0.47338676 0.075829625 0
-0.66187 -0.34072733 0.069853783 0
-0.64428544 -0.38300085 0.095552444 0
-0.62561727 -0.29714346 0.072877407 0
-0.58496189 -0.29762411 0.11890393 0
-0.51993942 -0.26697302 0.13074541 0
-0.6871736 -0.4939189 0.17632246 0
-0.64821553 -0.40633917 0.19533479 0
-0.59521961 -0.33317852 0.20999044 0
-0.53720331 -0.3204608 0.2573562 0
-0.53062749 -0.30032873 0.2110793 0
-0.48492384 -0.31272984 0.23964572 0
-0.77888322 0.065756798 0.24851269 0
-0.74500513 0.053906918 0.25807723 0
-0.74608779 0.11007404 0.23456177 0
-0.71088839 0.10109901 0.23370433 0
-0.65554094 -0.42336321 0.28885084 0
-0.64229822 -0.46180344 0.31132042 0
-0.60168552 -0.35861588 0.30263343 0
-0.56695104 -0.362638 0.3318015 0
-0.79957318 -0.055903912 0.32224533 0
-0.50726748 -0.33540154 0.33824408 0
-0.79840755 0.05414629 0.31716871 0
-0.7730608 0.015196323 0.30352053 0
-0.7526691 0.082649231 0.28416547 0
-0.73677969 0.065840721 0.30142608 0
-0.87286949 -0.25449467 0.41081995 0
-0.65934825 -0.43818951 0.39079556 0
-0.64924073 -0.46218538 0.39459386 0
-0.85634327 -0.16568804 0.3908236 0
-0.85056639 -0.21396112 0.39370316 0
-0.6194694 -0.38540077 0.41358244 0
-0.58268595 -0.38272381 0.41726068 0
-0.85836434 -0.0064892769 0.39534226 0
-0.81890845 -0.081078053 0.38297123 0
-0.48785448 -0.36543226 0.42214832 0
-0.46926141 -0.37461948 0.48188856 0
-0.83462095 0.023944378 0.37927163 0
-0.80540872 -0.0065875053 0.38403675 0
-0.68864703 -0.46183634 0.48828024 0
-0.65765095 -0.46685696 0.48342246 0
-0.90459371 -0.20331478 0.41738045 0
-0.59666133 -0.4022646 0.49638632 0
-0.50848866 -0.37355709 0.50316072 0
-0.69710636 -0.4749651 -0.22476536 0
-0.63921046 -0.42595243 -0.20638222 0
-0.57898235 -0.35488987 -0.19023705 0
-0.56777453 -0.38605642 -0.18415892 0
-0.53662038 -0.30439377 -0.1742608 0
-0.4994235 -0.21600485 -0.15922189 0
-0.44310594 -0.22552538 -0.15317369 0
-0.2402091 -0.31110287 -0.13589609 0
-0.17500687 -0.32060623 -0.12392271 0
-0.67670536 -0.43848324 -0.15948588 0
-0.66840696 -0.48848915 -0.12602729 0
-0.6126554 -0.3644309 -0.13240731 0
-0.57122779 -0.39001942 -0.13396144 0
-0.55787992 -0.28502989 -0.11514813 0
-0.51232076 -0.23386097 -0.11580473 0
-0.46794105 -0.2332058 -0.080219269 0
-0.97609949 -0.47799778 -0.16222674 0
-0.92827797 -0.44014597 -0.16105956 0
-0.68593383 -0.44181061 -0.062827289 0
-0.66492915 -0.47401476 -0.059086561 0
-0.64312983 -0.35809851 -0.039797544 0
-0.60531354 -0.38914251 -0.081572056 0
-0.5781579 -0.28586483 -0.019235671 0
-0.52381635 -0.24864626 -0.034328759 0
-0.50247931 -0.25462341 0.01467526 0
-0.70631313 -0.44372511 0.028886974 0
-0.68992877 -0.49451113 0.043177366 0
-0.67132592 -0.37192535 0.06011641 0
-0.6412909 -0.41034508 0.078884959 0
-0.61694431 -0.29603958 0.071698487 0
-0.57943749 -0.29976559 0.1174714 0
-0.55378604 -0.25757074 0.084407568 0
-0.52362704 -0.26087093 0.096869826 0
-0.71796179 -0.46007633 0.10918957 0
-0.67338991 -0.37921143 0.15126997 0
-0.66837883 -0.42061996 0.16340476 0
-0.62286234 -0.31433439 0.15374905 0
-0.59485698 -0.32139158 0.19420195 0
-0.58259821 -0.26418161 0.13629967 0
-0.52758479 -0.29203176 0.19956827 0
-0.46930504 -0.30888128 0.23117748 0
-0.74578238 0.11850929 0.20854637 0
-0.68767524 -0.38436651 0.22583821 0
-0.6688993 -0.42565632 0.25814798 0
-0.60271382 -0.35469294 0.28760412 0
-0.54106855 -0.32068491 0.27508682 0
-0.51310635 -0.32699156 0.29919204 0
-0.78419471 0.045742512 0.27062201 0
-0.77429008 -0.011009216 0.28751799 0
-0.75470591 0.097272396 0.24728215 0
-0.67742085 -0.45244217 0.36042488 0
-0.62338448 -0.45320988 0.39796612 0
-0.85096359 -0.16033649 0.3604624 0
-0.60540628 -0.37453604 0.36961311 0
-0.58643603 -0.38403177 0.40399835 0
-0.84286475 -0.038809299 0.34504583 0
-0.82727861 -0.08917141 0.34618115 0
-0.56367064 -0.34499359 0.39831528 0
-0.52714825 -0.35374832 0.42431614 0
-0.82081485 0.025169373 0.34053308 0
-0.79567409 -0.025827408 0.33352357 0
-0.9122808 -0.26634216 0.42033565 0
-0.90051174 -0.30048466 0.44233266 0
-0.68685389 -0.4575758 0.45709991 0
-0.67340279 -0.47714949 0.47756335 0
-0.90098953 -0.11463737 0.39778793 0
-0.8815937 -0.19153452 0.4233022 0
-0.85674834 -0.22093678 0.4489423 0
-0.63404965 -0.39334774 0.46995825 0
-0.6018014 -0.39472771 0.47162807 0
-0.88328195 -0.040281773 0.43416047 0
-0.85748291 -0.10313225 0.42733523 0
-0.49638653 -0.36974096 0.48834288 0
-0.85912132 0.0077610016 0.41148856 0
-0.82783842 -0.029941082 0.42282128 0
-0.95487094 -0.38677645 0.48955733 0
-0.93063688 -0.269485 0.47531292 0
-0.91633773 -0.3150506 0.48651409 0
-0.701684 -0.46617603 0.52564991 0
-0.68673801 -0.48498869 0.53760934 0
-0.93131542 -0.13133478 0.47481224 0
-0.90408301 -0.19352818 0.4917047 0
-0.86240959 -0.24297428 0.48990849 0
-0.90659857 -0.059147358 0.48907369 0
-0.89462972 -0.11348343 0.48844317 0
0.99718857 -0.32728386 -0.37603045 0
0.99702716 0.23694086 -0.36634237 0
0.60535431 0.4467802 -0.33371675 0
0.65475774 0.40255833 -0.33750892 0
0.78071427 0.35123682 -0.34579211 0
0.86207676 0.30039692 -0.35435951 0
0.77627873 0.47510481 -0.32420027 0
0.91164947 0.43138218 -0.33341163 0
0.21955276 -0.29650021 -0.30087954 0
0.33484483 -0.22650099 -0.31562996 0
0.42399883 -0.17607832 -0.319884 0
0.52091074 0.48740292 -0.32884926 0
-0.15473843 -0.23660326 -0.26299405 0
-0.10600662 -0.20249033 -0.28306812 0
-0.082070589 -0.23253775 -0.24782473 0
-0.70850301 -0.47950935 -0.2709235 0
-0.67606282 -0.49515247 -0.26090145 0
-0.6556673 -0.43496847 -0.27898157 0
-0.60638952 -0.4217124 -0.255804 0
-0.53328109 -0.36053848 -0.25177544 0
-0.48484659 -0.20628691 -0.25926048 0
-0.49290943 -0.26610518 -0.23947763 0
-0.44035363 -0.18339443 -0.23020393 0
-0.38904166 -0.13639975 -0.25269812 0
-0.17797494 -0.24784374 -0.23574919 0
-0.13532209 -0.27951765 -0.18118429 0
-0.078071356 -0.25930738 -0.21467763 0
-0.71630335 -0.48179054 -0.21683508 0
-0.67393327 -0.49003172 -0.18725425 0
-0.62333369 -0.42161179 -0.17864686 0
-0.62078381 -0.34880781 -0.16315031 0
-0.55403233 -0.3517375 -0.17129487 0
-0.50378919 -0.26662731 -0.16058606 0
-0.43615317 -0.20065069 -0.15992308 0
-0.21676755 -0.32628727 -0.05973196 0
-0.14611077 -0.31841564 -0.10980982 0
-0.97521496 -0.44168472 -0.16334885 0
-0.93316483 -0.46687841 -0.15101439 0
-0.63885784 -0.42448378 -0.079058945 0
-0.58505106 -0.33783865 -0.071059823 0
-0.51364779 -0.26694012 -0.061334014 0
-0.44520926 -0.22625494 -0.062549829 0
-0.41349816 -0.23625517 -0.025587022 0
-0.67324662 -0.37510443 -0.012999296 0
-0.64652157 -0.42483616 0.023106217 0
-0.6358006 -0.48724651 0.059422135 0
-0.62390995 -0.29958582 0.044837058 0
-0.60307789 -0.32993269 0.027644396 0
-0.52946925 -0.26296616 0.037526011 0
-0.4634757 -0.24617052 0.042620897 0
-0.43288231 -0.23953485 0.019402206 0
-0.68169475 -0.49828005 0.10940617 0
-0.6576488 -0.42765665 0.12155211 0
-0.6295495 -0.45778942 0.12855971 0
-0.61321592 -0.33267307 0.12314606 0
-0.54453444 -0.26734304 0.13523036 0
-0.41504192 -0.27905178 0.16770142 0
-0.39769721 -0.29761314 0.20445395 0
-0.69378066 -0.49023247 0.22357804 0
-0.65620422 -0.42829609 0.21623212 0
-0.64492607 -0.46031666 0.23248342 0
-0.6118381 -0.36090851 0.21768749 0
-0.5626657 -0.34879112 0.25829214 0
-0.5606935 -0.2948246 0.21150649 0
-0.51134682 -0.30446434 0.25377956 0
-0.72902298 0.15061474 0.21026948 0
-0.70388699 0.10758495 0.22929671 0
-0.71143842 -0.48835087 0.33035737 0
-0.65332556 -0.41624928 0.31549725 0
-0.64689732 -0.45493174 0.33140856 0
-0.61736298 -0.38246489 0.28795969 0
-0.58626962 -0.37053728 0.33783379 0
-0.79474998 -0.070698738 0.32484421 0
-0.770576 -0.086037636 0.33567518 0
-0.51636648 -0.32798147 0.34177476 0
-0.43845248 -0.35185194 0.40393314 0
-0.78401875 0.075745583 0.30650398 0
-0.76193023 0.022513866 0.30133557 0
-0.74039221 -0.039712429 0.33399934 0
-0.76305628 0.11072636 0.27163929 0
-0.7254796 0.08465004 0.27289018 0
-0.86732364 -0.24427176 0.41943136 0
-0.6582737 -0.46642637 0.43583712 0
-0.86949205 -0.15227938 0.36627337 0
-0.82851338 -0.19205332 0.4076798 0
-0.5900352 -0.38689518 0.44279149 0
-0.81087422 -0.07128191 0.38472512 0
-0.79058194 -0.11589336 0.38644254 0
-0.53363442 -0.34713125 0.42617249 0
-0.44204855 -0.35646677 0.43700737 0
-0.36625624 -0.40368652 0.46702057 0
-0.79223847 0.0092544556 0.37187406 0
-0.77551079 0.080301762 0.33431697 0
-0.9206171 -0.36780214 0.49661729 0
-0.90739036 -0.38708019 0.50856179 0
-0.8798902 -0.2861762 0.48162836 0
-0.8760047 -0.33296251 0.49140459 0
-0.66043401 -0.4639554 0.51833636 0
-0.88712525 -0.14493752 0.47581437 0
-0.84810376 -0.19635296 0.47785699 0
-0.58699489 -0.40315342 0.50513089 0
-0.8843925 -0.010695934 0.45351323 0
-0.85292983 -0.068439007 0.46198574 0
-0.8130331 -0.12002707 0.46154022 0
-0.86503911 0.016498566 0.44914865 0
-0.83021855 -0.0072412491 0.44058222 0
-0.95112181 -0.44163036 0.54247981 0
-0.91848779 -0.34859324 0.5377546 0
-0.92112732 -0.40173292 0.53684294 0
-0.90109348 -0.28681803 0.53125143 0
-0.10621691 -0.30463076 -0.16995686 0
-0.69293761 -0.47275066 -0.21765566 0
-0.65708303 -0.44708395 -0.21288759 0
-0.63105798 -0.4263382 -0.20732337 0
-0.55145383 -0.36250782 -0.19216669 0
-0.53245783 -0.27276659 -0.18062019 0
-0.52939987 -0.27541399 -0.18112189 0
-0.44702172 -0.20642519 -0.1667254 0
-0.22832823 -0.31704998 -0.12098098 0
-0.15774298 -0.34061813 -0.10252523 0
-0.72987437 -0.4991293 -0.17183447 0
-0.67954135 -0.43791008 -0.16456181 0
-0.64773297 -0.43180752 -0.1474756 0
-0.59552526 -0.32868099 -0.14126021 0
-0.58995438 -0.36889124 -0.13455755 0
-0.55646634 -0.27052546 -0.1192885 0
-0.53211808 -0.28030109 -0.11790776 0
-0.45976925 -0.2291913 -0.11042595 0
-0.28224206 -0.33794832 -0.030712426 0
-0.23822236 -0.3437438 -0.012819588 0
-0.9402988 -0.46474409 -0.15531462 0
-0.68234062 -0.42332554 -0.081202269 0
-0.66570234 -0.4518013 -0.052489221 0
-0.6370244 -0.33803177 -0.054136276 0
-0.61390686 -0.35583401 -0.037820041 0
-0.59967899 -0.28686094 0.010439515 0
-0.54596472 -0.27394724 -0.024766505 0
-0.4751296 -0.25240612 -0.023312509 0
-0.40429258 -0.27375937 -0.00037902594 0
-0.2561183 -0.34900045 0.02454704 0
-0.7154665 -0.40705729 0.072039306 0
-0.67644167 -0.4515686 0.036403954 0
-0.66142344 -0.34246969 0.042303026 0
-0.64113879 -0.36221027 0.068545282 0
-0.61791897 -0.28788757 0.047567546 0
-0.57388282 -0.27354765 0.070224404 0
-0.49756718 -0.25517893 0.087466598 0
-0.6858027 -0.46055031 0.14612299 0
-0.64293265 -0.36780834 0.15551573 0
-0.57829404 -0.29921055 0.17089683 0
-0.51005363 -0.29365301 0.2126531 0
-0.53123164 -0.25921011 0.13760078 0
-0.45111489 -0.29265976 0.18484712 0
-0.68930316 -0.45865774 0.23955747 0
-0.66366053 -0.49333954 0.25977868 0
-0.63375664 -0.38567019 0.26511568 0
-0.64324546 -0.42695999 0.26464757 0
-0.58136368 -0.33052683 0.25856712 0
-0.54260683 -0.32916164 0.29166409 0
-0.47082782 -0.32730198 0.3054429 0
-0.75657344 0.094718456 0.23305449 0
-0.75141668 0.058442593 0.26143733 0
-0.73098135 0.13274479 0.22213283 0
-0.69390774 0.10742044 0.22587886 0
-0.71471572 -0.48289442 0.34490159 0
-0.6895082 -0.49946308 0.35043734 0
-0.66058373 -0.39484692 0.32326442 0
-0.63538933 -0.41797304 0.36512423 0
-0.83978176 -0.11083031 0.34113136 0
-0.81257629 -0.13858747 0.35216969 0
-0.57012415 -0.35893774 0.38961357 0
-0.79858303 -0.031383514 0.32906032 0
-0.78534961 -0.086259842 0.34718055 0
-0.8010745 0.075583935 0.29592353 0
-0.77180195 0.039263248 0.31360507 0
-0.87774587 -0.33289385 0.45030257 0
-0.87964296 -0.24770737 0.43278506 0
-0.64534974 -0.4314642 0.46172222 0
-0.85335493 -0.11914062 0.39476976 0
-0.842489 -0.15639162 0.4151302 0
-0.58144736 -0.38145447 0.46286982 0
-0.91046262 0.01650238 0.42843297 0
-0.83624363 -0.031354904 0.40673199 0
-0.81885505 -0.10409403 0.43015781 0
-0.83920145 0.0595994 0.35737991 0
-0.80405211 0.036612034 0.37833345 0
-0.94614625 -0.4277277 0.52449381 0
-0.92666149 -0.34156466 0.50908935 0
-0.91493368 -0.37614584 0.50235391 0
-0.88724256 -0.25812006 0.50511658 0
-0.90458202 -0.10215712 0.50985754 0
-0.87964678 -0.16510296 0.49673599 0
-0.92445803 -0.017251492 0.48693258 0
-0.88360786 -0.043971539 0.48610777 0
-0.98324847 -0.443151 0.59553146 0
-0.94179058 -0.32551622 0.58519155 0
-0.93456054 -0.37595749 0.59582502 0
-0.95820165 -0.17798567 0.58354354 0
-0.93323135 -0.24651384 0.59826255 0
-0.94930625 -0.10609198 0.58704853 0
-0.91131449 -0.17947388 0.56454968 0
-0.73965883 -0.0082354546 0.67152607 0
-0.69622064 -0.063622952 0.70649707 0
-0.61404538 -0.099128246 0.71875107 0
-0.5353477 -0.14723063 0.73879987 0
-0.64006639 -0.015810013 0.68305302 0
-0.58354998 -0.07366848 0.70792824 0
-0.99032569 -0.33741426 0.67258239 0
-0.96345973 -0.37662792 0.66153991 0
-0.99052525 -0.17988682 0.650657 0
-0.96243048 -0.24619102 0.66167784 0
-0.98123813 -0.1247015 0.64106798 0
-0.87207866 -0.14569378 0.71810794 0
-0.85426807 -0.082067013 0.68601727 0
-0.7486577 -0.14678526 0.73257613 0
-0.68490076 -0.19855928 0.761971 0
-0.5935595 -0.23877954 0.77450049 0
-0.53446603 -0.27612734 0.7807337 0
-0.66447163 -0.096205711 0.7176913 0
-0.6156323 -0.15763807 0.74508256 0
-0.52603889 -0.23366308 0.77687305 0
-0.50456715 -0.27502728 0.78753233 0
-0.27422833 -0.30201626 -0.0054382682 0
-0.70290852 -0.48032331 -0.0076215863 0
-0.669976 -0.3326335 -0.026905477 0
-0.66461682 -0.39010429 -0.0088101029 0
-0.64881849 -0.27667856 -0.014605165 0
-0.6061933 -0.28479052 -0.0075100064 0
-0.59612179 -0.23521423 -0.018010497 0
-0.53362489 -0.21746302 -0.0061765313 0
-0.41862106 -0.23099136 0.048926651 0
-0.7101779 -0.45575428 0.059926629 0
-0.66992092 -0.36738968 0.066392422 0
-0.65766072 -0.42722225 0.11416531 0
-0.65121365 -0.30440426 0.0089246035 0
-0.62064052 -0.28573608 0.068002462 0
-0.54836535 -0.22618246 0.061738491 0
-0.42487264 -0.25736952 0.11255276 0
-0.4475863 -0.23168898 0.077698767 0
-0.71142697 -0.44754934 0.14553052 0
-0.69150805 -0.48934174 0.19176739 0
-0.66515112 -0.35873747 0.16967827 0
-0.65982461 -0.40069103 0.19746351 0
-0.61917162 -0.28853941 0.16180009 0
-0.56726789 -0.30921364 0.23037007 0
-0.56464744 -0.2432313 0.14607251 0
-0.52016449 -0.25237274 0.19587928 0
-0.41561294 -0.26916981 0.200324 0
-0.69873667 -0.47838259 0.28639853 0
-0.67453837 -0.35962915 0.2413168 0
-0.65989971 -0.38933706 0.28490436 0
-0.5868361 -0.31533909 0.29498425 0
-0.52041674 -0.28547525 0.27979082 0
-0.47082877 -0.31233597 0.30461007 0
-0.41508436 -0.35893393 0.34245279 0
-0.70237422 -0.45616531 0.38911861 0
-0.68730998 -0.49192047 0.42215493 0
-0.65717912 -0.38462019 0.37808484 0
-0.62727404 -0.37800121 0.42433172 0
-0.59204173 -0.32700253 0.37757501 0
-0.55859661 -0.33127737 0.41547817 0
-0.46341109 -0.35332918 0.44693756 0
-0.81220102 0.010427475 0.2827144 0
-0.80358315 -0.011998653 0.30490038 0
-0.50019717 -0.3037591 0.38165197 0
-0.770437 0.083140373 0.26849023 0
-0.75068879 0.022554874 0.2861062 0
-0.74272299 0.14717627 0.22355342 0
-0.91069102 -0.2685709 0.44235846 0
-0.72648168 -0.47679663 0.46704853 0
-0.70314407 -0.48421431 0.49560413 0
-0.88023615 -0.17690563 0.41112027 0
-0.88141608 -0.22332382 0.42444351 0
-0.68256521 -0.40395117 0.46396872 0
-0.63854384 -0.39980364 0.47257164 0
-0.8474977 -0.10533619 0.38456833 0
-0.82444811 -0.1328063 0.40758529 0
-0.6003468 -0.33686113 0.44919923 0
-0.82863164 0.040625095 0.35943604 0
-0.81783867 -0.026476383 0.3598299 0
-0.8062067 0.089156151 0.32876751 0
-0.79614258 0.049552441 0.34925395 0
-0.97977781 -0.38396263 0.52087379 0
-0.93470907 -0.37653494 0.52811956 0
-0.92702079 -0.31176996 0.50511843 0
-0.91447496 -0.36155224 0.54197115 0
-0.91547918 -0.1590457 0.49951524 0
-0.88862705 -0.22421646 0.49458796 0
-0.92558146 -0.030110836 0.48558813 0
-0.87507844 -0.074685097 0.46872604 0
-0.85557127 -0.1423769 0.47551674 0
-0.88200879 0.034744263 0.42793059 0
-0.8665843 -2.5272369e-05 0.44945759 0
-0.97818708 -0.38324165 0.61931193 0
-0.95341825 -0.28126287 0.60668361 0
-0.93306112 -0.32784891 0.61702245 0
-0.9520936 -0.13356543 0.57364345 0
-0.93117785 -0.20423794 0.58230823 0
-0.94362354 -0.014351368 0.52025735 0
-0.93140817 -0.065582752 0.55360794 0
-0.47370076 -0.22968721 0.77761447 0
-0.63657951 0.0074224472 0.67820334 0
-0.64422774 0.051808834 0.65894026 0
-0.99496102 -0.26503944 0.67515433 0
-0.9661932 -0.18945074 0.63190329 0
-0.98223305 -0.066601753 0.62377596 0
-0.86989522 -0.12832737 0.71576583 0
-0.79667282 -0.20364809 0.74544382 0
-0.67179775 -0.20588875 0.75292695 0
-0.65164232 -0.23110056 0.76103151 0
-0.69021773 -0.049510479 0.70416427 0
-0.67016411 -0.14713383 0.74418116 0
-0.56037259 -0.21473932 0.76413983 0
-0.72528291 0.019407272 0.66191673 0
-0.66631937 -0.03904438 0.70054501 0
-0.6248734 -0.083263397 0.71887106 0
-0.55962396 -0.13620472 0.73859739 0
-0.65493131 -0.35907793 0.93486977 0
-0.62300301 -0.35023737 0.95270234 0
-0.54394436 -0.37143421 0.94824374 0
-0.75590086 -0.41105032 1.0548118 0
-0.68823838 -0.36679649 1.0117739 0
-0.61071086 -0.34695005 0.99664056 0
-0.61050391 -0.34542227 1.0542383 0
-0.91252589 0.013969421 0.9028427 0
-0.77501059 -0.41830683 1.0931592 0
-0.7166903 -0.37010384 1.1161519 0
-0.65188479 -0.34217167 1.137266 0
-0.98462605 -0.01754427 0.91227233 0
-0.98052549 -0.042954922 0.91676974 0
-0.61307836 -0.34492159 1.1255995 0
-0.64705849 -0.34197617 1.2175635 0
-0.6046176 -0.34381342 1.1943936 0
0.38439083 -0.06728363 -0.374098 0
0.40860629 -0.15232992 -0.35565943 0
0.43887711 -0.026154041 -0.37513655 0
0.75870109 -0.20657444 -0.37243378 0
0.48846054 0.09856081 -0.37325823 0
0.49290872 0.032450199 -0.37528133 0
0.45632505 0.23271847 -0.36731213 0
0.56072807 0.16495085 -0.37454045 0
0.58014345 0.3650732 -0.34741008 0
0.70707989 0.30199289 -0.3541047 0
-0.13140631 -0.08157444 -0.3733418 0
-0.1938417 0.093085766 -0.37930489 0
-0.083882809 -0.041110516 -0.37321222 0
-0.013767004 -0.062171936 -0.3629055 0
0.26413846 -0.23334217 -0.32832521 0
0.25402594 -0.26169968 -0.30411971 0
-0.13732052 0.15451431 -0.37929606 0
0.021743059 0.024636269 -0.37468863 0
0.23073506 -0.1153183 -0.36984062 0
0.28238416 -0.23071861 -0.35573155 0
0.33190417 -0.19566345 -0.32822376 0
-0.11599183 0.2498455 -0.37746161 0
-0.081063509 0.25120401 -0.3787328 0
0.10012889 0.085902214 -0.37589407 0
0.26225281 -0.089163303 -0.36993444 0
0.40655136 -0.1413703 -0.32688719 0
-0.078156948 0.36328268 -0.37577981 0
0.16043115 0.18058586 -0.3751744 0
-0.088636398 0.4489193 -0.37194401 0
0.052955151 0.39432049 -0.36226445 0
0.092496395 0.29827309 -0.36741751 0
0.02515316 0.47716188 -0.35861915 0
0.21926904 0.41433096 -0.350128 0
0.30887794 0.35724878 -0.35599101 0
0.3893528 0.30075502 -0.3615889 0
0.14613891 0.49392557 -0.34490705 0
0.42417192 0.49478912 -0.33829552 0
0.52384067 0.43385839 -0.34350705 0
-0.8214891 -0.46047068 -0.42061359 0
-0.84514332 -0.39564133 -0.42402339 0
-0.77208757 -0.3798461 -0.41107768 0
-0.68528533 -0.44179773 -0.38123286 0
-0.75499034 -0.30210829 -0.41202664 0
-0.63172841 -0.36699057 -0.396415 0
-0.58609319 -0.41198444 -0.35907084 0
-0.65962934 -0.24517632 -0.40755516 0
-0.54987216 -0.2819705 -0.39085603 0
-0.51371789 -0.34443951 -0.36113966 0
-0.57930923 -0.18352222 -0.40339112 0
-0.48511791 -0.2222743 -0.36534828 0
-0.46303153 -0.25822783 -0.34746403 0
-0.49628186 -0.082469463 -0.39667428 0
-0.45331812 -0.13444042 -0.36148578 0
-0.41514254 -0.04994154 -0.36586785 0
-0.23767638 -0.10806465 -0.37060815 0
-0.15691638 -0.22204018 -0.2735191 0
-0.098949194 -0.23874855 -0.25796324 0
-0.39356875 0.087550163 -0.38864219 0
-0.34477353 0.021742344 -0.38525474 0
-0.25986242 0.037787914 -0.37871569 0
-0.099179268 -0.15831375 -0.32474715 0
-0.065973997 -0.22793102 -0.25470042 0
-0.33722305 0.14873505 -0.38735324 0
-0.20910645 0.067329407 -0.37965757 0
-0.31217575 0.25388622 -0.38255715 0
-0.33271861 0.40092707 -0.37770367 0
-0.29023242 0.33739901 -0.38048166 0
-0.25740314 0.48137283 -0.37946033 0
-0.78239107 -0.44973183 -0.35680187 0
-0.68907905 -0.45480061 -0.31049901 0
-0.58608174 -0.40584326 -0.28309399 0
-0.54513764 -0.28955793 -0.27985418 0
-0.52584004 -0.33976173 -0.27596664 0
-0.49789906 -0.19730759 -0.2769236 0
-0.47902989 -0.24565744 -0.2681883 0
-0.44515204 -0.14494801 -0.27836353 0
-0.41831589 -0.16785908 -0.24475276 0
-0.41362357 -0.092308521 -0.3036381 0
-0.3709445 -0.12500143 -0.25933129 0
-0.1267519 -0.27356482 -0.19170326 0
-0.74973869 -0.49010944 -0.22979552 0
-0.70661426 -0.468853 -0.20968693 0
-0.66250372 -0.47565222 -0.18768024 0
-0.61666965 -0.41160154 -0.19052297 0
-0.56961489 -0.30141592 -0.21465319 0
-0.54557753 -0.34174776 -0.17011821 0
-0.51714754 -0.22634363 -0.20807731 0
-0.48984241 -0.25459909 -0.16500717 0
-0.42617583 -0.19350815 -0.16797954 0
-0.35845661 -0.2035141 -0.13825661 0
-0.15487647 -0.32633924 -0.098468482 0
-0.9801054 -0.43949509 -0.16101438 0
-0.82334566 -0.49937057 -0.15701205 0
-0.67240071 -0.49339247 -0.09679836 0
-0.62188888 -0.4050374 -0.088835537 0
-0.58023858 -0.32310724 -0.07713598 0
-0.50833106 -0.25264215 -0.077913404 0
-0.45050621 -0.22216129 -0.064638317 0
-0.2773788 -0.33297014 -0.0074070692 0
-0.24786901 -0.33420277 0.011104345 0
-0.68501973 -0.48888636 0.0025947094 0
-0.65961599 -0.3570199 -0.031297386 0
-0.64240885 -0.4053998 0.019259095 0
-0.63495684 -0.31403208 -0.00021082163 0
-0.59796524 -0.31495047 0.019507587 0
-0.51764584 -0.25338888 0.023880422 0
-0.67929578 -0.49318218 0.10945803 0
-0.65037704 -0.41442299 0.1111024 0
-0.65226507 -0.30980825 0.080823779 0
-0.60827708 -0.3273387 0.13013864 0
-0.55036736 -0.26284504 0.12196583 0
-0.46397734 -0.27633762 0.17072225 0
-0.68382454 -0.49289179 0.19141245 0
-0.65796328 -0.41716957 0.20903295 0
-0.64059591 -0.46534443 0.25073162 0
-0.60255623 -0.33720589 0.21197391 0
-0.56847692 -0.35526752 0.2496869 0
-0.56094861 -0.29362774 0.208767 0
-0.50696826 -0.30351448 0.2491225 0
-0.69197559 0.11784363 0.21939665 0
-0.64980817 -0.40856409 0.29002887 0
-0.64303017 -0.45140362 0.32929271 0
-0.60479212 -0.35527802 0.30629036 0
-0.57828021 -0.35830116 0.34123269 0
-0.78895187 -0.052787781 0.31600648 0
-0.49758768 -0.32632971 0.33560216 0
-0.41758704 -0.3468318 0.35096499 0
-0.78175235 0.086327553 0.30144715 0
-0.75489187 0.03009367 0.28909665 0
-0.75458717 0.11283779 0.27028391 0
-0.73102713 0.090667248 0.26326677 0
-0.83836865 -0.26383877 0.42305994 0
-0.65082979 -0.39913034 0.36713231 0
-0.64630437 -0.43971586 0.41861731 0
-0.84962058 -0.14914656 0.38035756 0
-0.82773662 -0.18597984 0.39594012 0
-0.57735229 -0.37904215 0.43688214 0
-0.81416941 -0.063895226 0.37508038 0
-0.79135585 -0.11315966 0.3800464 0
-0.50806403 -0.34323978 0.42656121 0
-0.82074928 0.051407337 0.38142681 0
-0.79506612 0.016718388 0.35674378 0
-0.91916203 -0.35225105 0.48687512 0
-0.92254806 -0.39973497 0.50129116 0
-0.88320923 -0.27691936 0.47036543 0
-0.67556572 -0.45651627 0.49822921 0
-0.8620131 -0.12418222 0.46545261 0
-0.85033298 -0.19289255 0.46897727 0
-0.61262393 -0.40662956 0.48774225 0
-0.85658216 -0.054826736 0.46347246 0
-0.81262875 -0.11986589 0.4441202 0
-0.86336064 0.023958683 0.44398978 0
-0.83147979 0.01381588 0.42454508 0
-0.98831773 -0.4464426 0.58405995 0
-0.93373847 -0.37064886 0.55092841 0
-0.92862844 -0.40400124 0.56998664 0
-0.90309358 -0.27852297 0.56396544 0
-0.94759035 -0.060266018 0.54371101 0
-0.91485572 -0.13494158 0.56282109 0
-0.87230229 -0.19426346 0.54910314 0
-0.91061163 -0.027011871 0.5214628 0
-0.89350271 -0.063968658 0.54277945 0
-0.99289751 -0.45926332 0.64304382 0
-0.94638729 -0.35057783 0.64523602 0
-0.94844532 -0.40002346 0.63819683 0
-0.94902873 -0.19766283 0.61973596 0
-0.93545198 -0.26800299 0.62907898 0
-0.9691689 -0.082569122 0.60502899 0
-0.94270325 -0.13718128 0.61474967 0
-0.55708385 -0.2528162 0.78190684 0
-0.66119838 -0.082736015 0.72015721 0
-0.62393188 -0.14082336 0.74545741 0
-0.53107452 -0.19517422 0.76718462 0
-0.41613102 -0.2579875 0.79124892 0
-0.65692472 0.01271677 0.68009484 0
-0.63763905 -0.039874554 0.7028743 0
-0.44792056 -0.19268131 0.76371253 0
-0.63435602 -0.22774029 0.77328122 0
-0.61716628 -0.27082396 0.7750802 0
0.70365357 -0.15786219 -0.37231839 0
0.92747784 0.10672283 -0.37752926 0
0.25372505 -0.25072336 -0.33113652 0
0.32203078 -0.19006824 -0.34957242 0
0.40104628 -0.1343894 -0.34973645 0
0.35953665 0.42081594 -0.35055858 0
0.50047255 0.35112953 -0.35686612 0
0.6493032 0.26926804 -0.36362845 0
0.55058789 0.49052525 -0.33111489 0
-0.11816883 -0.14426804 -0.34382379 0
-0.050043583 -0.14771175 -0.32005084 0
-0.063644886 -0.10102129 -0.34286767 0
0.20381832 -0.27585649 -0.30265558 0
0.27067065 -0.21826506 -0.31504178 0
0.19697213 0.49865913 -0.3432281 0
-0.73244619 -0.4607501 -0.35733223 0
-0.67755461 -0.43942595 -0.35656828 0
-0.6015017 -0.40218306 -0.34996265 0
-0.53828049 -0.33522844 -0.32940948 0
-0.52563667 -0.36437988 -0.32227004 0
-0.48963547 -0.22912979 -0.32671165 0
-0.47766876 -0.10421705 -0.30904436 0
-0.46501756 -0.1512413 -0.32502288 0
-0.42893028 -0.079525471 -0.32401758 0
-0.15466285 -0.2329812 -0.26097721 0
-0.13189292 -0.16997433 -0.31902891 0
-0.10045576 -0.19608688 -0.28477025 0
-0.74142528 -0.44609404 -0.33186722 0
-0.71645665 -0.46320343 -0.27964908 0
-0.61715293 -0.40752888 -0.27038616 0
-0.54789877 -0.31316853 -0.25853318 0
-0.53533196 -0.35920095 -0.26208657 0
-0.49973989 -0.23850727 -0.25187188 0
-0.46499014 -0.25075674 -0.19778049 0
-0.45981264 -0.16022921 -0.25494128 0
-0.40606785 -0.17372942 -0.18889207 0
-0.4063592 -0.12516403 -0.27032948 0
-0.16482282 -0.28510046 -0.17228508 0
-0.15654302 -0.31498003 -0.11546797 0
-0.69924045 -0.47460413 -0.1828739 0
-0.63633609 -0.40668392 -0.17556012 0
-0.60537052 -0.41215611 -0.18419331 0
-0.57324767 -0.3268528 -0.15984237 0
-0.56793523 -0.35212278 -0.13753021 0
-0.5115993 -0.23935556 -0.15643603 0
-0.49706364 -0.25079775 -0.11594206 0
-0.46958756 -0.1940608 -0.17023623 0
-0.43446994 -0.20408344 -0.12615263 0
-0.26476216 -0.32212257 -0.073920548 0
-0.18854737 -0.3516078 -0.03610009 0
-0.70110416 -0.47703362 -0.090840638 0
-0.6466732 -0.39227915 -0.076490164 0
-0.64342213 -0.43067694 -0.06543541 0
-0.59574747 -0.314569 -0.066139817 0
-0.56323934 -0.31119299 -0.046141446 0
-0.55257535 -0.27149773 -0.065514386 0
-0.50311732 -0.24564028 -0.035363436 0
-0.46326113 -0.22940922 -0.072036326 0
-0.66354823 -0.37528229 0.025181592 0
-0.66640449 -0.42179632 0.030619323 0
-0.63429809 -0.30958176 0.025224507 0
-0.61592603 -0.35937262 0.066535115 0
-0.57687521 -0.26260519 0.047903836 0
-0.529809 -0.24957418 0.037840426 0
-0.68653584 -0.39935827 0.1073457 0
-0.67243314 -0.42370272 0.13499904 0
-0.64588904 -0.31276035 0.11807245 0
-0.6169405 -0.33660555 0.14736742 0
-0.59945846 -0.26751471 0.12839597 0
-0.54745936 -0.2662673 0.14777917 0
-0.48038244 -0.27985191 0.20344031 0
-0.6681757 -0.42498779 0.23353153 0
-0.6470201 -0.4732933 0.24689505 0
-0.61045694 -0.34344482 0.23745042 0
-0.55463648 -0.30526924 0.25946751 0
-0.46617007 -0.31365967 0.25007918 0
-0.733284 0.13183403 0.22007933 0
-0.67749453 -0.42510796 0.34062639 0
-0.65454745 -0.45805073 0.33985609 0
-0.60565543 -0.35681105 0.32947293 0
-0.58528733 -0.36330795 0.36155981 0
-0.81964898 -0.058726311 0.32314664 0
-0.51517081 -0.33082008 0.36342812 0
-0.80411458 0.058419704 0.29791984 0
-0.77465034 0.029607296 0.29889444 0
-0.76800847 0.11172199 0.25189173 0
-0.73555899 0.073390484 0.26839122 0
-0.67825866 -0.42829275 0.42422122 0
-0.65742683 -0.43936825 0.44701353 0
-0.86471295 -0.15867949 0.40295643 0
-0.8493824 -0.21125317 0.4186514 0
-0.63505483 -0.37546968 0.41090712 0
-0.59904575 -0.36603212 0.44690698 0
-0.87204885 -0.0043120384 0.40163955 0
-0.83099723 -0.071368694 0.37375233 0
-0.80525112 -0.124259 0.39251721 0
-0.49070668 -0.35530663 0.43950292 0
-0.49665642 -0.35865831 0.46252474 0
-0.82792807 0.048125267 0.363783 0
-0.79984951 0.0048704147 0.36324334 0
-0.94343233 -0.36906242 0.50760037 0
-0.90546346 -0.27572155 0.48700678 0
-0.72620201 -0.47015953 0.48515925 0
-0.68538308 -0.4569912 0.50752962 0
-0.89642978 -0.14743137 0.48125792 0
-0.86679053 -0.19501591 0.47523323 0
-0.90070653 -0.010735512 0.46215019 0
-0.86134005 -0.06720686 0.45852309 0
-0.8291378 0.008480072 0.44132179 0
-0.99383688 -0.47726536 0.60015672 0
-0.9414432 -0.36192608 0.57322508 0
-0.94160271 -0.40407944 0.58154857 0
-0.923599 -0.28667736 0.58089191 0
-0.92567444 -0.13575745 0.56225455 0
-0.9055655 -0.20903063 0.56143397 0
-0.94459391 -0.039220333 0.54140115 0
-0.90878797 -0.061740398 0.55280328 0
-0.98664522 -0.35446596 0.66648382 0
-0.95364189 -0.41579676 0.64411253 0
-0.99604535 -0.19303799 0.65076613 0
-0.94559026 -0.26602983 0.64486897 0
-0.98024416 -0.12079716 0.65061945 0
-0.86452198 -0.13996553 0.73286116 0
-0.6871655 -0.22644854 0.7694751 0
-0.5756433 -0.26091671 0.78056753 0
-0.68670297 -0.098143578 0.72610182 0
-0.63454318 -0.14751291 0.74683297 0
-0.54188323 -0.22994471 0.77801585 0
-0.46617627 -0.29649067 0.7452836 0
-0.625561 -0.022326946 0.69184464 0
-0.99735188 -0.23618889 0.73595792 0
-0.70409513 -0.41463232 0.9933089 0
-0.62586141 -0.38427591 0.96537077 0
-0.54673743 -0.38327742 0.98908955 0
-0.70084238 -0.39252138 1.00861 0
-0.61988473 -0.37648153 1.0269396 0
0.8967135 0.078841209 -0.37869442 0
0.44986343 -0.13140678 -0.37240857 0
0.54838562 -0.10988569 -0.37391806 0
0.58260608 -0.04593277 -0.37216979 0
0.68153262 0.048949718 -0.37254548 0
0.69329119 0.19737101 -0.37016082 0
-0.046466827 -0.083622456 -0.35981852 0
0.23119903 -0.26377821 -0.31770802 0
-0.041891098 0.049506187 -0.37810028 0
0.20295453 -0.14972353 -0.36768132 0
0.31639218 -0.20878744 -0.33069807 0
0.061917305 0.11206961 -0.37880236 0
0.34724784 -0.1479001 -0.35677803 0
0.052157402 0.26554871 -0.37340629 0
0.080164194 0.19030905 -0.37664324 0
0.12837744 0.4359026 -0.34840077 0
0.39090991 0.32812071 -0.35846573 0
0.44760633 0.4838028 -0.33346885 0
0.60280275 0.39855242 -0.33735591 0
-0.9512732 -0.39131927 -0.45103937 0
-0.88939929 -0.45633507 -0.43100548 0
-0.89151502 -0.31265783 -0.43929923 0
-0.81960225 -0.3692174 -0.42477047 0
-0.74806809 -0.44101667 -0.4022969 0
-0.83394265 -0.2424984 -0.4305976 0
-0.77223849 -0.2983551 -0.41536599 0
-0.65574551 -0.36173248 -0.4009282 0
-0.59196258 -0.40659618 -0.3742193 0
-0.74950957 -0.17558479 -0.42436671 0
-0.67391682 -0.24541187 -0.41026491 0
-0.52661061 -0.32971573 -0.37509358 0
-0.67140555 -0.1075511 -0.41856647 0
-0.56844068 -0.17188215 -0.39237875 0
-0.500494 -0.25633001 -0.37880641 0
-0.58911872 -0.023257732 -0.4130652 0
-0.48500133 -0.10395002 -0.39392787 0
-0.43857336 -0.16475821 -0.36574531 0
-0.52092481 0.050404549 -0.40941685 0
-0.43443108 -0.047723293 -0.3735379 0
-0.15323377 -0.18749952 -0.313447 0
-0.4750483 0.12441683 -0.4062041 0
-0.38967681 0.056475639 -0.39030749 0
-0.29469085 -0.041341305 -0.37591022 0
-0.13620877 -0.14969444 -0.35390538 0
-0.078203201 -0.18471575 -0.30256206 0
-0.45204544 0.23250389 -0.40103906 0
-0.40530396 0.19043541 -0.39353675 0
-0.3391664 0.12675762 -0.38790089 0
-0.17840719 -0.00041675568 -0.37641507 0
-0.060769081 -0.11559534 -0.33694452 0
-0.44581604 0.38532114 -0.39483589 0
-0.39761949 0.30548573 -0.39973176 0
-0.34535599 0.26896524 -0.38089085 0
-0.41079044 0.46240568 -0.39398974 0
-0.25630069 0.36115074 -0.38138562 0
-0.25822139 0.472651 -0.37920231 0
-0.26027036 0.41599751 -0.38009804 0
-0.027555943 0.3299346 -0.36879069 0
-0.070074558 0.4696002 -0.36475164 0
-0.023747444 0.38811445 -0.36777025 0
0.094651937 0.49504185 -0.34707505 0
-0.73003674 -0.46449423 -0.35112041 0
-0.70336437 -0.47369814 -0.31891334 0
-0.61028719 -0.41919518 -0.31378138 0
-0.53329802 -0.34859037 -0.2919184 0
-0.49075508 -0.24442482 -0.29473037 0
-0.47002745 -0.32044983 -0.32961577 0
-0.47919202 -0.1547823 -0.33740157 0
-0.44480658 -0.15390158 -0.28989387 0
-0.43430519 -0.082510948 -0.33268571 0
-0.41102052 -0.096365929 -0.29869044 0
-0.15340614 -0.2681427 -0.21969497 0
-0.73544908 -0.47483349 -0.28354996 0
-0.70728898 -0.4739933 -0.220577 0
-0.61852932 -0.4121623 -0.20775741 0
-0.55746746 -0.33228302 -0.2003842 0
-0.5020659 -0.25073671 -0.19124353 0
-0.4500854 -0.19957829 -0.19801849 0
-0.39762187 -0.19349384 -0.17231339 0
-0.216362 -0.32314968 -0.10166216 0
-0.9457407 -0.45074081 -0.15443808 0
-0.69422841 -0.49076271 -0.12829912 0
-0.64365721 -0.41343832 -0.11420041 0
-0.58116603 -0.33122206 -0.10317659 0
-0.56161451 -0.38396835 -0.13853502 0
-0.51492763 -0.2585659 -0.099513233 0
-0.48128009 -0.25513649 -0.065734327 0
-0.46234035 -0.22061443 -0.12063992 0
-0.45436573 -0.22812843 -0.074989557 0
-0.69098091 -0.4762249 -0.030994833 0
-0.66156626 -0.41531515 -0.015668273 0
-0.60937452 -0.41267014 0.0058659315 0
-0.60599303 -0.32585144 -0.0088564754 0
-0.59684849 -0.36823416 0.0085960031 0
-0.54760289 -0.26849699 -0.001644671 0
-0.49348736 -0.25974178 0.0091683269 0
-0.45437551 -0.24457073 -0.028345883 0
-0.29529643 -0.34509277 0.036437809 0
-0.70026517 -0.45175219 0.092370272 0
-0.66371584 -0.3894453 0.084472358 0
-0.65171003 -0.43896532 0.091857731 0
-0.61806345 -0.320611 0.085377634 0
-0.59071898 -0.33876276 0.087269485 0
-0.5726068 -0.26580048 0.08500421 0
-0.51368952 -0.26040745 0.11896443 0
-0.66378641 -0.37744141 0.16291934 0
-0.6561408 -0.43064547 0.1970734 0
-0.63829017 -0.32373857 0.15154225 0
-0.59859657 -0.3368187 0.2007286 0
-0.5953269 -0.27647781 0.15374929 0
-0.54584503 -0.2954011 0.21166724 0
-0.46243072 -0.31043768 0.23447195 0
-0.6577096 -0.4422431 0.29892895 0
-0.59893656 -0.36530018 0.30694726 0
-0.52717805 -0.33446836 0.28498027 0
-0.48707843 -0.33498049 0.33795917 0
-0.75697947 0.04551506 0.27684385 0
-0.75233173 0.023165226 0.29589844 0
-0.73967648 0.10073996 0.24580741 0
-0.66887164 -0.45440197 0.39619526 0
-0.63907003 -0.45124769 0.41178417 0
-0.82905626 -0.1620636 0.38371298 0
-0.61349726 -0.39516163 0.38962066 0
-0.578053 -0.36713457 0.42717507 0
-0.83124685 -0.050185204 0.31748426 0
-0.81024289 -0.072944164 0.36199075 0
-0.48821926 -0.35917711 0.41822949 0
-0.81705189 0.028202534 0.33928615 0
-0.77930737 -0.0077385902 0.34329703 0
-0.91141343 -0.35981417 0.47955555 0
-0.8719244 -0.28445482 0.4526507 0
-0.68755484 -0.44704247 0.46025229 0
-0.66899037 -0.47074604 0.49105284 0
-0.86827874 -0.17174959 0.43850216 0
-0.85483289 -0.23891497 0.45407 0
-0.61009073 -0.40381241 0.47753865 0
-0.87271047 -0.019051552 0.45234683 0
-0.84454679 -0.084854126 0.44467497 0
-0.83575869 0.013998032 0.41419512 0
-0.80678344 -0.033192158 0.41814646 0
-0.97719526 -0.44452906 0.55400836 0
