# .PCD v0.7 - Point Cloud Data file format
VERSION 0.7
FIELDS x y z intensity
SIZE 4 4 4 4
TYPE F F F F
COUNT 1 1 1 1
WIDTH 1296
HEIGHT 1
VIEWPOINT 0 0 0 1 0 0 0
POINTS 1296
DATA ascii
0.9700799 0.26830053 -0.42176759 0
0.82658315 0.37547207 -0.40000224 0
0.89923453 0.38876915 -0.39484727 0
0.83704114 0.4772892 -0.41096413 0
0.91129708 0.49647069 -0.40502477 0
0.97508478 0.47683382 -0.39990854 0
0.66270399 -0.41799664 -0.33478463 0
0.73992205 -0.42736387 -0.31730556 0
0.83440518 -0.44407487 -0.29135168 0
0.91680098 -0.39492631 -0.32943058 0
0.67068815 -0.29688668 -0.33209145 0
0.75237274 -0.32133102 -0.3473593 0
0.86557293 -0.32119322 -0.35947263 0
0.95649934 -0.34720588 -0.35980475 0
0.71345282 -0.21013641 -0.34594071 0
0.81438065 -0.22205782 -0.36055088 0
0.93713737 -0.18438506 -0.38055503 0
0.75316548 -0.10891795 -0.35909629 0
0.84925246 -0.12102604 -0.37084436 0
0.75728083 -0.032320976 -0.35986531 0
0.78155565 0.024421215 -0.36962533 0
0.75714159 0.043445587 -0.36028016 0
0.86727476 -0.45429325 -0.25839734 0
0.91434407 -0.43952727 -0.24344373 0
0.82764411 -0.27642679 -0.36268759 0
0.91972041 -0.34665298 -0.3728497 0
0.60787082 -0.19878125 -0.35198641 0
0.85988045 -0.21141124 -0.37118888 0
0.95115614 -0.21959138 -0.37660277 0
0.62844443 -0.11831045 -0.35826516 0
0.72350287 -0.10769153 -0.36126482 0
0.79237652 -0.084924936 -0.37037134 0
0.9046731 -0.098721266 -0.38461351 0
0.67077637 -0.0089838505 -0.37444222 0
0.72422934 -0.0059411526 -0.37603664 0
0.80567884 -0.0098090172 -0.37494564 0
0.9436996 0.0077288151 -0.398664 0
0.72462296 0.082809925 -0.38335431 0
0.81287336 0.076140881 -0.3781755 0
0.95533085 0.085684061 -0.40338016 0
0.74372888 0.18346286 -0.39993346 0
0.81707525 0.18556356 -0.39539671 0
0.92358041 0.17482138 -0.40784132 0
0.97676611 0.19232249 -0.41304612 0
0.72979689 0.27707911 -0.4055407 0
0.78339529 0.2772162 -0.39950979 0
0.89854693 0.30489898 -0.40892899 0
0.73539972 0.38205147 -0.40762806 0
0.82485509 0.37759638 -0.40534401 0
0.91970444 0.38084269 -0.40426731 0
0.69879484 0.46067047 -0.4066397 0
0.79913068 0.48833704 -0.41065991 0
0.90868378 0.48431158 -0.40725315 0
0.99460459 0.47649407 -0.41229331 0
0.84556818 -0.47811794 -0.27188313 0
0.53671885 -0.43781853 -0.32687008 0
0.63679934 -0.43652248 -0.33836901 0
0.72578526 -0.43473601 -0.31524861 0
0.86433721 -0.43209672 -0.29334497 0
0.9399991 -0.39170146 -0.31723905 0
0.56281614 -0.3190012 -0.3386116 0
0.63083553 -0.32963514 -0.33364093 0
0.73225403 -0.35344362 -0.33693838 0
0.87707376 -0.33470607 -0.35496426 0
0.89756918 -0.30034423 -0.36032128 0
0.58305454 -0.2510066 -0.34381235 0
0.63335752 -0.21980596 -0.33709168 0
0.71960688 -0.22416854 -0.34526944 0
0.81167769 -0.23375249 -0.35204732 0
0.96292949 -0.49685049 -0.17395818 0
0.87463474 -0.45905781 -0.24278224 0
0.94474316 -0.44228864 -0.22793436 0
0.71902466 -0.48059988 -0.34271264 0
0.44299412 -0.44267607 -0.33174419 0
0.5397253 -0.42663598 -0.33263874 0
0.62933397 -0.45172262 -0.34042001 0
0.7178874 -0.40352225 -0.33575487 0
0.78146982 -0.36803699 -0.33305395 0
0.91028762 -0.38491988 -0.33929551 0
0.98803973 -0.36128092 -0.35923803 0
0.44694638 -0.33721519 -0.33791542 0
0.52345824 -0.32858467 -0.34084463 0
0.59717226 -0.31981921 -0.33538759 0
0.72121668 -0.33254528 -0.34840965 0
0.8322649 -0.34148383 -0.33889914 0
0.88435555 -0.32192254 -0.35832846 0
0.52706504 -0.21788907 -0.35162067 0
0.63997269 -0.21903324 -0.34214473 0
0.78907871 -0.21601486 -0.35532761 0
0.9512105 -0.22705078 -0.37970078 0
0.98397493 -0.18095112 -0.38985825 0
0.54086256 -0.12696123 -0.36184454 0
0.63830566 -0.13920045 -0.35260236 0
0.69009018 -0.11758518 -0.35443878 0
0.85068512 -0.10795164 -0.37586296 0
0.55080533 -0.051204205 -0.37211609 0
0.62544036 -0.01953721 -0.379403 0
0.72778368 -0.01428628 -0.37255943 0
0.85740471 -0.033518076 -0.3769716 0
0.88566017 0.034109831 -0.38776255 0
0.61073351 0.067042112 -0.38969588 0
0.69456625 0.087435484 -0.38297999 0
0.78602695 0.085825682 -0.38124156 0
0.91689968 0.090047598 -0.40032375 0
0.61290836 0.18679023 -0.40142977 0
0.72044659 0.17964411 -0.39702106 0
0.81980276 0.17690253 -0.39544535 0
0.92507744 0.17567277 -0.40468109 0
0.62868857 0.28967738 -0.41254163 0
0.7059679 0.28404355 -0.40619326 0
0.80914712 0.28047895 -0.40265512 0
0.90482593 0.3155818 -0.40551877 0
0.97511125 0.27677679 -0.42586422 0
0.63987207 0.38043833 -0.4225378 0
0.70794535 0.3771615 -0.40590143 0
0.82675338 0.39626694 -0.40918219 0
0.88851404 0.374017 -0.40298522 0
0.60923314 0.47312212 -0.41878998 0
0.69881797 0.47999167 -0.41041207 0
0.8293035 0.49523139 -0.40821016 0
0.90621066 0.46370578 -0.39937794 0
0.74360824 -0.44447398 -0.30100298 0
0.84621763 -0.43899179 -0.28276193 0
0.90985632 -0.42481542 -0.27227402 0
0.97899008 -0.37984252 -0.33564067 0
0.93972778 -0.45493388 -0.20380914 0
0.4531734 0.49073005 -0.44933152 0
0.23033166 -0.42299676 -0.34751582 0
0.3108058 -0.42607856 -0.34368825 0
0.38634038 -0.4211359 -0.33529043 0
0.47510266 -0.41210127 -0.34403896 0
0.21823764 -0.35824966 -0.3444562 0
0.30850816 -0.32744336 -0.35290766 0
0.40306687 -0.33051038 -0.35125363 0
0.47635102 -0.29342842 -0.35202575 0
0.31308889 -0.23561287 -0.36660993 0
0.41833544 -0.23331141 -0.35884833 0
0.50706005 -0.21289587 -0.35730958 0
0.81702137 -0.19605613 -0.36764693 0
0.93209672 -0.2339232 -0.37320721 0
0.32512927 -0.13294816 -0.37950587 0
0.4101398 -0.13026142 -0.3750211 0
0.51405644 -0.12536979 -0.36363626 0
0.60178089 -0.13568449 -0.36571288 0
0.69811416 -0.096576214 -0.36588061 0
0.81940293 -0.16143537 -0.36536086 0
0.86661434 -0.087865114 -0.38085747 0
0.40628791 -0.020790577 -0.39683223 0
0.47656107 -0.020586014 -0.39022183 0
0.58907366 -0.025401354 -0.38154972 0
0.70862055 -0.02366519 -0.36717999 0
0.90387774 0.0042743683 -0.39207971 0
0.38082314 0.062382698 -0.40147901 0
0.4954648 0.085150003 -0.40473115 0
0.609694 0.068059206 -0.3940028 0
0.70425963 0.09045577 -0.39329112 0
0.80072021 0.10320306 -0.39051366 0
0.94134641 0.088118792 -0.4048599 0
0.96241283 0.13638759 -0.41248691 0
0.39616776 0.1811192 -0.41075528 0
0.50849104 0.18065619 -0.41209161 0
0.57369804 0.16981244 -0.40437472 0
0.68282175 0.19435358 -0.4099586 0
0.76445127 0.17910695 -0.39761257 0
0.84057236 0.22525764 -0.40548193 0
0.96830106 0.19738078 -0.41321003 0
0.41500807 0.29020905 -0.42259717 0
0.48743391 0.25214243 -0.42038596 0
0.59122992 0.28728342 -0.41696227 0
0.67791533 0.2592957 -0.39914441 0
0.75706983 0.31156158 -0.40964758 0
0.87577915 0.30761981 -0.41049528 0
0.41913843 0.39481497 -0.43025196 0
0.47660828 0.37330151 -0.42273295 0
0.59833121 0.38226295 -0.42255032 0
0.67009592 0.38776994 -0.41321576 0
0.78830528 0.37924576 -0.40843666 0
0.90998721 0.39405727 -0.4048419 0
0.99175477 0.43973613 -0.40317738 0
0.39880657 0.46509337 -0.42794049 0
0.4811573 0.48778796 -0.43191648 0
0.56305838 0.46258259 -0.42380667 0
0.68155909 0.49539423 -0.41483796 0
0.79994249 0.47089505 -0.4124428 0
0.8292799 -0.49470544 -0.26843405 0
0.36526918 -0.47011137 -0.32909334 0
0.50408864 -0.43574071 -0.33210051 0
0.61522722 -0.4171741 -0.33416069 0
0.72439575 -0.41115355 -0.32127607 0
0.81458545 -0.4429729 -0.28871036 0
0.8948946 -0.4136529 -0.30435216 0
0.50869083 -0.32538462 -0.33749092 0
0.58813095 -0.32461858 -0.33168769 0
0.73867321 -0.32063699 -0.34309793 0
0.8671093 -0.32427382 -0.35541379 0
0.58690405 -0.23722649 -0.34042263 0
0.67471361 -0.18835521 -0.34987366 0
0.76737142 -0.24697781 -0.35158408 0
0.67427182 -0.12063026 -0.34580231 0
0.84859228 -0.45660186 -0.24467337 0
0.91572595 -0.44756413 -0.22532308 0
0.28094864 0.23243141 -0.42280531 0
0.38025784 0.27843928 -0.43342686 0
0.35501027 0.4115591 -0.43144774 0
0.11232328 -0.43309283 -0.34860802 0
0.20027757 -0.42078614 -0.34103024 0
0.28704429 -0.42656684 -0.33671141 0
0.3994844 -0.43343902 -0.34321487 0
0.48986673 -0.4221561 -0.33321071 0
0.59167838 -0.41096377 -0.33804142 0
0.69710755 -0.43603158 -0.34287441 0
0.12964058 -0.33441424 -0.36371791 0
0.18848562 -0.32494831 -0.35857439 0
0.29467678 -0.31352592 -0.35132015 0
0.37742352 -0.32720256 -0.34227037 0
0.48762298 -0.29906082 -0.34426057 0
0.61970425 -0.33299708 -0.346982 0
0.71410131 -0.34069681 -0.34709251 0
0.83726811 -0.32776618 -0.34522772 0
0.92375398 -0.26133299 -0.37447608 0
0.17731166 -0.22472906 -0.37098312 0
0.30341816 -0.21970081 -0.37191343 0
0.39257526 -0.20501709 -0.35954654 0
0.49840593 -0.20623779 -0.36016393 0
0.59143186 -0.2228334 -0.3480258 0
0.6955359 -0.2055161 -0.34784997 0
0.94125366 -0.19390345 -0.37006223 0
0.9581089 -0.21150398 -0.38151729 0
0.2346406 -0.1190052 -0.39881134 0
0.27943635 -0.12612462 -0.38309109 0
0.41568184 -0.11924458 -0.37528133 0
0.44973636 -0.14225698 -0.37084794 0
0.58057308 -0.11657 -0.3726393 0
0.65920258 -0.10321712 -0.35130489 0
0.77681851 -0.10674644 -0.36123919 0
0.21475339 -0.047106028 -0.39008009 0
0.31204367 -0.013524055 -0.39956045 0
0.39312458 -0.043530464 -0.38857174 0
0.49457693 -0.048987389 -0.38615358 0
0.57232022 -0.01766181 -0.38282692 0
0.67577243 0.00202775 -0.37178028 0
0.80725789 0.0023901463 -0.36784041 0
0.26860404 0.065559864 -0.40541673 0
0.39754915 0.075212955 -0.40493131 0
0.48274326 0.057332754 -0.39937365 0
0.55902267 0.097273588 -0.39864039 0
0.69656396 0.069379091 -0.37827182 0
0.78630185 0.13609958 -0.39512694 0
0.87086153 0.097033262 -0.39077508 0
0.27329397 0.15591359 -0.40732253 0
0.38281918 0.18019247 -0.41148055 0
0.4897294 0.17172027 -0.40376723 0
0.57598543 0.18680525 -0.40093756 0
0.67672801 0.19414949 -0.40542912 0
0.77972746 0.18864608 -0.40399683 0
0.91447663 0.185745 -0.40675139 0
0.25901842 0.28865838 -0.41751587 0
0.41486835 0.28340197 -0.41812086 0
0.49874783 0.27062058 -0.42007959 0
0.58324909 0.28259206 -0.41230822 0
0.6710062 0.31976676 -0.40731812 0
0.78884935 0.30627036 -0.41045594 0
0.85938263 0.29072785 -0.39131057 0
0.96567726 0.26754761 -0.42225981 0
0.24933124 0.37364578 -0.41941309 0
0.3643961 0.36810327 -0.42280912 0
0.47365952 0.37662077 -0.42311394 0
0.55109835 0.37897348 -0.41628397 0
0.67603993 0.39562821 -0.41310298 0
0.79713559 0.38178921 -0.40531468 0
0.86630726 0.37576056 -0.39769626 0
0.19236875 0.46884608 -0.40627491 0
0.37815619 0.45536256 -0.42873251 0
0.47422862 0.49022579 -0.42332697 0
0.58685279 0.47773528 -0.41881871 0
0.70263195 0.4697094 -0.41033351 0
0.8505125 0.46741819 -0.40766096 0
0.95348787 0.49355817 -0.39503038 0
0.56306553 -0.49079967 -0.32838202 0
0.81163359 -0.48818779 -0.26210022 0
0.71900368 -0.4262116 -0.31960785 0
0.78410673 -0.42917991 -0.29630172 0
0.90041709 -0.39987612 -0.30990624 0
0.55932522 -0.32105851 -0.32177937 0
0.68411016 -0.30525661 -0.33517158 0
0.75681162 -0.35104799 -0.32884848 0
0.90970993 -0.49910069 -0.18609381 0
0.83694315 -0.45026326 -0.22855234 0
0.92798591 -0.4221735 -0.23529816 0
0.085130453 -0.29697084 -0.38200629 0
0.10363626 -0.18800378 -0.39090621 0
0.16621113 -0.24643946 -0.38443506 0
0.14999533 -0.1013341 -0.40157604 0
0.091941833 -0.044686556 -0.39241683 0
0.20772743 -0.010442734 -0.40797544 0
0.22629333 -0.040779829 -0.41328311 0
0.36531258 -0.0077376366 -0.40874898 0
0.08125782 0.074698925 -0.39631522 0
0.18347144 0.06778121 -0.41128039 0
0.28566575 0.10054469 -0.41488862 0
0.36922479 0.1058352 -0.41676319 0
0.44970942 0.083531857 -0.41599917 0
0.086455107 0.16926289 -0.40551162 0
0.1943996 0.19334316 -0.41771293 0
0.28315973 0.21147561 -0.42235017 0
0.1754756 0.27913117 -0.41875613 0
0.2833643 0.28119612 -0.42854393 0
0.34153271 0.27732968 -0.42023027 0
0.23078561 0.38709712 -0.4212476 0
0.41726017 0.4246099 -0.43287051 0
0.49910593 -0.48906255 -0.32949591 0
0.67599678 -0.49892116 -0.33025908 0
0.021253586 -0.4242816 -0.3571521 0
0.080157995 -0.42318726 -0.3506546 0
0.18792343 -0.41395402 -0.34134114 0
0.27145076 -0.41244197 -0.33741379 0
0.36959386 -0.3927393 -0.34127235 0
0.44457722 -0.41711569 -0.33442748 0
0.56125212 -0.40334201 -0.33030629 0
0.68804693 -0.38369012 -0.33630872 0
0.75562787 -0.38782597 -0.31746101 0
0.91935945 -0.3836453 -0.32103622 0
0.99934387 -0.35009265 -0.3687979 0
0.096744537 -0.33693695 -0.36654246 0
0.16645908 -0.32342386 -0.35461152 0
0.28785872 -0.29657006 -0.35821843 0
0.38335419 -0.30800772 -0.34689105 0
0.46615529 -0.31271505 -0.34485543 0
0.57176781 -0.2917645 -0.33853352 0
0.77824068 -0.30590081 -0.3441608 0
0.068718195 -0.25786257 -0.37589681 0
0.17355871 -0.21188211 -0.37316394 0
0.27899098 -0.21782184 -0.36985207 0
0.36802197 -0.21720195 -0.36402845 0
0.4655509 -0.21308255 -0.35626447 0
0.58018923 -0.18614292 -0.35394394 0
0.63919282 -0.22486973 -0.34339976 0
0.81767035 -0.21483755 -0.36036026 0
0.86599016 -0.14607096 -0.37834835 0
0.18659353 -0.15489697 -0.37952816 0
0.27939558 -0.10215783 -0.38451719 0
0.37652493 -0.11391211 -0.38051224 0
0.47562551 -0.11625671 -0.37290895 0
0.57384253 -0.093379498 -0.37048125 0
0.68937612 -0.11453152 -0.36342657 0
0.8640573 -0.074788809 -0.37972713 0
0.25562096 0.00088429451 -0.39755166 0
0.3646872 0.0062654018 -0.39478636 0
0.47217274 -0.017834902 -0.38572955 0
0.61975718 0.0050525665 -0.3725003 0
0.70434046 0.00092434883 -0.37115467 0
0.72700906 0.010456324 -0.37998343 0
0.86060715 0.024346113 -0.38269281 0
0.40479755 0.12934017 -0.40269887 0
0.5005877 0.086973667 -0.40087998 0
0.59677768 0.10209417 -0.40325272 0
0.67710328 0.10400009 -0.38640523 0
0.8444469 0.097021341 -0.3807745 0
0.2357564 0.14045882 -0.39973426 0
0.36023808 0.180197 -0.40940034 0
0.4635818 0.21482515 -0.40790391 0
0.58033705 0.19932222 -0.4148277 0
0.6629467 0.21288705 -0.39879441 0
0.77714109 0.1962266 -0.40559852 0
0.89238024 0.20569587 -0.40553463 0
0.030998707 0.2806251 -0.39575076 0
0.12695503 0.32405353 -0.40625143 0
0.22659087 0.32940841 -0.41354322 0
0.35639477 0.30394983 -0.41384637 0
0.4710207 0.31557584 -0.41900706 0
0.57845783 0.31478477 -0.41217637 0
0.66960168 0.31821585 -0.40983891 0
0.75718141 0.29195285 -0.40557671 0
0.86205459 0.3052516 -0.40310335 0
-0.09449029 0.36961508 -0.36100912 0
-0.01080513 0.36136532 -0.38905454 0
0.074090719 0.38315964 -0.39433718 0
0.18712139 0.42369628 -0.41058564 0
0.30283046 0.40341973 -0.4191277 0
0.44426966 0.40143251 -0.42348385 0
0.55310225 0.41071033 -0.423751 0
0.64989543 0.41863513 -0.412866 0
0.73347449 0.3967967 -0.40733469 0
0.85548639 0.41650701 -0.41148889 0
0.95529819 0.45628142 -0.40881324 0
-0.15873265 0.4866066 -0.352301 0
-0.038982868 0.47258258 -0.37461841 0
0.055285215 0.48621297 -0.38680065 0
0.13075614 0.47881675 -0.39816391 0
0.36853456 0.47708893 -0.4216001 0
0.53603864 0.48000765 -0.41426611 0
0.81861782 0.48830819 -0.40618002 0
0.78992176 -0.48667598 -0.26463974 0
0.89645791 -0.4816153 -0.23893774 0
0.90171242 -0.41835904 -0.26227605 0
0.91963625 -0.48346281 -0.18265212 0
-0.45906949 -0.43069398 -0.32342136 0
-0.38279605 -0.41748416 -0.32973826 0
-0.26956058 -0.44993186 -0.33863473 0
-0.15121007 -0.41719007 -0.3526293 0
-0.045401335 -0.43267822 -0.35729551 0
0.028874397 -0.41991282 -0.35782409 0
-0.44928241 -0.32649708 -0.33173215 0
-0.37101007 -0.32500696 -0.33872139 0
-0.26571155 -0.32158875 -0.34989595 0
-0.15806031 -0.32788372 -0.3605386 0
-0.043148041 -0.33237982 -0.36358309 0
0.052193165 -0.31115651 -0.37214994 0
0.13612127 -0.29080439 -0.37599933 0
-0.45457721 -0.23416018 -0.33465445 0
-0.36474562 -0.22331738 -0.3468951 0
-0.28695869 -0.22158432 -0.35394156 0
-0.1682229 -0.22959399 -0.36687696 0
-0.070804358 -0.19639635 -0.38068926 0
0.029041529 -0.2407105 -0.38200843 0
0.12853622 -0.215029 -0.38748765 0
-0.4559803 -0.12819576 -0.34066689 0
-0.35993695 -0.1294992 -0.34647202 0
-0.22434807 -0.10899568 -0.36288476 0
-0.16665125 -0.14366651 -0.37002015 0
-0.061436415 -0.12016702 -0.38554108 0
0.045560598 -0.11364746 -0.39320064 0
0.1201365 -0.11685085 -0.39644325 0
-0.35057473 -0.030137777 -0.35219121 0
-0.26554775 -0.0089933872 -0.36359429 0
-0.16804624 -0.040123224 -0.37450266 0
-0.051829338 -0.019791126 -0.38494205 0
0.054527044 0.0011179447 -0.3980267 0
0.16426539 -0.00078010559 -0.40851271 0
0.18299365 -0.060661793 -0.4095633 0
0.036239147 0.12408447 -0.40421331 0
0.14314175 0.097724676 -0.41134679 0
0.11332059 -0.49422193 -0.33954072 0
0.39233923 -0.48218489 -0.3323878 0
0.70334601 -0.49699736 -0.33190918 0
0.12459159 -0.40706968 -0.35232663 0
0.21654916 -0.4201889 -0.33994508 0
0.32201433 -0.39997387 -0.33809018 0
0.45194435 -0.40184093 -0.33809054 0
0.58141518 -0.38274527 -0.33590686 0
0.642066 -0.40200281 -0.33330357 0
0.73845768 -0.40647364 -0.33636165 0
0.91106653 -0.37215304 -0.35847211 0
0.13376331 -0.34336352 -0.35890424 0
0.23747635 -0.30497885 -0.36449814 0
0.35277009 -0.29882336 -0.34676206 0
0.47342443 -0.29398274 -0.34290576 0
0.57499933 -0.29554725 -0.34095848 0
0.67898941 -0.2961719 -0.33614182 0
0.9000783 -0.28281689 -0.36214864 0
0.12658405 -0.17793298 -0.38003731 0
0.23658609 -0.22308779 -0.37452698 0
0.35737944 -0.18658471 -0.37187779 0
0.44042635 -0.20528269 -0.35718846 0
0.572258 -0.22593212 -0.34453714 0
0.64940119 -0.18740535 -0.34862709 0
0.96228266 -0.17119765 -0.39134455 0
-0.50655651 -0.092726946 -0.32421851 0
0.20762086 -0.11378574 -0.38804448 0
0.31135082 -0.11174107 -0.38514876 0
0.43614626 -0.099829197 -0.37336028 0
0.51960683 -0.13050771 -0.3696171 0
0.63953781 -0.095603704 -0.35732734 0
0.95778298 -0.08666563 -0.39641726 0
-0.5359478 -0.035436392 -0.31717098 0
-0.43417859 -0.029320002 -0.33578432 0
-0.17972374 0.023617506 -0.36915088 0
0.23254776 -0.0059812069 -0.40609598 0
0.30628872 0.011311054 -0.40169704 0
0.42849731 0.0009534359 -0.39822507 0
0.5437007 -0.00028824806 -0.38776886 0
0.65259862 0.0081622601 -0.38915586 0
0.72219467 0.024153948 -0.37572455 0
0.89690018 0.017366171 -0.38701737 0
-0.69202518 0.09712863 -0.26912284 0
-0.5761497 0.058624268 -0.30433214 0
-0.45463777 0.052410364 -0.32855558 0
-0.37267756 0.065456867 -0.34623623 0
-0.29149222 0.05990243 -0.35396945 0
-0.21124506 0.077724934 -0.36337137 0
-0.0898211 0.087613106 -0.38210166 0
0.0084331036 0.060760736 -0.38795316 0
0.22083426 0.084207773 -0.41100895 0
0.29265976 0.078697681 -0.40364659 0
0.41002083 0.11585426 -0.40491784 0
0.48869944 0.093201399 -0.40795851 0
0.61472273 0.088279486 -0.39471722 0
0.72975945 0.10447955 -0.38453996 0
0.88991475 0.11317658 -0.39590824 0
-0.74218774 0.20430756 -0.25916481 0
-0.68783522 0.17467046 -0.27102029 0
-0.59259033 0.16492939 -0.29351878 0
-0.48652625 0.15926695 -0.31936705 0
-0.37026167 0.17307281 -0.33717716 0
-0.2583487 0.17274046 -0.36172211 0
-0.15849471 0.17546749 -0.36774051 0
-0.067945957 0.18005633 -0.38701272 0
0.033246279 0.14867377 -0.39254987 0
0.076267719 0.20503902 -0.40055084 0
0.20644641 0.18172622 -0.4166739 0
0.30855823 0.18877316 -0.4209218 0
0.38220191 0.18780851 -0.41391921 0
0.52745843 0.19105792 -0.41070461 0
0.63558483 0.18520093 -0.39874947 0
0.75833511 0.19872952 -0.40293014 0
0.86827993 0.20208073 -0.39955628 0
-0.83588529 0.28176522 -0.2326864 0
-0.76622772 0.26102448 -0.24750042 0
-0.67946553 0.26734924 -0.2630626 0
-0.57419848 0.26724529 -0.2877264 0
-0.49077845 0.27938056 -0.29919064 0
-0.40364385 0.26041937 -0.32464683 0
-0.28850007 0.27795386 -0.34607446 0
-0.17734337 0.25461459 -0.37002969 0
-0.08586359 0.28425097 -0.38076234 0
0.012291908 0.28082657 -0.39457142 0
0.14693999 0.29235315 -0.41010022 0
0.20260262 0.24063253 -0.42238796 0
0.31087112 0.31506324 -0.42574143 0
0.40748239 0.29473686 -0.42402959 0
0.5048511 0.28081465 -0.41832507 0
0.63659 0.30225062 -0.41245151 0
0.75517583 0.31485415 -0.4152807 0
0.82810163 0.31246948 -0.39959741 0
-0.86351562 0.35213447 -0.23280811 0
-0.75843287 0.35905361 -0.24908543 0
-0.67942667 0.37087131 -0.26044345 0
-0.57430506 0.37549639 -0.27789688 0
-0.48818755 0.36577201 -0.29788518 0
-0.37480879 0.37817597 -0.31733882 0
-0.27511549 0.37934446 -0.34041846 0
-0.19714141 0.367383 -0.35365331 0
-0.085654497 0.37643409 -0.38010848 0
0.0092253685 0.39459538 -0.38990533 0
0.092722654 0.35941172 -0.40090024 0
0.23250794 0.40610814 -0.42281127 0
0.34564328 0.38179398 -0.42447877 0
0.43330526 0.39714336 -0.42401934 0
0.51651931 0.39445353 -0.42091334 0
0.61744547 0.40923572 -0.41968071 0
0.697124 0.44825172 -0.41332531 0
0.79042172 0.41051435 -0.41948628 0
-0.87736583 0.4609462 -0.24389279 0
-0.66982388 0.43866324 -0.26178288 0
-0.58877945 0.43233061 -0.27207065 0
-0.48810768 0.47484159 -0.2917484 0
-0.3942554 0.4750402 -0.30918121 0
-0.28106737 0.47583866 -0.32856047 0
-0.16204429 0.45733023 -0.35361612 0
-0.018673658 0.45957375 -0.37821996 0
0.11697984 0.47833395 -0.39585114 0
0.40955853 0.49202275 -0.43633997 0
0.49052715 0.49794888 -0.42582142 0
0.78892136 0.49013591 -0.41007054 0
0.75022173 -0.48034978 -0.28895855 0
0.85868073 -0.47687745 -0.25547874 0
0.8844018 -0.40873909 -0.3038367 0
0.93288994 -0.39874959 -0.27022731 0
-0.86566353 0.30234003 -0.22540355 0
0.8946898 0.35197902 -0.38953888 0
-0.89097285 0.38420784 -0.22823834 0
-0.79610658 0.40656471 -0.23887753 0
-0.68207884 0.39019537 -0.25143385 0
0.90109539 0.42286897 -0.40100121 0
-0.94864607 0.49022818 -0.22544932 0
-0.84317493 0.4631722 -0.23966527 0
-0.77581954 0.4862299 -0.24531031 0
-0.67884469 0.47280264 -0.25554025 0
0.87335658 0.47612667 -0.39906979 0
0.87880182 -0.49855471 -0.19709504 0
0.94770098 -0.47899437 -0.1800791 0
-0.46413946 -0.49850881 -0.31406534 0
-0.27130485 -0.48993635 -0.3357532 0
-0.062649012 -0.49306941 -0.35205555 0
0.020991325 -0.49875617 -0.34625185 0
-0.9653194 -0.41840112 -0.24900353 0
-0.88489628 -0.43815637 -0.27146494 0
-0.78620529 -0.41006064 -0.27933931 0
-0.6626544 -0.40605664 -0.30351603 0
-0.56438875 -0.42858481 -0.31680048 0
-0.48506355 -0.42574799 -0.31982112 0
-0.3527236 -0.41371679 -0.33653557 0
-0.2706604 -0.39734817 -0.33833289 0
-0.14666319 -0.42235255 -0.34722877 0
-0.10278964 -0.39606881 -0.36520898 0
0.0088191032 -0.38610744 -0.3701278 0
-0.95838475 -0.32067525 -0.24652004 0
-0.87661242 -0.3325001 -0.25902748 0
-0.79255557 -0.29815865 -0.27129138 0
-0.69946313 -0.31315506 -0.29505491 0
-0.55995488 -0.3222034 -0.32202315 0
-0.46357226 -0.31238937 -0.33767879 0
-0.3806479 -0.32623553 -0.34498274 0
-0.2806685 -0.28589773 -0.35632324 0
-0.18090224 -0.30704355 -0.35983586 0
-0.11288285 -0.26054502 -0.37577355 0
-0.022473574 -0.29865766 -0.37700534 0
0.086536169 -0.2600131 -0.3935312 0
-0.95149565 -0.22553468 -0.24502766 0
-0.88587785 -0.26180303 -0.25341296 0
-0.8027184 -0.21611178 -0.26784635 0
-0.69738698 -0.21168709 -0.28891635 0
-0.58221841 -0.22295022 -0.31527889 0
-0.46258068 -0.22459126 -0.33598876 0
-0.40373802 -0.18723178 -0.34414995 0
-0.32657146 -0.21559644 -0.35552502 0
-0.20797157 -0.20206785 -0.36194313 0
-0.055716753 -0.19794345 -0.37700403 0
0.011818171 -0.20995855 -0.38622749 0
0.087043285 -0.21345258 -0.39896154 0
-0.75114083 -0.15246892 -0.28198957 0
-0.58001041 -0.13640046 -0.3116281 0
-0.47650886 -0.10771751 -0.33291149 0
-0.37650394 -0.088878155 -0.35160458 0
-0.27331901 -0.097836018 -0.36322439 0
-0.17791152 -0.11020899 -0.37056482 0
0.0041909218 -0.13436842 -0.39257288 0
-0.51247168 -0.042099953 -0.32652557 0
-0.43065023 -0.010469675 -0.34158659 0
-0.30692816 -0.0062522888 -0.3623662 0
-0.1843729 -0.030990362 -0.37771916 0
-0.080117941 -0.033517838 -0.38851476 0
0.043387413 -0.017139912 -0.40827096 0
0.0042843819 -0.43849802 -0.34628499 0
0.18706322 -0.469491 -0.34491146 0
0.3155241 -0.47419238 -0.34594083 0
0.45905042 -0.47322202 -0.3373841 0
0.55900288 -0.43507648 -0.33758771 0
0.017120123 -0.34011388 -0.36094737 0
0.11456013 -0.40798521 -0.35737801 0
0.2210083 -0.37739182 -0.35041225 0
0.3525877 -0.37053514 -0.35074031 0
0.45366549 -0.38342977 -0.34681237 0
0.54565096 -0.37321758 -0.34123683 0
0.11955905 -0.31222773 -0.3691318 0
0.23015571 -0.27899456 -0.36937118 0
0.32210398 -0.26622295 -0.36155427 0
0.41935039 -0.3105545 -0.3440969 0
0.50589991 -0.26416039 -0.35394466 0
-0.98336625 -0.2042824 -0.22698998 0
0.13681436 -0.18635392 -0.3892616 0
0.22914004 -0.16320014 -0.39270711 0
0.31363058 -0.1606524 -0.38047397 0
0.42113757 -0.17451191 -0.37187302 0
0.55199099 -0.16514778 -0.36851537 0
-0.98309779 -0.10851502 -0.22683287 0
-0.88834238 -0.13170111 -0.24690616 0
-0.79279661 -0.099740982 -0.26578021 0
-0.72378922 -0.13294649 -0.27727413 0
-0.61961889 -0.070536852 -0.30334723 0
-0.091840506 -0.098342419 -0.37662709 0
0.012152672 -0.10036206 -0.38731253 0
0.12106395 -0.10247183 -0.39402068 0
0.2239399 -0.067279577 -0.40254748 0
0.27667356 -0.07879281 -0.38759196 0
0.4090035 -0.059103966 -0.38744104 0
0.53978014 -0.062391043 -0.37640882 0
-0.99724317 -0.017335415 -0.21994603 0
-0.8674264 -0.019355297 -0.24476135 0
-0.79417443 -0.0096211433 -0.26194346 0
-0.70076799 -0.0040132999 -0.28043604 0
-0.57476044 -0.010094881 -0.30785918 0
-0.51470709 0.036198854 -0.31738138 0
-0.35465693 0.039899111 -0.35175061 0
-0.23415232 -0.0012667179 -0.36454105 0
-0.12354755 0.028153896 -0.38172257 0
0.012504339 0.033009529 -0.40445352 0
0.098311186 0.031475782 -0.40404916 0
0.19558501 0.013329268 -0.41365957 0
0.29859352 0.005838871 -0.40556812 0
0.4279511 0.031052589 -0.40497422 0
0.46799517 0.075742245 -0.40627134 0
0.56911802 0.03220582 -0.39777577 0
-0.99851513 0.079402447 -0.22119296 0
-0.90077591 0.094885826 -0.23594666 0
-0.79062533 0.08729887 -0.25653541 0
-0.67135096 0.089256048 -0.28327346 0
-0.59722948 0.082433224 -0.30113852 0
-0.5305717 0.087746859 -0.31700552 0
-0.39151525 0.11324978 -0.3478862 0
-0.2733891 0.11242318 -0.36570871 0
-0.19174385 0.098151922 -0.37581301 0
-0.080953836 0.13213539 -0.38675046 0
0.020550013 0.12438798 -0.40536177 0
0.074753523 0.11515236 -0.4077754 0
0.18473196 0.14082551 -0.41775942 0
0.28823209 0.1193223 -0.41776323 0
0.36504436 0.10728002 -0.4124372 0
0.45446181 0.13294744 -0.40991402 0
0.58601904 0.12620854 -0.41551864 0
-0.9860661 0.18412602 -0.2259928 0
-0.90428853 0.19531345 -0.23441803 0
-0.80079079 0.19152832 -0.24818254 0
-0.69242692 0.18363333 -0.27446878 0
-0.61419654 0.21908379 -0.2833066 0
-0.52553201 0.17768645 -0.30896759 0
-0.44168591 0.18871784 -0.31837499 0
-0.2951529 0.20111966 -0.35850716 0
-0.1803658 0.21565366 -0.3766011 0
-0.12643743 0.20456028 -0.38181174 0
-0.014762402 0.22506022 -0.39420331 0
0.1200285 0.20737314 -0.40654027 0
0.23459339 0.20701694 -0.41275179 0
0.29500604 0.25535154 -0.42534506 0
0.39683986 0.21825385 -0.42107701 0
0.50398397 0.20788097 -0.41262531 0
-0.91009092 0.29078138 -0.23029172 0
-0.81453323 0.2727952 -0.2424258 0
-0.68688011 0.30601692 -0.26423299 0
-0.56774521 0.31238294 -0.29114163 0
-0.48036122 0.27260447 -0.31554031 0
-0.42022991 0.30718493 -0.31993783 0
-0.29599023 0.28708005 -0.34830821 0
-0.19969153 0.28619719 -0.36922216 0
-0.11358857 0.31563354 -0.37557805 0
0.089446306 0.2895205 -0.40909243 0
0.21556783 0.33440304 -0.42639768 0
0.33240128 0.3201077 -0.43276346 0
0.42896342 0.36798954 -0.43633175 0
0.48628068 0.32251048 -0.42400908 0
-0.99187803 0.38649487 -0.22908795 0
-0.88525462 0.38893712 -0.23761141 0
-0.80542231 0.38068247 -0.23979521 0
-0.70902395 0.40647745 -0.25717139 0
-0.61100769 0.39367676 -0.26892817 0
-0.5090661 0.40832877 -0.29216731 0
-0.44163823 0.36726522 -0.30174232 0
-0.30548429 0.40730619 -0.34011877 0
-0.19614077 0.39978313 -0.36179864 0
-0.10258746 0.40401959 -0.36597133 0
0.010327339 0.40508962 -0.38798165 0
0.079656363 0.40406609 -0.39509082 0
0.1815896 0.40678048 -0.41371047 0
0.26807308 0.38627934 -0.42298281 0
0.38732314 0.43283272 -0.43318987 0
0.48997235 0.44873238 -0.4331969 0
-0.98894405 0.48829508 -0.23197627 0
-0.90562749 0.48592114 -0.24194193 0
-0.82304907 0.47090387 -0.24844348 0
-0.74716067 0.47156191 -0.25479674 0
-0.54790306 0.47788739 -0.28405178 0
-0.053487539 0.47334313 -0.36517477 0
0.17305589 0.4888382 -0.41141546 0
0.66676664 -0.40833855 -0.33513582 0
0.71881628 -0.46522665 -0.32057106 0
0.83057332 -0.46240187 -0.27286327 0
0.90677023 -0.39571214 -0.30214131 0
0.64081001 -0.33060312 -0.33924007 0
0.74669099 -0.35550547 -0.33396208 0
0.79305291 -0.39186621 -0.30806398 0
0.61963892 -0.26162624 -0.34222579 0
0.75443792 -0.23422313 -0.35080874 0
0.64186215 -0.16681099 -0.36065006 0
0.70874524 -0.14673042 -0.34922266 0
0.63999295 -0.058686972 -0.37252021 0
0.72173524 -0.055663586 -0.36438847 0
0.64137101 0.079757452 -0.3898176 0
0.71682644 0.042913675 -0.39253628 0
0.91018081 0.094673634 -0.39586461 0
0.9783895 0.043311834 -0.40816832 0
0.72330379 0.13615918 -0.40025449 0
0.90929317 0.17630816 -0.4098078 0
0.64001822 0.26507664 -0.41535568 0
0.71189737 0.23521399 -0.4102931 0
0.8407681 0.28945518 -0.40556264 0
0.86409593 0.23215199 -0.40405309 0
0.619133 0.34876919 -0.42155063 0
0.68071198 0.35882401 -0.40793657 0
0.82072496 0.34619021 -0.40844941 0
0.87051105 0.39629078 -0.38885033 0
-0.65944695 0.4437263 -0.26078427 0
0.54091907 0.46948814 -0.41640234 0
0.61963844 0.45195317 -0.43827534 0
0.67126155 0.45884323 -0.42127621 0
0.79303646 0.44068241 -0.41531825 0
0.89245892 -0.4477129 -0.2582128 0
0.93112421 -0.42553926 -0.23629105 0
0.98458219 -0.44726825 -0.17627919 0
-0.78203058 -0.49267828 -0.2875191 0
-0.67862082 -0.47867346 -0.30766606 0
-0.49446368 -0.49392593 -0.31692863 0
-0.30556107 -0.49500704 -0.32407415 0
-0.083030224 -0.44772625 -0.35207319 0
-0.0060720444 -0.47295523 -0.35631609 0
0.12771416 -0.45735312 -0.34679472 0
-0.90344095 -0.41396594 -0.26677227 0
-0.81052709 -0.38645184 -0.28611374 0
-0.70601749 -0.40079498 -0.2997551 0
-0.58692741 -0.40622973 -0.31760657 0
-0.49700665 -0.41781533 -0.32225502 0
-0.37083721 -0.40353096 -0.33949983 0
-0.28564 -0.38069963 -0.34642899 0
-0.18590403 -0.39920259 -0.35137439 0
-0.099588871 -0.3723402 -0.35782337 0
0.0041744709 -0.36633992 -0.36725402 0
0.097394705 -0.3704679 -0.36606836 0
0.16712666 -0.35251117 -0.36005247 0
-0.89319825 -0.31653643 -0.25364089 0
-0.79813743 -0.29475677 -0.27317023 0
-0.68699145 -0.31935835 -0.29503584 0
-0.57281971 -0.33063638 -0.32161844 0
-0.50189209 -0.29979181 -0.32938623 0
-0.41632581 -0.3263669 -0.33527839 0
-0.32924271 -0.29858184 -0.34407127 0
-0.18822622 -0.28710151 -0.35883534 0
-0.083497047 -0.28454208 -0.37625873 0
0.015369177 -0.27863812 -0.38449967 0
0.0860219 -0.26681256 -0.37896216 0
-0.98997474 -0.1956389 -0.2315855 0
-0.9044311 -0.19274449 -0.24525237 0
-0.8273468 -0.22185636 -0.2612474 0
-0.69504094 -0.21215379 -0.29174864 0
-0.58896255 -0.18284965 -0.31401026 0
-0.47822618 -0.18156171 -0.33446479 0
-0.38605762 -0.22905231 -0.34692276 0
-0.35185647 -0.16341543 -0.35587537 0
-0.24359751 -0.20285225 -0.36187863 0
-0.13944674 -0.19047737 -0.3730185 0
-0.025924206 -0.18127298 -0.38686883 0
0.10324192 -0.15484428 -0.40291297 0
0.17482901 -0.16062593 -0.39389026 0
-0.7671721 -0.084666967 -0.28091526 0
-0.70411396 -0.10743642 -0.28907967 0
-0.5855031 -0.094130754 -0.30950403 0
-0.43227863 -0.10488462 -0.33813059 0
-0.30475378 -0.10794234 -0.35615516 0
-0.19135737 -0.085763216 -0.37255311 0
-0.10693908 -0.094892025 -0.37500024 0
0.030039787 -0.060949802 -0.39564788 0
0.16202283 -0.082100868 -0.40330935 0
-0.61130524 -0.0042827129 -0.31206083 0
-0.47549939 0.005292654 -0.33922255 0
-0.38147569 0.0068449974 -0.34907007 0
-0.32474446 0.013263464 -0.35712826 0
-0.2048142 0.019095421 -0.3736279 0
-0.12128258 -0.021739483 -0.38228345 0
0.30099726 -0.43479538 -0.34754133 0
0.37171316 -0.47776699 -0.34263098 0
0.51170015 -0.41103888 -0.34165931 0
0.58705688 -0.45711613 -0.33737957 0
0.70704603 -0.42984939 -0.33990109 0
0.13938761 -0.31499743 -0.35722792 0
0.21492481 -0.38500619 -0.33823609 0
0.3232193 -0.32997251 -0.35176468 0
0.42980099 -0.33866286 -0.34752178 0
0.54967356 -0.30634713 -0.35314417 0
0.69756675 -0.30915332 -0.35861123 0
0.14418149 -0.25501466 -0.36851895 0
0.2765913 -0.26894307 -0.36663747 0
0.41048503 -0.25931501 -0.35472357 0
0.51049113 -0.2272017 -0.35455644 0
0.59525537 -0.24141836 -0.34034657 0
0.2023499 -0.16183424 -0.3710115 0
0.29677391 -0.17271066 -0.37922692 0
0.42102003 -0.15914106 -0.37487173 0
0.50180769 -0.13596821 -0.36731851 0
0.58629608 -0.11473608 -0.35940456 0
-0.89984989 -0.084635019 -0.24248087 0
0.12980866 -0.055188417 -0.39799857 0
0.27001834 -0.062441349 -0.3995173 0
0.39456272 -0.057996511 -0.38411832 0
0.50530124 -0.053272009 -0.38277626 0
0.56725931 -0.03618741 -0.36723375 0
-0.89703894 0.004556179 -0.23797858 0
-0.79641342 0.0069289207 -0.26043272 0
-0.70953536 0.017757654 -0.28139651 0
-0.43103528 0.049392939 -0.33961034 0
-0.22958708 0.051887751 -0.36025608 0
-0.066895008 0.072157145 -0.3878032 0
-0.031971216 0.01220274 -0.38848567 0
0.092371225 0.037517071 -0.40266764 0
0.21365309 0.072562695 -0.41583586 0
0.29608917 0.037162304 -0.41325819 0
0.39380527 0.062788725 -0.40548706 0
0.48159027 0.066528559 -0.39683723 0
0.57751083 0.035812616 -0.38319945 0
-0.89810634 0.10929251 -0.23548722 0
-0.83313179 0.095558882 -0.24892032 0
-0.7203908 0.11082864 -0.27126563 0
-0.59734631 0.096458673 -0.30110443 0
-0.48980403 0.091012239 -0.32609057 0
-0.39006305 0.14777088 -0.34629714 0
-0.30159283 0.13440037 -0.36217189 0
-0.25283456 0.11037898 -0.36275148 0
-0.10248852 0.12116075 -0.38518143 0
-0.031698227 0.16839981 -0.38776803 0
0.059227467 0.12897468 -0.40862763 0
0.21460819 0.13886023 -0.42825365 0
0.28720284 0.15012145 -0.42415178 0
0.37044072 0.15186763 -0.41502249 0
0.47724819 0.15621662 -0.41233933 0
0.60071325 0.13927221 -0.40920436 0
-0.99935913 0.18701136 -0.2228812 0
-0.91655922 0.20702934 -0.22707736 0
-0.80238223 0.20162177 -0.24752474 0
-0.71595716 0.21089768 -0.26839018 0
-0.63416624 0.2079165 -0.28239751 0
-0.5131669 0.17065859 -0.30969954 0
-0.42455626 0.21277475 -0.32508671 0
-0.26995754 0.25756145 -0.35692298 0
-0.20941091 0.20280027 -0.36625707 0
-0.13187361 0.18170166 -0.38665712 0
-0.047973871 0.22502685 -0.39308929 0
0.050088406 0.25049615 -0.39918613 0
0.17361951 0.22343707 -0.41769278 0
0.25321889 0.20411134 -0.42399454 0
0.37565446 0.25329113 -0.42415047 0
0.45233941 0.22150111 -0.41739833 0
0.55267382 0.22040534 -0.41039908 0
-0.90156484 0.32807231 -0.23377848 0
-0.80683184 0.30102587 -0.2432971 0
-0.71194482 0.31507468 -0.258605 0
-0.62104273 0.30136085 -0.27651107 0
-0.55205822 0.31241608 -0.28938544 0
-0.4164443 0.30613446 -0.31940699 0
-0.2116096 0.3332293 -0.36274898 0
-0.092562199 0.32704115 -0.38457549 0
-0.056878567 0.32229853 -0.38053799 0
0.083952665 0.34601808 -0.40104151 0
0.15646768 0.29899812 -0.41335428 0
0.29846716 0.35377169 -0.43252671 0
0.39794731 0.35794091 -0.42794144 0
0.5271163 0.34225154 -0.42684412 0
-0.92312527 0.41053498 -0.23683619 0
-0.82921648 0.37084579 -0.24018741 0
-0.73311853 0.37746477 -0.25396121 0
-0.6058619 0.3974719 -0.27604747 0
-0.4002974 0.4112041 -0.31920171 0
-0.22322178 0.43355393 -0.35208237 0
-0.089910269 0.42857528 -0.36606789 0
0.011967897 0.40774798 -0.39200521 0
0.086887121 0.46090603 -0.39301825 0
0.15647101 0.40320301 -0.40110958 0
0.39599299 0.45260525 -0.44638455 0
-0.12319493 0.4891293 -0.36853635 0
0.010882616 0.49743867 -0.37872481 0
0.30218697 0.4958837 -0.42843771 0
0.7301681 -0.43123412 -0.30078721 0
0.83728766 -0.4226644 -0.28699636 0
0.89794159 -0.39308023 -0.28817582 0
0.72778797 -0.33855033 -0.32647598 0
0.94473052 -0.34342623 -0.3444773 0
0.73893857 -0.18665671 -0.3568387 0
0.77307272 -0.26185012 -0.35237992 0
0.69398022 -0.12879682 -0.35456347 0
0.99139023 -0.11373973 -0.39377201 0
0.69873834 -0.033856153 -0.3726083 0
0.90504742 -0.013542652 -0.39042807 0
0.66335797 0.075715303 -0.38126504 0
0.79721737 0.12222171 -0.38824999 0
0.8639307 0.080385447 -0.39948726 0
0.69128633 0.18244457 -0.40930533 0
0.78293705 0.17846036 -0.39414358 0
0.52916384 0.28176069 -0.41545069 0
0.64608598 0.23261261 -0.40572655 0
0.7610724 0.23962522 -0.39937997 0
0.4833467 0.3976562 -0.42522383 0
0.5731144 0.35089469 -0.4080646 0
0.67258024 0.32398057 -0.43177867 0
0.75080395 0.34884167 -0.41886294 0
0.8704946 0.36952996 -0.41531456 0
-0.88165069 0.41133583 -0.23203254 0
-0.78246641 0.43239665 -0.24898016 0
-0.71140409 0.46323729 -0.25609148 0
-0.65971255 0.42697978 -0.26506746 0
-0.52885747 0.45302081 -0.28785372 0
-0.41209292 0.45758343 -0.30016315 0
0.4575181 0.45973992 -0.43044233 0
0.54585886 0.44599462 -0.41986322 0
0.67097616 0.47000003 -0.42118645 0
0.78238988 0.48319793 -0.4142276 0
0.89655161 0.49386621 -0.40525353 0
0.94150567 -0.49138594 -0.17367256 0
0.89948773 -0.42332292 -0.22842348 0
-0.99642491 -0.48029685 -0.25820267 0
-0.90766931 -0.44642162 -0.26799989 0
-0.80017805 -0.4510541 -0.28902626 0
-0.70531201 -0.45696712 -0.30048609 0
-0.60299277 -0.44220889 -0.31622517 0
-0.53226662 -0.47486019 -0.31294644 0
-0.85259795 -0.40149033 -0.27556288 0
-0.49239302 -0.44073379 -0.3182013 0
-0.36831236 -0.44552422 -0.32596385 0
-0.26372957 -0.40699863 -0.34078729 0
-0.22100377 -0.4524467 -0.34588194 0
-0.086283684 -0.42943215 -0.36644769 0
-0.025039673 -0.44648528 -0.35746145 0
0.090537071 -0.41659713 -0.36733603 0
0.17610312 -0.40458035 -0.35333931 0
0.30673122 -0.4231782 -0.34717166 0
-0.94986153 -0.35344899 -0.24642277 0
-0.80256367 -0.32561731 -0.27639472 0
-0.70605993 -0.34382951 -0.29496109 0
-0.59505057 -0.30901384 -0.31807148 0
-0.51531816 -0.34855568 -0.32654476 0
-0.37749243 -0.35856938 -0.33838642 0
-0.29208612 -0.32118821 -0.34763718 0
-0.17049336 -0.30895185 -0.36289144 0
-0.13000703 -0.34610677 -0.36830831 0
-0.046242714 -0.32460213 -0.37412608 0
0.073605061 -0.31804919 -0.37190247 0
0.18482256 -0.29127645 -0.37383831 0
0.2520628 -0.31985474 -0.37184536 0
-0.90566301 -0.24138439 -0.24521899 0
-0.71723223 -0.2373668 -0.28673494 0
-0.59800291 -0.19904017 -0.31550968 0
-0.53795481 -0.26543617 -0.32618392 0
-0.40561152 -0.23298621 -0.34370828 0
-0.35300446 -0.25963426 -0.34012187 0
-0.20658541 -0.21850133 -0.36884034 0
-0.097135782 -0.21147132 -0.38049638 0
0.0061495304 -0.20077157 -0.38561356 0
0.05857563 -0.24740791 -0.39201558 0
0.17215371 -0.20936465 -0.38723969 0
-0.82147789 -0.13375306 -0.26099038 0
-0.66290069 -0.16120124 -0.29940856 0
-0.60113478 -0.14251971 -0.30301893 0
-0.49924326 -0.18288755 -0.33018529 0
-0.43270469 -0.11328459 -0.34085417 0
-0.30010915 -0.11877966 -0.3582927 0
-0.22174597 -0.087638855 -0.36601949 0
-0.16437006 -0.1347425 -0.37466061 0
-0.036359787 -0.11759424 -0.38937831 0
0.093585253 -0.12673664 -0.39741707 0
0.20630002 -0.11502314 -0.40179849 0
-0.937428 -0.068082094 -0.23550487 0
-0.80003834 -0.048847675 -0.26987398 0
-0.69581866 -0.020107985 -0.29037011 0
-0.60202169 -0.023362637 -0.31103027 0
-0.54891396 -0.045188189 -0.31500626 0
-0.41000342 0.011763811 -0.34840345 0
-0.31233978 -0.0324862 -0.35958135 0
-0.17223716 0.021452427 -0.37574029 0
-0.10743403 -0.031411171 -0.38478482 0
-0.014981985 0.0087656975 -0.39273977 0
0.042042494 -0.030606747 -0.40173042 0
0.18994379 -0.034734488 -0.41449833 0
-0.3278482 0.044905901 -0.35912824 0
-0.21983743 0.065928221 -0.37032616 0
0.16243219 0.034952164 -0.42132235 0
0.50477386 -0.49804211 -0.34310067 0
0.73413539 -0.48472452 -0.31228471 0
0.42348814 -0.38864589 -0.34216952 0
0.48718619 -0.35810852 -0.33003318 0
0.57680178 -0.40144897 -0.34646666 0
0.71366906 -0.39436793 -0.33654332 0
0.75597906 -0.34601784 -0.33490634 0
0.97201037 -0.33877826 -0.35288954 0
0.29511094 -0.32305717 -0.35442734 0
0.40467834 -0.2942524 -0.35659027 0
0.50084782 -0.26050973 -0.3550328 0
0.63087463 -0.25958395 -0.35481513 0
0.77666998 -0.27397037 -0.3560127 0
0.29630351 -0.2314117 -0.37407625 0
0.34649038 -0.22038174 -0.35547531 0
0.50822401 -0.19934106 -0.37033737 0
0.59595323 -0.21105361 -0.35547256 0
0.69952059 -0.1619451 -0.3605485 0
0.25468111 -0.12096453 -0.38576245 0
0.37629843 -0.11057186 -0.38788354 0
0.49086905 -0.10537982 -0.38585877 0
0.59313345 -0.10677075 -0.37757254 0
0.67148662 -0.064134598 -0.37430811 0
-0.90847373 -0.028776884 -0.23643911 0
0.26390553 -0.020046711 -0.4104979 0
0.38907027 -0.031471491 -0.39103234 0
0.51070642 0.030755281 -0.38492322 0
0.60620642 0.023206949 -0.39290178 0
0.65115356 -0.0030300617 -0.38227201 0
-0.99254608 0.074299812 -0.22062409 0
-0.90219569 0.044547796 -0.23177361 0
-0.79123735 0.066954374 -0.2627368 0
-0.72775745 0.055533171 -0.27273786 0
-0.63270617 0.092742682 -0.29076087 0
-0.52292705 0.055238962 -0.31985354 0
-0.44975829 0.10430789 -0.332335 0
-0.29465246 0.10498452 -0.35580075 0
-0.091110229 0.065763474 -0.38178289 0
0.090568304 0.080579281 -0.40984738 0
0.21110082 0.059234858 -0.41281116 0
0.28317571 0.081900597 -0.40408731 0
0.37756872 0.069617987 -0.41046095 0
0.48733377 0.072279453 -0.40608835 0
-0.91905069 0.17250133 -0.23112762 0
-0.80201721 0.17748761 -0.25040662 0
-0.70065308 0.16441917 -0.27212298 0
-0.54248428 0.16759491 -0.31373787 0
-0.45892191 0.22299361 -0.32731223 0
-0.30978799 0.19830704 -0.35658872 0
-0.18872285 0.1780684 -0.37610662 0
-0.11669946 0.18260312 -0.38477874 0
-0.022244453 0.18986654 -0.40008068 0
0.058612585 0.17543626 -0.4074806 0
0.15314913 0.16752243 -0.41976225 0
0.29017973 0.19397593 -0.43148124 0
0.38227677 0.19468093 -0.4228425 0
0.51110196 0.2085402 -0.42611158 0
-0.9175868 0.27679694 -0.23461735 0
-0.82488251 0.28931928 -0.23697603 0
-0.720891 0.26311326 -0.26399112 0
-0.5762167 0.25724316 -0.29734874 0
-0.49604726 0.30794239 -0.30896366 0
-0.37432861 0.27215171 -0.33892417 0
-0.34784222 0.31049109 -0.33007538 0
-0.23613214 0.25708675 -0.35187578 0
-0.034363747 0.27838302 -0.39014089 0
0.10948658 0.31786633 -0.40859294 0
0.17705631 0.27024269 -0.4168191 0
0.36252666 0.30983996 -0.42650163 0
0.4468751 0.29958344 -0.42970157 0
-0.93909502 0.37422752 -0.23219693 0
-0.6812973 0.38035464 -0.26750219 0
-0.61044979 0.34546638 -0.28167593 0
-0.4269774 0.35508585 -0.31564927 0
-0.29351568 0.38197541 -0.33800173 0
-0.12894082 0.37770629 -0.36977673 0
-0.00037765503 0.37108779 -0.38963568 0
0.086350679 0.42750168 -0.39535725 0
0.21839547 0.39953852 -0.42525232 0
0.310004 0.34620333 -0.43805003 0
0.38379598 0.41637254 -0.4402107 0
-0.16020799 0.45598412 -0.36404967 0
0.80281568 -0.47804046 -0.25996792 0
0.89428687 -0.44126725 -0.25168622 0
0.85012102 -0.39061379 -0.31150448 0
0.92434788 -0.40562344 -0.24677646 0
0.9435606 -0.14733672 -0.3855269 0
0.82801366 -0.073701859 -0.3725518 0
0.79773259 0.013332844 -0.3858279 0
0.61009574 0.11313128 -0.39717495 0
0.72489381 0.12450337 -0.39083612 0
0.76860023 0.073206902 -0.39128029 0
0.91653347 0.13579845 -0.40143526 0
0.56871581 0.21108723 -0.4087373 0
0.7194674 0.19540405 -0.40584314 0
0.87472272 0.20988321 -0.40947592 0
0.54822493 0.3244071 -0.43014777 0
0.6789124 0.30259371 -0.42064989 0
0.79234219 0.3012886 -0.40920758 0
0.88513756 0.34537816 -0.40157306 0
-0.89789104 0.41598403 -0.23346198 0
-0.83380055 0.37765861 -0.24327171 0
-0.75392318 0.4121542 -0.25298011 0
-0.61190915 0.39520955 -0.2694968 0
-0.41734362 0.41598487 -0.30933762 0
0.4661541 0.44688487 -0.43742216 0
0.57692194 0.41161966 -0.43287373 0
0.75607324 0.4266324 -0.43087339 0
0.83988476 0.41424203 -0.40711558 0
-0.9168613 0.48601496 -0.24384785 0
-0.82868719 0.45291793 -0.24106348 0
-0.71689844 0.48596787 -0.25907028 0
-0.53517532 0.45186472 -0.28328788 0
-0.2972815 0.49123979 -0.33332765 0
-0.019676447 0.47486663 -0.37739694 0
0.28782105 0.45384192 -0.42321062 0
0.48250413 0.49862337 -0.43514693 0
0.65279245 0.49483252 -0.42042196 0
0.94374752 -0.47627926 -0.17981601 0
0.95948005 0.44213438 -0.40563846 0
-0.64866734 -0.43292642 -0.31106782 0
-0.56342983 -0.45805788 -0.33102238 0
-0.47107601 -0.43040025 -0.33026135 0
-0.37597561 -0.47198677 -0.33743525 0
-0.30289578 -0.42805123 -0.34544265 0
-0.19622612 -0.4486289 -0.35999942 0
-0.085578442 -0.43830156 -0.36449122 0
0.051316977 -0.42950296 -0.36576581 0
-0.33607888 -0.37393141 -0.34843373 0
0.15786982 -0.48620057 -0.34987986 0
0.23650169 -0.47185731 -0.34643388 0
0.62973356 -0.49057722 -0.33923149 0
0.70469785 -0.4954648 -0.32114732 0
-0.58335304 -0.41858673 -0.31132138 0
0.12881899 -0.40626431 -0.36252832 0
0.21268845 -0.38702583 -0.34503937 0
0.32961702 -0.41704893 -0.35091531 0
0.38322759 -0.35792613 -0.34611356 0
0.50941038 -0.39147019 -0.35266495 0
0.70353842 -0.43238425 -0.33963585 0
-0.81879354 -0.29736209 -0.27902734 0
-0.67442107 -0.35570264 -0.31696475 0
-0.59424877 -0.34316099 -0.3236537 0
-0.47468185 -0.32723904 -0.34124255 0
-0.37527943 -0.32170868 -0.34942162 0
-0.26550341 -0.34145927 -0.35429251 0
-0.14819694 -0.34096932 -0.36155045 0
-0.042238712 -0.28845859 -0.37778282 0
0.01395154 -0.34506297 -0.3786478 0
0.12248421 -0.31789398 -0.37139618 0
0.26073027 -0.28538013 -0.36901736 0
0.37973309 -0.27730274 -0.36779642 0
0.51765919 -0.2911706 -0.34852302 0
0.72505283 -0.3388772 -0.37210643 0
-0.93512654 -0.2425456 -0.24978292 0
-0.81913471 -0.20964766 -0.274279 0
-0.69014406 -0.2686125 -0.30540276 0
-0.57836461 -0.23602653 -0.32811356 0
-0.49636936 -0.20371819 -0.34044349 0
-0.40594006 -0.22002172 -0.35311449 0
-0.29797244 -0.2388196 -0.36959863 0
-0.21708989 -0.24815702 -0.36511362 0
-0.10346437 -0.229877 -0.37569714 0
0.034393787 -0.24650002 -0.38207877 0
0.12157059 -0.21881413 -0.38541162 0
0.24073315 -0.21499681 -0.38397098 0
0.31546402 -0.20000768 -0.37388408 0
0.42053366 -0.19950008 -0.36698222 0
-0.70077038 -0.16525292 -0.30203784 0
-0.60735464 -0.14748025 -0.31684911 0
-0.45564294 -0.13834882 -0.34658146 0
-0.37103128 -0.10269666 -0.35551584 0
-0.28341341 -0.13144541 -0.37370741 0
-0.18132758 -0.13805175 -0.37682462 0
-0.01206851 -0.1364429 -0.39819217 0
0.082362413 -0.13100171 -0.40020216 0
0.18907499 -0.13687587 -0.39346778 0
0.29767799 -0.10032558 -0.39852881 0
0.41891909 -0.091191292 -0.3984791 0
-0.55571294 -0.073615789 -0.32918489 0
-0.43607712 -0.03152895 -0.35329247 0
-0.26081514 -0.022931337 -0.36992967 0
-0.11724782 -0.041966677 -0.39274168 0
-0.0052039623 -0.041138172 -0.40028107 0
0.21512437 -0.0002117157 -0.42371058 0
0.28459811 -0.020840406 -0.41877592 0
-0.090360403 0.025313854 -0.39384127 0
0.10641623 0.034925699 -0.42052853 0
0.7617991 -0.49627113 -0.2729007 0
0.85633969 -0.45200729 -0.26114058 0
0.9092021 -0.44611382 -0.22437668 0
0.74691629 -0.39550018 -0.31969821 0
0.9014678 -0.37359309 -0.30255997 0
0.76867962 -0.30025506 -0.35385263 0
0.98165321 -0.24400783 -0.38330436 0
0.52373362 -0.2163837 -0.35562766 0
0.62902761 -0.18131924 -0.35370982 0
0.85720181 -0.16781545 -0.3751781 0
-0.99060488 -0.12234282 -0.23470032 0
-0.8751142 -0.14543796 -0.25916874 0
-0.71938086 -0.091521978 -0.29248476 0
0.48982501 -0.11100578 -0.37857807 0
0.61917877 -0.066156864 -0.38598764 0
0.73988867 -0.064812183 -0.37688923 0
-0.99191475 -0.011344194 -0.23022437 0
-0.8448627 -0.036933184 -0.26312017 0
-0.6806674 -0.019922733 -0.30139494 0
-0.57940936 0.014829397 -0.31958461 0
-0.38348484 0.010843515 -0.35583448 0
0.33891058 0.027662754 -0.41439199 0
0.39560843 -0.002566576 -0.39855027 0
0.53535795 0.048406601 -0.40069652 0
0.61050034 0.017917871 -0.39042652 0
0.72713923 0.022927523 -0.38110459 0
0.99622941 -0.0050444603 -0.41749692 0
-0.97501802 0.066772938 -0.2359091 0
-0.87196112 0.065804243 -0.24898553 0
-0.75248623 0.063922644 -0.27612615 0
-0.67033458 0.11422253 -0.29242671 0
-0.48000884 0.076199055 -0.34207237 0
-0.36591268 0.11923504 -0.36425507 0
-0.25550175 0.080622196 -0.3849504 0
-0.1770792 0.087196112 -0.38598418 0
0.0059347153 0.094504118 -0.40916812 0
0.21053028 0.11206269 -0.42329109 0
0.29683185 0.093370914 -0.42333865 0
0.38766766 0.11162138 -0.42079663 0
0.50396299 0.11561847 -0.41389179 0
0.62448764 0.12035036 -0.40659213 0
0.75824523 0.14123368 -0.40603638 0
0.91553473 0.15621662 -0.41139913 0
-0.57401824 0.14601326 -0.3084265 0
-0.36739874 0.20138288 -0.3614223 0
-0.1918149 0.17954111 -0.39218962 0
-0.069180489 0.16495323 -0.39371896 0
0.072922945 0.13663101 -0.40921533 0
0.15786052 0.20893192 -0.42201018 0
0.28675246 0.14850593 -0.40717041 0
0.36648822 0.22132134 -0.41309631 0
0.4969213 0.22364736 -0.4268831 0
0.57768369 0.19137931 -0.417593 0
0.67247295 0.22877049 -0.4136225 0
-0.56534791 0.23698878 -0.31210804 0
-0.3197062 0.24704361 -0.3609786 0
-0.25217414 0.29715228 -0.36631715 0
-0.11492014 0.25982094 -0.39314795 0
-0.03934598 0.32260275 -0.40256679 0
0.055080175 0.2607162 -0.41011643 0
0.22393274 0.30324244 -0.43782175 0
0.31701255 0.24712038 -0.4444927 0
0.37580895 0.30701828 -0.44192076 0
0.47328949 0.32697749 -0.43536508 0
0.61369848 0.32947779 -0.43195248 0
0.062521935 0.34345698 -0.40836716 0
0.30826783 0.3685441 -0.44481301 0
0.39644408 0.41336608 -0.44469392 0
