# .PCD v0.7 - Point Cloud Data file format
VERSION 0.7
FIELDS x y z intensity
SIZE 4 4 4 4
TYPE F F F F
COUNT 1 1 1 1
WIDTH 1276
HEIGHT 1
VIEWPOINT 0 0 0 1 0 0 0
POINTS 1276
DATA ascii
-0.12236142 -0.44877362 -0.3825717 0
-0.92469585 -0.32030296 -0.32269263 0
-0.85207617 -0.33141947 -0.31758195 0
-0.69946265 -0.32420552 -0.31478691 0
-0.61827111 -0.32931781 -0.32475334 0
-0.52368546 -0.31495017 -0.33641833 0
-0.42097783 -0.31997567 -0.34800345 0
-0.32637179 -0.30949336 -0.35826623 0
-0.24872565 -0.33830571 -0.36840725 0
-0.92251503 -0.23477197 -0.31301105 0
-0.82167566 -0.24739802 -0.31659645 0
-0.72198761 -0.22770393 -0.31573462 0
-0.62375009 -0.22351474 -0.32343733 0
-0.53130281 -0.22396147 -0.33285427 0
-0.420735 -0.21315098 -0.34399974 0
-0.32227218 -0.22127104 -0.35433263 0
-0.94085371 -0.13202471 -0.30242825 0
-0.83386934 -0.12474698 -0.31340241 0
-0.73269737 -0.13434309 -0.32218045 0
-0.61886787 -0.11826605 -0.33164978 0
-0.51834786 -0.12855619 -0.33365643 0
-0.42599046 -0.13596219 -0.33991861 0
-0.36853957 -0.137155 -0.34461623 0
-0.92506957 -0.030592918 -0.31398547 0
-0.81994498 -0.042288959 -0.32293528 0
-0.72130489 -0.037303984 -0.33291227 0
-0.65962076 -0.070063472 -0.33558983 0
-0.94440293 0.056035697 -0.31980717 0
-0.9319334 -0.41550064 -0.31532931 0
-0.81646013 -0.4387539 -0.3074227 0
-0.72146928 -0.44227564 -0.31092286 0
-0.63153005 -0.46118402 -0.32146436 0
-0.80950284 -0.36624819 -0.30912155 0
-0.45565605 0.41515577 -0.34325194 0
-0.431638 0.44070673 -0.33051103 0
-0.12486315 -0.19081485 -0.37600076 0
-0.24336195 -0.095411181 -0.35711491 0
-0.20164907 -0.10369533 -0.36301321 0
-0.48525083 -0.014541686 -0.35010523 0
-0.36033952 -0.032194555 -0.35192817 0
-0.26738727 -0.03852886 -0.35549617 0
-0.78413975 0.091208458 -0.34210533 0
-0.68504655 0.072781503 -0.34979546 0
-0.57554209 0.080473125 -0.35924786 0
-0.46611142 0.063513935 -0.36020315 0
-0.35198629 0.060555458 -0.36426097 0
-0.28324318 0.037114263 -0.36343294 0
-0.85196042 0.16516328 -0.33192843 0
-0.7640121 0.16936553 -0.34631854 0
-0.67919552 0.17200089 -0.35845983 0
-0.56955969 0.15765864 -0.36769611 0
-0.48137283 0.1691801 -0.37183744 0
-0.40372598 0.17804855 -0.37543136 0
-0.99016917 0.2802847 -0.30271932 0
-0.8640027 0.27310461 -0.32427102 0
-0.77410209 0.25585097 -0.33975595 0
-0.67016041 0.27032185 -0.35432428 0
-0.57147157 0.26368058 -0.36740798 0
-0.46916628 0.28471941 -0.368384 0
-0.96889329 0.36082327 -0.30105761 0
-0.88448918 0.37314415 -0.30719924 0
-0.77929199 0.3610096 -0.32182282 0
-0.67248952 0.36672801 -0.33031386 0
-0.58055758 0.36462605 -0.33868217 0
-0.48288643 0.35847813 -0.34633255 0
-0.90561968 0.47014725 -0.28742838 0
-0.77919829 0.46076202 -0.29725099 0
-0.67064953 0.47190511 -0.30318451 0
-0.57242835 0.45766717 -0.31730425 0
-0.48031104 0.47376758 -0.3159318 0
-0.44475913 -0.4159711 -0.34738016 0
-0.36805892 -0.43564069 -0.35648674 0
-0.27825522 -0.43871009 -0.36566693 0
-0.17323971 -0.44721174 -0.37863284 0
-0.078100801 -0.43119109 -0.39539164 0
0.0013059378 -0.44587684 -0.40805721 0
-0.56150866 -0.32477516 -0.33360249 0
-0.47487712 -0.35083997 -0.34371859 0
-0.38136017 -0.35330379 -0.3546226 0
-0.28064454 -0.34978151 -0.36554331 0
-0.17683196 -0.33388972 -0.37659472 0
-0.098456144 -0.33913571 -0.38940823 0
-0.75917447 -0.2103622 -0.31448638 0
-0.66814756 -0.21983755 -0.32040119 0
-0.57479525 -0.23903376 -0.32934827 0
-0.47473216 -0.25165319 -0.34108174 0
-0.36251652 -0.24594307 -0.35217446 0
-0.26670468 -0.24240798 -0.36210227 0
-0.18305933 -0.24159807 -0.37113136 0
-0.09995389 -0.24498367 -0.38326949 0
-0.96326172 -0.12918252 -0.30296361 0
-0.8659482 -0.15736884 -0.30950886 0
-0.77373016 -0.14682907 -0.31945282 0
-0.67785692 -0.15762782 -0.32684451 0
-0.57475412 -0.14119202 -0.33268088 0
-0.45890296 -0.14392275 -0.33889693 0
-0.36899567 -0.1291945 -0.34585059 0
-0.27105939 -0.14248592 -0.35706818 0
-0.18901324 -0.16454053 -0.36652702 0
-0.97901511 -0.054214895 -0.30890733 0
-0.88141692 -0.048944235 -0.31881446 0
-0.76292777 -0.041537046 -0.33093286 0
-0.66866088 -0.041554034 -0.33971381 0
-0.56653035 -0.03603977 -0.34531111 0
-0.49003088 -0.067978084 -0.34306413 0
-0.37503982 -0.069801807 -0.34695482 0
-0.30327189 -0.075444221 -0.35098797 0
-0.97195232 0.047650278 -0.31661761 0
-0.8797493 0.071095884 -0.32948494 0
-0.78583622 0.027209222 -0.33557642 0
-0.68965209 0.016094089 -0.34371489 0
-0.96119547 0.15923375 -0.31401521 0
-0.87960231 0.11216366 -0.32995909 0
-0.99933803 0.23820668 -0.30341905 0
-0.87852359 -0.46257979 -0.31162292 0
-0.76893425 -0.48046422 -0.30699098 0
-0.67253768 -0.47677851 -0.31808954 0
-0.59083748 -0.45855188 -0.3283298 0
-0.46746767 -0.45975822 -0.34379822 0
-0.36921966 -0.49283749 -0.35353899 0
-0.26594162 -0.49743855 -0.3552525 0
-0.97866476 -0.35263246 -0.32283962 0
-0.86854601 -0.36251056 -0.31699306 0
-0.76306343 -0.3850975 -0.31052613 0
-0.66864729 -0.35614753 -0.31969404 0
-0.56858993 -0.37884241 -0.33210713 0
-0.97878015 -0.27211827 -0.31426597 0
-0.86597884 -0.23289537 -0.31321371 0
-0.78629839 -0.26302898 -0.3183642 0
-0.69346035 -0.28208727 -0.31752264 0
-0.96300495 -0.187868 -0.30377108 0
-0.28972554 0.31154025 -0.37218332 0
-0.23555851 0.30359983 -0.37963706 0
-0.3863771 0.3748467 -0.35714823 0
-0.32464242 0.38066053 -0.35587001 0
-0.31033778 0.4709506 -0.33440298 0
0.030020952 -0.29239273 -0.40980506 0
-0.072438359 -0.20582181 -0.38676435 0
-0.018252134 -0.23485523 -0.39787984 0
-0.099428296 -0.1195541 -0.3780582 0
-0.038158655 -0.14407551 -0.38865274 0
-0.50037122 0.0059210062 -0.35669237 0
-0.38825738 0.00062483549 -0.35862005 0
-0.30376208 -0.023271918 -0.3594287 0
-0.20763361 -0.039631486 -0.36356229 0
-0.11520123 -0.03617239 -0.37216425 0
-0.67940199 0.056848645 -0.35191566 0
-0.60394466 0.07707423 -0.36043561 0
-0.49136961 0.0750314 -0.36494511 0
-0.39859557 0.061151922 -0.36651927 0
-0.31123471 0.081451893 -0.37110567 0
-0.20618868 0.062129259 -0.37260479 0
-0.1299125 0.02625066 -0.37066311 0
-0.86118948 0.18195635 -0.33203453 0
-0.80911946 0.16368407 -0.34141409 0
-0.69717872 0.15175331 -0.35821623 0
-0.6080091 0.18580759 -0.3707062 0
-0.51420736 0.17114776 -0.37507796 0
-0.40280461 0.17398065 -0.37916982 0
-0.2995739 0.18682075 -0.37661207 0
-0.21382761 0.15511125 -0.37939054 0
-0.9010756 0.26680458 -0.3206355 0
-0.79804456 0.25128776 -0.33865201 0
-0.69789779 0.26824665 -0.35298467 0
-0.60213351 0.2685703 -0.3657369 0
-0.50273454 0.28337342 -0.3688578 0
-0.40142906 0.28505999 -0.3707583 0
-0.30475855 0.27654248 -0.37184632 0
-0.92206502 0.35999507 -0.30973592 0
-0.79327142 0.3626104 -0.32528025 0
-0.71007192 0.36480224 -0.33083594 0
-0.61125147 0.37029207 -0.34004432 0
-0.50831807 0.36768287 -0.3480249 0
-0.42500389 0.39246988 -0.34659261 0
-0.92096496 0.43841815 -0.29332232 0
-0.79151714 0.45368481 -0.30084938 0
-0.70377457 0.44917202 -0.30674917 0
-0.61631656 0.46109319 -0.31280792 0
-0.50606918 0.46487486 -0.32217354 0
-0.42695844 0.47198355 -0.32528931 0
-0.32967567 0.49921376 -0.31716871 0
-0.41084731 -0.40545815 -0.35442603 0
-0.29041338 -0.43373948 -0.36826313 0
-0.19522941 -0.43834358 -0.37719697 0
-0.10349357 -0.4432807 -0.39311075 0
-0.0042761564 -0.43564892 -0.40892035 0
0.077396989 -0.43504429 -0.4209621 0
-0.49517369 -0.32307541 -0.34483635 0
-0.39335608 -0.35650051 -0.35627538 0
-0.29648495 -0.33750266 -0.36582255 0
-0.18981814 -0.33456141 -0.3779152 0
-0.10370457 -0.3241868 -0.39014083 0
-0.021021724 -0.3409164 -0.40373498 0
-0.60156679 -0.24093795 -0.33026141 0
-0.51434231 -0.25600272 -0.3393048 0
-0.41517437 -0.24220151 -0.34952074 0
-0.30046916 -0.24336207 -0.36188376 0
-0.20677614 -0.2337392 -0.37095237 0
-0.11614084 -0.22626644 -0.38157278 0
-0.043597102 -0.25764006 -0.39537066 0
-0.88379812 -0.13124794 -0.31357026 0
-0.80238473 -0.14371258 -0.32015073 0
-0.70537388 -0.1556595 -0.32829815 0
-0.61047149 -0.13639724 -0.33611172 0
-0.49659312 -0.14790326 -0.33978105 0
-0.39536774 -0.14075702 -0.34728998 0
-0.32285678 -0.15333062 -0.35456789 0
-0.21099401 -0.14011079 -0.36624515 0
-0.13159096 -0.15648615 -0.37357253 0
-0.92209709 -0.053738773 -0.31759435 0
-0.79517782 -0.035783231 -0.33157563 0
-0.70895171 -0.055476487 -0.33790892 0
-0.59075749 -0.040215433 -0.34848464 0
-0.49575341 -0.048742175 -0.35030514 0
-0.40122116 -0.044534266 -0.35400587 0
-0.31298506 -0.076293409 -0.35299313 0
-0.91979742 0.037312686 -0.32638729 0
-0.80623519 0.067924201 -0.34081799 0
-0.72084749 0.044136822 -0.3466658 0
-0.58749342 0.012764335 -0.35437191 0
-0.89871109 0.14718622 -0.32770187 0
-0.99483824 0.2502802 -0.30602863 0
-0.88577712 -0.44850624 -0.31877458 0
-0.80782211 -0.47947812 -0.30892009 0
-0.70062923 -0.47377968 -0.31745237 0
-0.59353161 -0.45758152 -0.3308717 0
-0.50337219 -0.46512622 -0.34248632 0
-0.4117161 -0.45582479 -0.35389858 0
-0.30688632 -0.4927724 -0.35971808 0
-0.90267539 -0.36439568 -0.32407457 0
-0.7926333 -0.37024993 -0.31658089 0
-0.70591331 -0.36046523 -0.31761444 0
-0.59534597 -0.36648029 -0.3319602 0
-0.52035093 -0.37944216 -0.34078687 0
-0.9114362 -0.26976758 -0.31803495 0
-0.78623521 -0.25037473 -0.31811106 0
-0.71088135 -0.23508763 -0.32063085 0
-0.62875903 -0.29011762 -0.32846469 0
-0.97321439 -0.14522743 -0.30557489 0
-0.93872845 -0.17867893 -0.31186235 0
-0.79477692 -0.18683356 -0.31660992 0
-0.20821059 0.40420663 -0.36318874 0
-0.13945365 0.37665445 -0.35645789 0
-0.14256263 0.49106836 -0.33579469 0
0.16610968 -0.37737715 -0.42870414 0
0.23898292 -0.43592012 -0.44156688 0
0.070266485 -0.3006891 -0.41229898 0
0.1368022 -0.30893052 -0.4224236 0
-0.020386934 -0.19607776 -0.39151579 0
0.057374477 -0.20709932 -0.40513849 0
-0.10985148 -0.08140105 -0.3683973 0
-0.054733872 -0.12004167 -0.38081014 0
0.025534272 -0.11829734 -0.39374894 0
-0.22392213 -0.016224146 -0.35640955 0
-0.1406765 -0.020392835 -0.36416769 0
-0.054344535 -0.019854605 -0.3743723 0
0.01011014 -0.030078948 -0.38559306 0
-0.62407875 0.088654578 -0.35526395 0
-0.56689537 0.10121942 -0.35958648 0
-0.43278766 0.049353302 -0.35820127 0
-0.3488735 0.086109519 -0.36569947 0
-0.24093497 0.082766056 -0.36861992 0
-0.14667177 0.078953803 -0.36983466 0
-0.043470144 0.08209455 -0.37020522 0
0.013307214 0.048821628 -0.3808369 0
-0.74114215 0.18920684 -0.34817982 0
-0.65205097 0.1728887 -0.35979348 0
-0.55310142 0.1883533 -0.37033552 0
-0.44655466 0.16339087 -0.37114662 0
-0.38222468 0.16160029 -0.36969972 0
-0.26173079 0.19005144 -0.36969846 0
-0.14710879 0.19482869 -0.36927015 0
-0.068821669 0.18231165 -0.36701185 0
-0.84949982 0.2730701 -0.32569313 0
-0.7639792 0.26741707 -0.34021378 0
-0.65528262 0.2676205 -0.35667259 0
-0.54559827 0.28841287 -0.36582601 0
-0.44711113 0.29641044 -0.3669368 0
-0.35861254 0.2919808 -0.36743921 0
-0.25600195 0.2896682 -0.3673085 0
-0.17205715 0.28287816 -0.36041802 0
-0.093134046 0.23954499 -0.3624469 0
-0.94932634 0.38458651 -0.3032856 0
-0.86032295 0.35735649 -0.3147434 0
-0.7665391 0.37244606 -0.3246333 0
-0.66357279 0.36865491 -0.33310968 0
-0.56304801 0.3676632 -0.33938485 0
-0.48048007 0.36398566 -0.3509227 0
-0.3512522 0.38781017 -0.35010922 0
-0.25215912 0.39285201 -0.34967983 0
-0.18292904 0.36253488 -0.35665566 0
-0.94655359 0.46931732 -0.28516474 0
-0.86343002 0.46055794 -0.28845814 0
-0.74850571 0.46232915 -0.29943126 0
-0.65313363 0.47415298 -0.3040092 0
-0.55650306 0.45577258 -0.31596768 0
-0.45918977 0.47727811 -0.32049894 0
-0.36091304 0.49163741 -0.32345563 0
-0.24825108 0.468077 -0.33176255 0
-0.12316573 -0.49972844 -0.37634087 0
-0.25572836 -0.4194783 -0.36845672 0
-0.14365947 -0.43980533 -0.38310295 0
-0.051547289 -0.42678165 -0.398588 0
0.050386786 -0.41782117 -0.41296357 0
0.14990687 -0.42703295 -0.42759597 0
0.21812093 -0.45653415 -0.43810332 0
-0.4402864 -0.31859171 -0.3472445 0
-0.35445929 -0.34361124 -0.35563791 0
-0.25943911 -0.33268529 -0.36601502 0
-0.14828897 -0.33169597 -0.38022327 0
-0.052344561 -0.33029532 -0.3952207 0
0.045035243 -0.32994294 -0.40966165 0
-0.54250813 -0.21509618 -0.33133912 0
-0.4779731 -0.24890822 -0.34010315 0
-0.35761714 -0.23827839 -0.35226107 0
-0.2522037 -0.2234748 -0.36224699 0
-0.16572583 -0.23067099 -0.37194026 0
-0.060874462 -0.22619236 -0.38727939 0
0.0086385012 -0.24809909 -0.39954019 0
-0.73690081 -0.12520784 -0.32316458 0
-0.65226436 -0.14325845 -0.32849127 0
-0.55582035 -0.15118665 -0.33076048 0
-0.45088685 -0.14379245 -0.3389309 0
-0.34887457 -0.13658947 -0.34812737 0
-0.25822806 -0.13076401 -0.35695565 0
-0.15442002 -0.12220621 -0.36743361 0
-0.075920939 -0.16126388 -0.37935817 0
-0.96467423 -0.053570807 -0.30834955 0
-0.8531971 -0.027315319 -0.3216911 0
-0.77361441 -0.053524017 -0.32675028 0
-0.67056715 -0.034812152 -0.33811873 0
-0.54594862 -0.03240782 -0.34545654 0
-0.4670403 -0.021843433 -0.34853166 0
-0.35617971 -0.035791814 -0.35123426 0
-0.27430105 -0.052315772 -0.35208762 0
-0.95884228 0.037605762 -0.31720573 0
-0.84558702 0.071537495 -0.33225071 0
-0.75011778 0.073573649 -0.3416428 0
-0.65386927 0.040777147 -0.34765112 0
-0.57811451 0.042833388 -0.35190403 0
-0.49385893 0.032347858 -0.35448301 0
-0.96218956 0.15145153 -0.31337056 0
-0.85682201 0.15291107 -0.33077759 0
-0.96756589 0.26236928 -0.30661458 0
-0.86580777 0.21477562 -0.32628131 0
-0.86133289 -0.4538343 -0.31027657 0
-0.73834324 -0.45779401 -0.30893672 0
-0.65342021 -0.45055473 -0.31959188 0
-0.55477345 -0.45007932 -0.33174509 0
-0.4587642 -0.43959409 -0.34390217 0
-0.36067224 -0.45448023 -0.35510439 0
-0.23776352 -0.47702873 -0.35968053 0
-0.93891048 -0.34361064 -0.32108134 0
-0.84043813 -0.38974965 -0.31465238 0
-0.75112259 -0.3552624 -0.31068885 0
-0.64824784 -0.36039513 -0.32103676 0
-0.54596031 -0.34390146 -0.33413547 0
-0.43801618 -0.35763752 -0.34742635 0
-0.94229078 -0.25649786 -0.31381798 0
-0.83244812 -0.23220026 -0.31559944 0
-0.75334668 -0.25489289 -0.31401551 0
-0.64816916 -0.24496895 -0.32154745 0
-0.55652046 -0.27601337 -0.33279765 0
-0.94705629 -0.15867108 -0.30606288 0
-0.83987248 -0.14143109 -0.31262487 0
-0.75786602 -0.17031431 -0.31666464 0
-0.96658146 -0.08890903 -0.30465007 0
-0.90060484 -0.09683454 -0.31022084 0
-0.98005581 -0.49489874 -0.31465274 0
-0.094032288 0.28892821 -0.36606276 0
-0.026603818 0.30437529 -0.36017787 0
-0.2714709 0.36571002 -0.35738105 0
-0.20447314 0.3675043 -0.35569376 0
-0.089357495 0.36731243 -0.35786134 0
-0.041565299 0.35528135 -0.35352802 0
-0.29009533 0.44362521 -0.33877301 0
-0.19040048 0.48052037 -0.33176643 0
-0.094926357 0.49368733 -0.3382135 0
-0.036296606 0.46940643 -0.34582609 0
0.15023935 -0.38635504 -0.42786157 0
0.225016 -0.40462065 -0.43888003 0
0.2778039 -0.44185328 -0.44759166 0
0.10461104 -0.31929481 -0.41916054 0
0.18715048 -0.30978584 -0.43088979 0
0.25610185 -0.33266211 -0.44183934 0
-0.05434525 -0.19279784 -0.38692397 0
0.015230656 -0.2191608 -0.39980942 0
0.10924792 -0.21896839 -0.41506231 0
0.18319404 -0.21430802 -0.42689991 0
-0.097139597 -0.11434281 -0.37529832 0
0.0034996271 -0.12718993 -0.39149272 0
0.092135906 -0.11853313 -0.40536749 0
-0.30240071 -0.012024581 -0.3573643 0
-0.18529093 -0.02631104 -0.36270595 0
-0.099591494 -0.016156614 -0.36957574 0
0.00083804131 -0.024782062 -0.38449365 0
0.070827484 -0.027005374 -0.39559621 0
-0.6823523 0.10512829 -0.35333973 0
-0.59171271 0.0687536 -0.35712081 0
-0.48914003 0.063395858 -0.3598597 0
-0.40523338 0.058195531 -0.36205667 0
-0.29319596 0.064876795 -0.36622226 0
-0.20934296 0.045795977 -0.36618495 0
-0.10361016 0.074866533 -0.37056535 0
-0.0060328245 0.068502307 -0.37314796 0
0.079474092 0.079889238 -0.38127387 0
-0.79105616 0.18546551 -0.34101015 0
-0.70733738 0.16016841 -0.35444784 0
-0.59384978 0.16749364 -0.36776453 0
-0.51902044 0.17191184 -0.37008762 0
-0.40847373 0.1686362 -0.37455446 0
-0.30754709 0.1613735 -0.3724122 0
-0.20031571 0.17593169 -0.37122399 0
-0.11564279 0.1834017 -0.36611366 0
-0.005117178 0.16779739 -0.36451787 0
0.057711482 0.18904746 -0.36697865 0
-0.87159777 0.24510878 -0.32452852 0
-0.80031025 0.28923017 -0.33409184 0
-0.69443285 0.26946843 -0.35009128 0
-0.60695994 0.26593888 -0.36532199 0
-0.49681091 0.27204877 -0.37096733 0
-0.37219954 0.28176528 -0.37005472 0
-0.30871105 0.25239164 -0.36897415 0
-0.21204352 0.27226949 -0.36522865 0
-0.12165415 0.27159256 -0.36182648 0
0.00085175037 0.26420271 -0.36148411 0
-0.98735178 0.35223353 -0.29955322 0
-0.90056169 0.37096345 -0.30843067 0
-0.81271768 0.34814125 -0.32572877 0
-0.71273685 0.36531973 -0.32829487 0
-0.58226562 0.35216618 -0.34299928 0
-0.50614023 0.36056066 -0.34603834 0
-0.4274205 0.36863589 -0.3482585 0
-0.31032073 0.37904453 -0.34927911 0
-0.21042299 0.36045933 -0.35213631 0
-0.92819482 0.47548121 -0.28104505 0
-0.79886949 0.45686531 -0.29566875 0
-0.69929314 0.45750672 -0.30478096 0
-0.59696805 0.45686853 -0.31569129 0
-0.50036418 0.47043365 -0.3184514 0
-0.40089035 0.46929032 -0.32503885 0
-0.30023634 0.48233324 -0.32432282 0
-0.35998392 -0.41532636 -0.35792905 0
-0.28894269 -0.42513454 -0.36595583 0
-0.1949476 -0.44723523 -0.37482381 0
-0.093729019 -0.43937099 -0.39268512 0
-0.0032567978 -0.42864454 -0.40673816 0
0.10009933 -0.43278909 -0.42175311 0
0.18226933 -0.44625449 -0.43379825 0
-0.45349836 -0.35860825 -0.34689236 0
-0.38675845 -0.3223877 -0.3547613 0
-0.2992878 -0.33256513 -0.36335468 0
-0.19153059 -0.3373999 -0.37552118 0
-0.099757552 -0.3402788 -0.38944936 0
0.00055193901 -0.32645118 -0.40387976 0
-0.59319282 -0.23072326 -0.32825553 0
-0.50567675 -0.25541937 -0.33785105 0
-0.4105835 -0.25532526 -0.34716129 0
-0.30404186 -0.23138261 -0.35760903 0
-0.20804214 -0.24378365 -0.36810178 0
-0.097763538 -0.23892498 -0.38290185 0
-0.029386401 -0.26011628 -0.39577568 0
-0.8848902 -0.11876106 -0.31152147 0
-0.80082273 -0.12587023 -0.31891745 0
-0.72292078 -0.16820359 -0.32222176 0
-0.60017848 -0.14717418 -0.33223271 0
-0.50142145 -0.14693791 -0.33488119 0
-0.39257908 -0.18165714 -0.34697628 0
-0.29953527 -0.13133705 -0.35472327 0
-0.19981945 -0.13621837 -0.36400443 0
-0.1098702 -0.16263461 -0.37606704 0
-0.93452132 -0.04445976 -0.31412625 0
-0.79955339 -0.022128344 -0.32936335 0
-0.71318102 -0.069241583 -0.33300394 0
-0.59773743 -0.051429689 -0.3432126 0
-0.5283879 -0.039975762 -0.34638488 0
-0.41265678 -0.049299181 -0.34870571 0
-0.30684662 -0.078329146 -0.35041815 0
-0.22753501 -0.064603806 -0.35716403 0
-0.90105569 0.057737827 -0.32711697 0
-0.81272924 0.048155904 -0.33508879 0
-0.69279683 0.045269489 -0.34636801 0
-0.56738102 0.024313211 -0.35317379 0
-0.91074157 0.14074606 -0.32354093 0
-0.83211935 0.14496791 -0.33636153 0
-0.99211454 0.24985987 -0.30410334 0
-0.92684233 0.22695839 -0.31631911 0
-0.94041109 -0.43932974 -0.31693071 0
-0.78894901 -0.4393239 -0.3082372 0
-0.71709442 -0.4771117 -0.31265885 0
-0.61060572 -0.44789541 -0.32625705 0
-0.5087043 -0.46011031 -0.33875924 0
-0.40605402 -0.45673561 -0.3515113 0
-0.34216654 -0.47328544 -0.35692161 0
-0.87050843 -0.3726632 -0.32027376 0
-0.81646109 -0.3397935 -0.31444156 0
-0.70138896 -0.36009461 -0.31567574 0
-0.61039495 -0.36994547 -0.32699186 0
-0.54027438 -0.37327993 -0.33571732 0
-0.44332778 -0.38479978 -0.34738874 0
-0.89438879 -0.26403451 -0.31861925 0
-0.81027341 -0.26008546 -0.31555128 0
-0.69979119 -0.25508934 -0.31750774 0
-0.64135504 -0.30904132 -0.3237378 0
-0.98626757 -0.14057058 -0.3019917 0
-0.92262375 -0.1780628 -0.30859077 0
-0.81490326 -0.1798926 -0.31348062 0
0.17836392 0.03678894 -0.4033283 0
-0.00094115734 0.22092026 -0.36084837 0
0.074181199 0.21322054 -0.36407334 0
0.11924553 0.19346881 -0.36509275 0
-0.54130363 0.30339694 -0.36418289 0
-0.43026173 0.29073584 -0.37020212 0
-0.343328 0.28654504 -0.36672878 0
-0.24370658 0.26839674 -0.36535376 0
-0.15512526 0.2810263 -0.36073923 0
-0.049559355 0.26765656 -0.36135095 0
0.051446676 0.28325158 -0.35744393 0
-0.46071374 0.36700249 -0.34588665 0
-0.3385967 0.37957966 -0.34972119 0
-0.23818374 0.38478339 -0.354276 0
-0.14745855 0.37822765 -0.35372722 0
-0.047983766 0.38089752 -0.35377908 0
0.029376745 0.38687229 -0.35014451 0
-0.52113283 0.42960876 -0.33322424 0
-0.44203973 0.4935416 -0.31553042 0
-0.36892676 0.47182858 -0.32778054 0
-0.24798465 0.47787279 -0.33022928 0
-0.16210878 0.4702338 -0.33408654 0
-0.062390685 0.47861254 -0.33730417 0
0.078432202 -0.39106441 -0.41657656 0
0.17481399 -0.41262567 -0.43110597 0
0.25834727 -0.41804636 -0.44322956 0
0.33877635 -0.42323864 -0.45452678 0
-0.026571631 -0.31016779 -0.39795089 0
0.071384788 -0.32018435 -0.41351771 0
0.14755845 -0.31805754 -0.42434585 0
0.25804043 -0.31090665 -0.440247 0
0.31468105 -0.35502601 -0.44948745 0
-0.03486228 -0.23557776 -0.39219582 0
0.067378402 -0.22112203 -0.40761548 0
0.15523303 -0.22070026 -0.42161125 0
0.22338963 -0.21151364 -0.43184465 0
-0.25389409 -0.11589068 -0.35796052 0
-0.14299881 -0.11507756 -0.36823773 0
-0.045639992 -0.13293761 -0.38352031 0
0.067851186 -0.11494064 -0.4005031 0
0.150805 -0.12347519 -0.41431081 0
-0.45707309 -0.010068953 -0.3508082 0
-0.34675848 -0.014320672 -0.35339743 0
-0.24676824 -0.043772459 -0.35571563 0
-0.14285243 -0.0221017 -0.36451703 0
-0.038604021 -0.034138978 -0.3779977 0
0.05045259 -0.016975999 -0.39001912 0
0.14925385 -0.01172483 -0.40686929 0
-0.83526886 0.08875531 -0.33534199 0
-0.71873367 0.062087238 -0.34446543 0
-0.64584875 0.046326816 -0.3499074 0
-0.5498451 0.042712986 -0.3550452 0
-0.4525497 0.048440516 -0.35784668 0
-0.34514499 0.088869095 -0.36656427 0
-0.24975097 0.055973768 -0.36492515 0
-0.15972745 0.08891499 -0.37130928 0
-0.038428187 0.082730234 -0.37065244 0
0.052536845 0.081146359 -0.37710643 0
0.13969302 0.07879585 -0.38575035 0
-0.91763031 0.17180902 -0.32057625 0
-0.83830261 0.16622025 -0.33402085 0
-0.76151979 0.15472001 -0.34650475 0
-0.65286517 0.15755892 -0.35947472 0
-0.54464567 0.16731679 -0.36959535 0
-0.46292984 0.1776312 -0.37324965 0
-0.37820053 0.15285093 -0.3715561 0
-0.25297427 0.18777037 -0.3698467 0
-0.13509548 0.16345936 -0.36803561 0
-0.046662807 0.17245448 -0.36348099 0
0.046777725 0.15889716 -0.36462623 0
0.14951062 0.13388139 -0.37207115 0
-0.95409501 0.25731581 -0.30969068 0
-0.84047711 0.24775606 -0.32899839 0
-0.74953234 0.27750766 -0.34074265 0
-0.65252745 0.27568322 -0.35656917 0
-0.53195632 0.2680518 -0.36826897 0
-0.41636562 0.23040015 -0.36840987 0
-0.17067146 0.25148952 -0.35590345 0
-0.96618092 0.34173912 -0.30239645 0
-0.84621334 0.35105985 -0.31926626 0
-0.74699473 0.37634975 -0.32196701 0
-0.64065802 0.38571447 -0.33075899 0
-0.54662085 0.34925485 -0.34370112 0
-0.92358559 0.47119343 -0.28502053 0
-0.85546267 0.43924856 -0.2941834 0
-0.75782764 0.47320324 -0.29517847 0
-0.66501999 0.45365328 -0.30571806 0
-0.54603946 0.47438532 -0.31195563 0
-0.49491334 0.42703891 -0.32626599 0
-0.41421556 -0.45290905 -0.35012376 0
-0.33059955 -0.43287331 -0.35970849 0
-0.23821008 -0.46143681 -0.36463422 0
-0.15344405 -0.44847554 -0.38246751 0
-0.037428021 -0.42752504 -0.40055132 0
0.057417512 -0.42588389 -0.41472882 0
0.11324513 -0.45369232 -0.42287958 0
-0.52775168 -0.32576919 -0.33671403 0
-0.44245994 -0.36059803 -0.34734869 0
-0.34376204 -0.34402233 -0.35825861 0
-0.25334847 -0.35530514 -0.36824864 0
-0.15063834 -0.33683324 -0.38054657 0
-0.042690516 -0.337147 -0.39736331 0
0.010880589 -0.36433208 -0.4060123 0
-0.81404734 -0.2212376 -0.3071295 0
-0.72960377 -0.24595183 -0.31278545 0
-0.63656485 -0.26968175 -0.32304865 0
-0.53470445 -0.24269247 -0.33367336 0
-0.46831548 -0.24889046 -0.33984011 0
-0.34373927 -0.24421561 -0.35367072 0
-0.24085176 -0.22293609 -0.36334187 0
-0.15507984 -0.23420817 -0.37339401 0
-0.95033932 -0.14680713 -0.30452031 0
-0.83466756 -0.17857975 -0.31159079 0
-0.72313809 -0.13213539 -0.32471997 0
-0.64800251 -0.16315949 -0.32732671 0
-0.53616965 -0.15841663 -0.3332141 0
-0.4477371 -0.1647746 -0.33883858 0
-0.35168242 -0.1211741 -0.3471697 0
-0.25499523 -0.13639265 -0.35754687 0
-0.18544292 -0.16452187 -0.36493152 0
-0.96890557 -0.063857615 -0.30788463 0
-0.84946251 -0.042037487 -0.32154125 0
-0.76611412 -0.079652488 -0.32581317 0
-0.6483593 -0.045832992 -0.33955979 0
-0.54138076 -0.075558126 -0.34008771 0
-0.43502414 -0.071333826 -0.34453857 0
-0.93610287 0.078018546 -0.32216352 0
-0.8625747 0.02928108 -0.32737339 0
-0.72040451 0.0066952705 -0.33879048 0
-0.96403587 -0.46777534 -0.31197119 0
-0.74358201 -0.45993161 -0.30854887 0
-0.66316783 -0.49251568 -0.31829029 0
-0.54959559 -0.45127124 -0.33338171 0
-0.48319781 -0.46912146 -0.34118116 0
-0.39066958 -0.48837262 -0.35257179 0
-0.84113085 -0.38135248 -0.31943512 0
-0.73725832 -0.33279628 -0.31459594 0
-0.64198172 -0.36402214 -0.32244939 0
-0.53416407 -0.40174782 -0.33520842 0
-0.93503284 -0.28901786 -0.3163693 0
-0.84947217 -0.25248361 -0.31137443 0
-0.76564276 -0.28933001 -0.31590641 0
-0.97467482 -0.20936334 -0.30987477 0
0.3289789 -0.18961263 -0.45058846 0
0.24974704 -0.098216653 -0.43229312 0
0.28169298 -0.10968268 -0.43836504 0
0.15578401 0.018524289 -0.40017962 0
0.20011628 -0.018113971 -0.41491067 0
0.12009263 0.094235301 -0.38308668 0
0.21296978 0.098680854 -0.3929882 0
-0.53504515 0.21481436 -0.37902284 0
-0.39829767 0.19897854 -0.37990069 0
-0.31867599 0.1881904 -0.37746185 0
-0.19449461 0.19526511 -0.37334466 0
-0.087814689 0.18256199 -0.36610317 0
0.0065830946 0.18621594 -0.36663198 0
0.11149979 0.17687237 -0.37072718 0
0.20307708 0.19419086 -0.37268668 0
-0.609267 0.27725923 -0.36217546 0
-0.51834524 0.2965501 -0.36929548 0
-0.40621352 0.29080498 -0.37406915 0
-0.31082916 0.26246613 -0.36989915 0
-0.18353057 0.28020144 -0.37012482 0
-0.062216282 0.28839618 -0.36394417 0
0.003044486 0.29610878 -0.36510289 0
0.088375449 0.28511167 -0.36168939 0
0.16210496 0.29432696 -0.36171144 0
-0.66772747 0.38960731 -0.33085275 0
-0.58888912 0.39754963 -0.335482 0
-0.50117815 0.39022833 -0.34149742 0
-0.4295876 0.3677265 -0.35635144 0
-0.31535006 0.37116987 -0.36076695 0
-0.22001553 0.37279803 -0.36169469 0
-0.10689044 0.38412273 -0.36029637 0
0.0039944649 0.39292282 -0.35693085 0
0.1012249 0.39347148 -0.3531971 0
0.16001415 0.3573578 -0.3591696 0
-0.65976632 0.45526797 -0.31411517 0
-0.55924678 0.49368823 -0.31634766 0
-0.50834548 0.48259258 -0.31803066 0
-0.39698732 0.48583329 -0.32549471 0
-0.29329646 0.46873707 -0.33423692 0
-0.20402467 0.46898216 -0.33710992 0
-0.093002081 0.48212183 -0.34380287 0
-0.0026462078 0.48768193 -0.34556621 0
0.082247853 0.48935181 -0.3476471 0
0.11526787 -0.4141978 -0.42573613 0
0.19888902 -0.42144489 -0.4378379 0
0.32339716 -0.40922809 -0.45532525 0
0.40484202 -0.40419984 -0.46499437 0
0.48862302 -0.44554734 -0.47644675 0
-0.066609859 -0.28122151 -0.39392912 0
0.022855282 -0.31303942 -0.40929431 0
0.12070572 -0.31424797 -0.42383289 0
0.22356713 -0.31032717 -0.43832862 0
0.31145585 -0.30830455 -0.45094943 0
0.39432836 -0.33085549 -0.46308976 0
-0.1695317 -0.20341307 -0.37384188 0
-0.095840096 -0.23357189 -0.38542646 0
-0.0041358471 -0.21686828 -0.39922541 0
0.11003697 -0.21011615 -0.41709435 0
0.21357715 -0.21190619 -0.43342769 0
0.28450894 -0.21497703 -0.44423491 0
-0.28604841 -0.12896895 -0.35812831 0
-0.19195628 -0.14187098 -0.36858547 0
-0.084401131 -0.1218074 -0.38009125 0
0.0074079037 -0.12628084 -0.39476472 0
0.11873066 -0.1260469 -0.412588 0
0.20337689 -0.11662364 -0.42553794 0
0.26589143 -0.15170002 -0.43798661 0
-0.6720047 -0.0057022572 -0.34544265 0
-0.51627135 -0.022910416 -0.35145408 0
-0.3969245 -0.030511558 -0.35460663 0
-0.29315078 -0.047994137 -0.35602319 0
-0.17650151 -0.046228826 -0.36760104 0
-0.087201953 -0.024247825 -0.37567139 0
0.0022732019 -0.02785176 -0.38724482 0
0.11003745 -0.025415659 -0.40446156 0
-0.86193585 0.042306364 -0.33195734 0
-0.76545262 0.0049237609 -0.33751392 0
-0.70824921 0.06678021 -0.34916741 0
-0.57881844 0.083646595 -0.36309975 0
-0.48810768 0.085351944 -0.3668443 0
-0.39495993 0.070724666 -0.36713344 0
-0.30512393 0.084823489 -0.3715058 0
-0.19599271 0.063839793 -0.37176561 0
-0.098248601 0.074538767 -0.3750484 0
0.0054214001 0.075936496 -0.37814015 0
0.088000059 0.052840412 -0.38695198 0
-0.96701741 0.14239854 -0.31671935 0
-0.88809037 0.1271978 -0.33085883 0
-0.79484391 0.14930576 -0.34359008 0
-0.69171655 0.16368562 -0.35938489 0
-0.56443024 0.15246689 -0.37151617 0
-0.49642825 0.12945229 -0.3695569 0
-0.38329959 0.13635564 -0.37497663 0
-0.26501858 0.13053781 -0.37878746 0
-0.20486951 0.16080713 -0.3699466 0
-0.091462255 0.1284979 -0.36908084 0
-0.99259269 0.23962569 -0.30732808 0
-0.89546621 0.2331332 -0.32387656 0
-0.79807913 0.25760311 -0.33895868 0
-0.71616578 0.26812297 -0.35128456 0
-0.64502621 0.25140935 -0.36463904 0
-0.88557851 0.35845095 -0.31493241 0
-0.8100518 0.36767334 -0.33036304 0
-0.71863067 0.35819274 -0.33543199 0
-0.93444896 0.44104683 -0.29287809 0
-0.85047758 0.45989037 -0.29163402 0
-0.73411548 0.4555794 -0.30798316 0
-0.49044156 -0.43637258 -0.34446722 0
-0.38846397 -0.44812858 -0.35640645 0
-0.28707623 -0.44846922 -0.36594462 0
-0.17659199 -0.44110411 -0.37788093 0
-0.076199889 -0.44668007 -0.39798808 0
0.010961294 -0.42590141 -0.41120255 0
0.06771946 -0.44793904 -0.41990304 0
-0.91975141 -0.31942582 -0.32527739 0
-0.61738622 -0.35239041 -0.32892793 0
-0.51612723 -0.3620441 -0.34159899 0
-0.40476334 -0.35290974 -0.35523611 0
-0.30890167 -0.34947324 -0.36611414 0
-0.19550872 -0.34853739 -0.379161 0
-0.088745356 -0.33987451 -0.39338332 0
-0.99119318 -0.25497037 -0.3147139 0
-0.88797581 -0.21703732 -0.31057966 0
-0.79119194 -0.28037947 -0.3174271 0
-0.70357084 -0.24864393 -0.31887662 0
-0.60456824 -0.27174407 -0.33057904 0
-0.49905944 -0.25286007 -0.34167928 0
-0.39558327 -0.24443448 -0.35255158 0
-0.2764014 -0.24139273 -0.3651095 0
-0.18862081 -0.26044726 -0.37457818 0
-0.89414072 -0.13680506 -0.31104356 0
-0.78912985 -0.12847292 -0.32196641 0
-0.70056891 -0.16712213 -0.3261252 0
-0.62108397 -0.12239492 -0.3358748 0
-0.51530206 -0.14877766 -0.3384549 0
-0.41437626 -0.14770603 -0.34527546 0
-0.32711852 -0.16887325 -0.35654014 0
-0.96112442 -0.082908452 -0.30996686 0
-0.84957361 -0.062721431 -0.3226999 0
-0.7465955 -0.060089171 -0.33286136 0
-0.69184768 -0.058869779 -0.33824563 0
-0.60052538 -0.056971073 -0.34371734 0
-0.99546707 0.025725067 -0.31698734 0
-0.88562846 0.0070596933 -0.32616675 0
-0.91430664 -0.46634555 -0.31926244 0
-0.69019663 -0.45653504 -0.3188377 0
-0.59275138 -0.44493818 -0.33121371 0
-0.48194206 -0.49057323 -0.34439462 0
-0.8447175 -0.41826475 -0.31465781 0
-0.70816243 -0.36325324 -0.31881815 0
0.37640452 -0.29473102 -0.45886934 0
0.4546138 -0.33401191 -0.47020596 0
0.26168025 -0.19916618 -0.43981141 0
0.3366524 -0.23034096 -0.45188421 0
0.17339182 -0.12178659 -0.42068064 0
0.26439381 -0.10530078 -0.43450862 0
0.32858157 -0.15844882 -0.448241 0
0.0046149492 0.0017151833 -0.38546008 0
0.084755778 -0.018981159 -0.39971453 0
0.15592587 -0.034069777 -0.41169256 0
0.2571516 -0.003033638 -0.41780102 0
0.3081677 -0.022969484 -0.43021387 0
-0.14494836 0.087426782 -0.37719172 0
-0.018382788 0.067302644 -0.37569362 0
0.079257131 0.05686003 -0.38585448 0
0.1624974 0.070432425 -0.39008427 0
0.27289581 0.091594577 -0.39805871 0
0.32515371 0.1099267 -0.40375566 0
-0.63989997 0.1621756 -0.36544138 0
-0.56910622 0.17436516 -0.37313306 0
-0.45210469 0.16243142 -0.3756839 0
-0.33277524 0.1776765 -0.37675041 0
-0.22891784 0.15223908 -0.37647575 0
-0.15255737 0.15556526 -0.37001622 0
-0.016263962 0.1664322 -0.36840534 0
0.068948627 0.16962308 -0.36738199 0
0.16817689 0.17756659 -0.37330794 0
0.25237453 0.17040622 -0.37599111 0
-0.74234581 0.27705133 -0.34614277 0
-0.65444255 0.25110286 -0.36087239 0
-0.54881716 0.26454735 -0.37045348 0
-0.48262465 0.29202998 -0.37260109 0
-0.35725582 0.28742176 -0.36935681 0
-0.22233069 0.23545563 -0.37653929 0
-0.163234 0.29324931 -0.36698765 0
-0.060727119 0.26393765 -0.36349922 0
0.050584435 0.26015115 -0.36331415 0
0.14627099 0.27889401 -0.36304283 0
0.24289763 0.27602255 -0.36635828 0
-0.84816992 0.36613292 -0.31779134 0
-0.71761429 0.36865282 -0.33514297 0
-0.69403064 0.3351956 -0.33401906 0
-0.56204093 0.35925436 -0.34272438 0
-0.45555425 0.3488028 -0.36568969 0
-0.36915421 0.37266302 -0.35591727 0
-0.26244366 0.38670647 -0.35562193 0
-0.1393286 0.40180057 -0.35660022 0
-0.064406991 0.36345154 -0.35797691 0
0.056716681 0.37240738 -0.35500771 0
0.1453985 0.37024426 -0.35542363 0
0.24105251 0.39364696 -0.35995206 0
-0.82219672 0.45257455 -0.30055389 0
-0.72806942 0.45474976 -0.30667281 0
-0.64686716 0.4495948 -0.31493455 0
-0.54851735 0.45070803 -0.31986833 0
-0.48241699 0.41595066 -0.33824831 0
-0.36097121 0.46071929 -0.33451003 0
-0.26405978 0.48414844 -0.33118945 0
-0.16675103 0.45206112 -0.33724201 0
-0.052643061 0.48902005 -0.33776236 0
0.045527697 0.48140621 -0.34432721 0
0.15491498 0.47875679 -0.34688151 0
0.20050251 0.48733979 -0.34942675 0
-0.047676444 -0.42628026 -0.40267611 0
0.051980734 -0.44171774 -0.41756368 0
0.1620146 -0.42800331 -0.43238181 0
0.25666833 -0.42318237 -0.44574398 0
0.36914921 -0.42696512 -0.46096623 0
0.46103144 -0.42518437 -0.47123265 0
0.54899848 -0.44507313 -0.48312783 0
-0.11032057 -0.33877832 -0.3901611 0
-0.023709297 -0.33735383 -0.40328312 0
0.073474407 -0.33773041 -0.41742015 0
0.16608536 -0.3406502 -0.43063784 0
0.27424812 -0.31172645 -0.44522566 0
0.35350156 -0.3294965 -0.45704013 0
-0.30323851 -0.22667962 -0.36005229 0
-0.24177003 -0.25929266 -0.36856622 0
-0.14854765 -0.24823755 -0.3782748 0
-0.035703659 -0.23686528 -0.39492559 0
0.047307372 -0.24613953 -0.40895498 0
0.15643597 -0.2323817 -0.42542291 0
0.24800909 -0.25909662 -0.44028229 0
-0.61967075 -0.10919678 -0.33745331 0
-0.42983663 -0.12583673 -0.34260398 0
-0.33163154 -0.13806254 -0.35344762 0
-0.24406004 -0.15616566 -0.3629905 0
-0.13910103 -0.12886673 -0.37231559 0
-0.03576386 -0.13625509 -0.38820887 0
0.056161046 -0.1302588 -0.40255278 0
0.13863599 -0.15087354 -0.41771948 0
-0.82856095 -0.015481532 -0.32963967 0
-0.76049972 -0.069704235 -0.33079958 0
-0.6781925 -0.056877494 -0.33998483 0
-0.57404423 -0.034266472 -0.34785903 0
-0.44226432 -0.048287392 -0.35097921 0
-0.31472099 -0.049174726 -0.3536309 0
-0.24480736 -0.047291696 -0.36022985 0
-0.16149116 -0.042370975 -0.36700684 0
-0.047346711 -0.028072 -0.37974441 0
0.030924797 -0.038880944 -0.39228636 0
-0.92543411 0.036123753 -0.32546175 0
-0.82441962 0.048907757 -0.33643717 0
-0.75491345 0.018694103 -0.34012091 0
-0.66706669 0.072404027 -0.35390985 0
-0.53351569 0.080737293 -0.36352694 0
-0.42331707 0.071403325 -0.36549962 0
-0.3320092 0.0432567 -0.36504173 0
-0.23776102 0.035329759 -0.36680883 0
-0.11287045 0.057895899 -0.36701709 0
-0.95317173 0.13831735 -0.31898791 0
-0.84406233 0.11844945 -0.33725953 0
-0.76795053 0.14338267 -0.34925604 0
-0.94654167 0.25489783 -0.31405213 0
-0.86707783 0.24290586 -0.32779479 0
-0.78973758 0.23183393 -0.34114343 0
-0.95405686 0.34612018 -0.30695233 0
-0.8622185 0.30720705 -0.32474035 0
-0.94336176 0.46191102 -0.2855894 0
-0.64497697 -0.45864838 -0.32416856 0
-0.53032267 -0.45870376 -0.3388055 0
-0.44458652 -0.46981037 -0.34922749 0
-0.33087444 -0.45112526 -0.36228192 0
-0.23584294 -0.46705586 -0.36901027 0
-0.12755489 -0.43936753 -0.38905233 0
-0.074021578 -0.45791304 -0.39770561 0
-0.9699676 -0.33998513 -0.32839006 0
-0.82862234 -0.34697694 -0.31107122 0
-0.73976386 -0.36548156 -0.31900108 0
-0.63987029 -0.38496315 -0.32544792 0
-0.52075219 -0.3692345 -0.34085238 0
-0.44620144 -0.3617211 -0.34981728 0
-0.34027612 -0.35645497 -0.36201084 0
-0.23756695 -0.35315919 -0.37383997 0
-0.17745852 -0.36230969 -0.38052839 0
-0.89828598 -0.28584868 -0.31750107 0
-0.69829214 -0.26158077 -0.31962425 0
-0.66732955 -0.29989284 -0.32197285 0
-0.53227603 -0.28169143 -0.33840638 0
-0.43862832 -0.25851899 -0.34612811 0
-0.35846138 -0.28854555 -0.35800886 0
-0.95289004 -0.1758939 -0.30807167 0
-0.83031476 -0.14947695 -0.31615251 0
-0.75173509 -0.18838423 -0.31983823 0
-0.64869356 -0.18388695 -0.32785648 0
-0.54527962 -0.17609799 -0.33428258 0
-0.44962835 -0.18910187 -0.34317482 0
-0.98815691 -0.019980013 -0.31384951 0
-0.89543974 -0.064679325 -0.31831628 0
-0.95140135 -0.48056 -0.31798124 0
-0.76928079 -0.46555114 -0.30814236 0
-0.44510555 0.18206024 -0.37942547 0
-0.82630241 0.25380898 -0.32884103 0
-0.70199668 0.227759 -0.35098445 0
-0.57812965 0.23134506 -0.37139684 0
-0.50605023 0.25806504 -0.37075293 0
-0.99916798 0.33575898 -0.295955 0
-0.89067721 0.3313092 -0.30762106 0
-0.82164896 0.33395267 -0.32311589 0
-0.70111024 0.34674507 -0.33330154 0
-0.61081827 0.32250845 -0.34491128 0
-0.52429342 0.34464109 -0.34345573 0
-0.93011785 0.40445417 -0.29555547 0
-0.8246963 0.43309766 -0.29654142 0
-0.72065556 0.43954116 -0.30333394 0
-0.61682367 0.41961771 -0.31767106 0
-0.52406466 0.43909991 -0.31835651 0
-0.96075511 0.48097819 -0.27189013 0
-0.81586921 -0.059264302 -0.32568914 0
-0.094372511 -0.018156528 -0.37045717 0
-0.99469578 0.011114061 -0.31200719 0
-0.9024086 0.016113818 -0.32487822 0
-0.77706897 0.0054135919 -0.33585739 0
-0.69041657 -0.025675595 -0.34108669 0
-0.61803174 0.038602054 -0.3544454 0
-0.54710531 0.032500029 -0.35811502 0
-0.42191458 0.042707324 -0.36398715 0
-0.2939117 0.026367307 -0.36558521 0
-0.18356383 0.0039224029 -0.36680102 0
-0.96988726 0.1655938 -0.30995846 0
-0.90097249 0.12463242 -0.32351029 0
-0.82072473 0.11302805 -0.3372581 0
-0.72779834 0.11923438 -0.34960109 0
-0.62093556 0.12629342 -0.36289555 0
-0.50757718 0.12853229 -0.37019998 0
-0.3809936 0.11438048 -0.37198734 0
-0.92239511 0.19754845 -0.3159098 0
-0.82666981 0.19370699 -0.33199066 0
-0.94711697 0.27174324 -0.30809075 0
0.0087864399 -0.43532658 -0.40695131 0
0.11235511 -0.44797242 -0.42168701 0
0.19795823 -0.45269966 -0.43455523 0
-0.37579072 -0.3607896 -0.35464966 0
-0.29270267 -0.38026178 -0.36619729 0
-0.18437743 -0.35825717 -0.37563509 0
-0.074534416 -0.37963688 -0.39256173 0
0.032629251 -0.37265885 -0.40882182 0
0.080953836 -0.34918332 -0.41465116 0
-0.99747825 -0.26181126 -0.31225824 0
-0.91331506 -0.30983162 -0.32136124 0
-0.79777813 -0.25987667 -0.31476861 0
-0.68025815 -0.28171438 -0.31732196 0
-0.59801924 -0.30307299 -0.32827383 0
-0.49316084 -0.30470818 -0.34050834 0
-0.38488865 -0.28454608 -0.35135865 0
-0.27192974 -0.25377315 -0.36184591 0
-0.17786038 -0.26895314 -0.37150234 0
-0.068004727 -0.26382452 -0.38670141 0
0.017222762 -0.26295328 -0.40011394 0
-0.95390677 -0.15667045 -0.30273062 0
-0.82588935 -0.1716553 -0.3140288 0
-0.73290741 -0.20072907 -0.31958848 0
-0.60822749 -0.17861086 -0.33206105 0
-0.47306025 -0.19296157 -0.33906132 0
-0.40660274 -0.16038525 -0.34147406 0
-0.30377817 -0.17179352 -0.3549884 0
-0.19234979 -0.18415153 -0.36542439 0
-0.092432857 -0.1572153 -0.37516594 0
-0.023973703 -0.17326957 -0.38718647 0
-0.8753444 -0.072776437 -0.31863028 0
-0.7554518 -0.12371486 -0.32508689 0
-0.73125875 -0.088680923 -0.33089757 0
-0.62090349 -0.090520799 -0.33960193 0
-0.48898494 -0.12486857 -0.3410418 0
-0.42889917 -0.075066209 -0.34814018 0
-0.30219173 -0.11183381 -0.35105169 0
-0.21509743 -0.079958558 -0.35993016 0
-0.12634718 -0.099267781 -0.36808538 0
-0.68337786 -0.49660671 -0.31589645 0
-0.57096899 -0.49046063 -0.33013767 0
-0.38729155 -0.48547268 -0.353109 0
-0.16170824 -0.49046761 -0.37380672 0
-0.067694187 -0.49267888 -0.38935256 0
-0.00063836575 -0.49598241 -0.40688819 0
0.064246416 -0.48465252 -0.41636264 0
-0.78989434 -0.38348711 -0.31785077 0
-0.66683543 -0.39793748 -0.31904876 0
-0.58143294 -0.39498508 -0.3295176 0
-0.51544797 -0.42147076 -0.33724999 0
-0.39481771 -0.40455288 -0.3535195 0
-0.28925335 -0.42759562 -0.36639547 0
-0.19871593 -0.42388213 -0.37731981 0
-0.62843609 -0.34593737 -0.32432967 0
-0.95864546 0.44170111 -0.29572967 0
-0.90499961 0.39285654 -0.31281918 0
-0.7121104 0.42855632 -0.31874299 0
-0.59001839 0.43153006 -0.32885981 0
-0.93775868 0.047247827 -0.32514459 0
-0.79972744 0.043347955 -0.33907288 0
-0.70229447 0.065669537 -0.35064846 0
-0.56329703 0.071261406 -0.36454046 0
-0.44984293 0.047773182 -0.36404806 0
-0.37417853 0.092005491 -0.3722778 0
-0.95598817 0.12837857 -0.31769276 0
-0.8595922 0.1063292 -0.33508271 0
-0.76953256 0.13057703 -0.34887171 0
-0.67480779 0.1537444 -0.35999846 0
-0.56420326 0.15440786 -0.37159342 0
-0.49156559 0.14597434 -0.37458378 0
-0.97222805 0.20799875 -0.31112662 0
-0.87776089 0.23410463 -0.32507563 0
-0.80033875 0.23775351 -0.33787185 0
-0.68986392 0.25515294 -0.35524565 0
-0.6053735 0.2673744 -0.36710739 0
-0.95624781 0.29671997 -0.308826 0
-0.86024916 0.34944344 -0.32112753 0
-0.75537431 0.32259065 -0.33380878 0
-0.60562122 0.34535086 -0.3469404 0
-0.8634119 0.43270433 -0.29885554 0
-0.77397728 0.47198695 -0.28910697 0
-0.62004852 0.47007447 -0.30970913 0
0.065206528 -0.2951591 -0.4142468 0
-0.8941654 -0.26976341 -0.31704414 0
-0.48091078 -0.22724974 -0.34141755 0
-0.24376333 -0.23112017 -0.36755526 0
-0.15054941 -0.22984725 -0.37730283 0
-0.048689485 -0.23995119 -0.39182693 0
0.079838514 -0.23882043 -0.41378444 0
-0.95427799 -0.20556694 -0.31177074 0
-0.82487977 -0.19811124 -0.31264716 0
-0.70825839 -0.23022962 -0.32097131 0
-0.65610313 -0.15649307 -0.33297324 0
-0.55335021 -0.19339764 -0.33458459 0
-0.45987189 -0.14109159 -0.34429455 0
-0.34249651 -0.18833447 -0.35418093 0
-0.25592005 -0.12327385 -0.35985202 0
-0.15192604 -0.16082454 -0.3727361 0
-0.050973773 -0.15820462 -0.38602245 0
-0.95516491 -0.12038332 -0.31098533 0
-0.85627437 -0.040756881 -0.3252852 0
-0.75916529 -0.12444389 -0.32627964 0
-0.6633265 -0.062905014 -0.34159559 0
-0.45980775 -0.080882728 -0.3483147 0
-0.35209763 -0.034516752 -0.35727435 0
-0.2491374 -0.060574353 -0.35772669 0
-0.16978979 -0.034922063 -0.36703354 0
-0.98466825 -0.0093679428 -0.31609046 0
-0.62494862 0.0080769658 -0.35234326 0
-0.46541178 0.0089927912 -0.36006933 0
-0.26136005 0.037701905 -0.36962306 0
-0.64147592 -0.48550224 -0.32432842 0
-0.54309511 -0.47296917 -0.33662844 0
-0.33689618 -0.4807418 -0.35956764 0
-0.19855356 -0.42625856 -0.37942499 0
-0.1455704 -0.44293827 -0.38237989 0
-0.043884635 -0.46773839 -0.40159607 0
0.067833185 -0.44453752 -0.41878837 0
0.15254641 -0.44535041 -0.43126273 0
0.25056171 -0.45745146 -0.44599956 0
-0.97403193 -0.43414181 -0.32929701 0
-0.86368859 -0.36871767 -0.32619703 0
-0.67529833 -0.38857466 -0.32084042 0
-0.56102622 -0.37271595 -0.33530998 0
-0.43265963 -0.38896281 -0.35138547 0
-0.35351765 -0.3636381 -0.36039627 0
-0.24078786 -0.36481994 -0.3739894 0
-0.15044892 -0.35400927 -0.38357574 0
-0.049622059 -0.35167003 -0.3987065 0
0.071743608 -0.34846759 -0.41710418 0
0.12677181 -0.36954927 -0.42531627 0
-0.74807382 -0.30884731 -0.32182413 0
-0.61323154 -0.26847804 -0.33042276 0
-0.51813185 -0.26799262 -0.34084386 0
-0.432284 -0.2856974 -0.35075146 0
-0.3165859 -0.26420009 -0.36083746 0
-0.22379923 -0.28672844 -0.37256229 0
-0.12014079 -0.27723199 -0.38290423 0
0.015991688 -0.29110646 -0.40658176 0
-0.70918024 0.16976202 -0.35538024 0
-0.59925091 0.15729171 -0.36990625 0
-0.50095069 0.16235483 -0.37650532 0
-0.33292854 0.15931249 -0.38147408 0
-0.87810099 0.22787082 -0.32398427 0
-0.76402509 0.22269684 -0.34328294 0
-0.67447674 0.23945063 -0.35727078 0
-0.58371985 0.2624982 -0.36543769 0
-0.4920156 0.26627207 -0.36713868 0
-0.41980743 0.21602613 -0.38006461 0
-0.28903031 0.25119615 -0.37475193 0
-0.1720469 0.2671423 -0.36649764 0
-0.91348946 0.30027115 -0.31440285 0
-0.82596469 0.31037349 -0.32634324 0
-0.72108889 0.31792486 -0.33401775 0
-0.58873701 0.3405813 -0.34434628 0
-0.48881447 0.34161645 -0.35084367 0
-0.40412235 0.38253832 -0.33819169 0
-0.34087586 0.33886576 -0.364905 0
-0.25495863 0.34820312 -0.35835069 0
-0.97391695 0.42810738 -0.28919616 0
-0.94555175 0.36783373 -0.30562037 0
-0.83343208 0.40479892 -0.30622643 0
-0.69388855 0.41765219 -0.31645244 0
-0.61116838 0.41404349 -0.31897557 0
-0.49905479 0.41790611 -0.32817543 0
-0.35552239 0.46508992 -0.33267885 0
-0.25283587 0.45435387 -0.33539295 0
-0.45737028 0.49597245 -0.31977165 0
0.1183759 -0.11768293 -0.4083041 0
0.19112861 -0.15886712 -0.42362452 0
-0.84520447 -0.089831591 -0.32162243 0
-0.6977936 -0.091390133 -0.33565325 0
-0.60422635 -0.064255416 -0.34669358 0
-0.43080437 -0.061822593 -0.35283446 0
-0.28443789 -0.067309797 -0.35641515 0
-0.20276725 -0.049851298 -0.36433947 0
-0.096041441 -0.032218456 -0.37133735 0
0.0098404884 -0.05670172 -0.38745987 0
0.087076068 -0.061091542 -0.39998132 0
-0.99753261 0.00091725588 -0.31230116 0
-0.92205226 0.024620414 -0.32563478 0
-0.81845427 0.0048279166 -0.33362794 0
-0.70974338 0.016689777 -0.34527105 0
-0.59109998 -0.013311386 -0.35242093 0
-0.53586996 0.049600244 -0.36256874 0
-0.37824881 0.0130108 -0.36320412 0
-0.26970732 0.054935813 -0.37151146 0
-0.17240965 -0.011696637 -0.36571109 0
-0.10021138 0.064839661 -0.3759169 0
0.014999151 0.022184968 -0.3806681 0
0.072710752 0.071844995 -0.37854326 0
-0.98746359 0.085011005 -0.31329614 0
-0.87432873 0.12338108 -0.33045405 0
-0.78748643 0.10995674 -0.34535187 0
-0.64862442 0.10518575 -0.3599636 0
-0.50602984 0.087478399 -0.36683869 0
-0.37663555 0.099274576 -0.37291962 0
-0.21141863 0.13117337 -0.37394696 0
0.0017709732 0.14529228 -0.37180322 0
-0.919204 0.16974163 -0.3204419 0
-0.8189857 0.17033857 -0.33702749 0
-0.11125422 0.21533489 -0.36736304 0
-0.077059507 -0.46035814 -0.39751858 0
-0.01456821 -0.45895183 -0.4063254 0
0.10537982 -0.47996747 -0.42386687 0
0.21328497 -0.45780432 -0.43907154 0
0.31295681 -0.44271815 -0.45263731 0
0.41335368 -0.45255506 -0.4655661 0
0.47387469 -0.45789051 -0.47313982 0
-0.66428506 -0.3769049 -0.32198668 0
-0.48044896 -0.37479973 -0.34464765 0
-0.3847084 -0.40607548 -0.35604769 0
-0.28923559 -0.36011255 -0.36667138 0
-0.1815815 -0.39506096 -0.38032836 0
-0.092354655 -0.37900519 -0.39231515 0
0.012003422 -0.35200763 -0.40721184 0
0.093185663 -0.3735311 -0.41950965 0
0.22093415 -0.34561622 -0.43731219 0
0.29104435 -0.33513749 -0.44663876 0
0.36649394 -0.35990644 -0.4583841 0
-0.98949897 -0.3116262 -0.32852876 0
-0.88201094 -0.28292704 -0.31792545 0
-0.6962316 -0.2951194 -0.31871504 0
-0.6106143 -0.32061809 -0.32872701 0
-0.50914872 -0.28045821 -0.33994216 0
-0.39409399 -0.2721284 -0.35148221 0
-0.2838999 -0.2724514 -0.36343652 0
-0.19941366 -0.30095756 -0.37302035 0
-0.077659369 -0.26604217 -0.38722026 0
0.032696128 -0.26717818 -0.40543658 0
0.10803211 -0.24909735 -0.41624629 0
0.19422042 -0.25731277 -0.42994291 0
-0.99377239 -0.23078936 -0.30620843 0
-0.79814303 -0.21548688 -0.31364077 0
-0.60919082 -0.17551935 -0.33242375 0
-0.48177242 -0.19468457 -0.33869916 0
-0.37452888 -0.19846845 -0.35008335 0
-0.28246903 -0.15445656 -0.35669017 0
-0.17749786 -0.17999011 -0.37011623 0
-0.10257912 -0.16704905 -0.37680453 0
0.0010231733 -0.16026485 -0.39312476 0
0.099170208 -0.17157459 -0.40958524 0
-0.84120107 -0.12947178 -0.31805754 0
-0.70369864 -0.12830859 -0.33140373 0
-0.48330355 -0.12562793 -0.34248483 0
-0.35201466 -0.13078672 -0.34862375 0
-0.069667459 -0.099947393 -0.37767321 0
-0.84001434 -0.48477709 -0.30751532 0
-0.56686413 -0.49478459 -0.3321718 0
-0.3742969 -0.49850476 -0.35357261 0
-0.18214059 -0.49946082 -0.37030482 0
-0.045444012 -0.49167252 -0.39536184 0
-0.65865612 -0.44498199 -0.32161951 0
-0.57937157 -0.41765732 -0.33184594 0
-0.30580151 -0.43893117 -0.36596519 0
-0.74388528 0.25994945 -0.34639084 0
-0.64461303 0.25124842 -0.36325639 0
-0.55283678 0.25870144 -0.37142867 0
-0.437976 0.26258314 -0.37331975 0
-0.29302979 0.27464533 -0.37297118 0
-0.80232608 0.31498009 -0.33357102 0
-0.71231437 0.31891191 -0.33712065 0
-0.56360006 0.33772242 -0.34892815 0
-0.46340477 0.35334951 -0.35282105 0
-0.35391688 0.34765637 -0.35534412 0
-0.21215391 0.36930043 -0.36214483 0
-0.12950075 0.35214013 -0.3632552 0
-0.033528328 0.33832783 -0.36269468 0
0.027471781 0.38271004 -0.35556656 0
0.1567018 0.35403585 -0.3606627 0
0.27263272 0.36644477 -0.36086246 0
0.39635456 0.35356045 -0.36825538 0
-0.9352743 0.4161182 -0.30480641 0
-0.83633971 0.40942907 -0.30657762 0
-0.71459997 0.41134965 -0.31360102 0
-0.59381223 0.38958329 -0.3273654 0
-0.56078911 0.46484834 -0.31781 0
-0.44492292 0.44069654 -0.33616251 0
-0.32256699 0.45720029 -0.34007597 0
-0.21173084 0.45021498 -0.34448475 0
-0.10082173 0.45236742 -0.34771973 0
-0.014866829 0.46946347 -0.34508827 0
0.062251687 0.46154922 -0.34582493 0
0.17136908 0.45517063 -0.35120681 0
0.26060808 0.46356839 -0.34602693 0
0.34313238 0.42294288 -0.35983193 0
-0.50524294 0.49451619 -0.30495578 0
