# .PCD v0.7 - Point Cloud Data file format
VERSION 0.7
FIELDS x y z intensity
SIZE 4 4 4 4
TYPE F F F F
COUNT 1 1 1 1
WIDTH 1304
HEIGHT 1
VIEWPOINT 0 0 0 1 0 0 0
POINTS 1304
DATA ascii
-0.8165648 0.25573921 -0.20832872 0
-0.76431274 0.24535942 -0.20866978 0
-0.86553955 0.31250191 -0.20911658 0
-0.9412396 0.37859726 -0.21569312 0
0.75494576 -0.49247932 -0.35361063 0
0.64763308 -0.42913437 -0.36845827 0
0.70911264 -0.40163422 -0.35613143 0
0.57927418 -0.37215996 -0.37657928 0
0.6288662 -0.31373024 -0.37043118 0
0.52060699 -0.29429436 -0.38642085 0
0.59423971 -0.23926926 -0.37969649 0
0.45358753 -0.2160511 -0.39241815 0
0.5152235 -0.165411 -0.3907001 0
0.37935638 -0.13916588 -0.40686512 0
0.45854187 -0.092201233 -0.40670675 0
0.3165946 -0.079387665 -0.42519242 0
0.38602638 -0.013948441 -0.42442387 0
0.070093632 -0.072784424 -0.31766939 0
0.29425049 0.00022125244 -0.43293303 0
0.33578777 0.063812256 -0.44057524 0
-0.011992455 -0.033535004 -0.29979074 0
0.029638767 0.0078010559 -0.2875576 0
0.27946234 0.14195251 -0.45696193 0
-0.13283587 0.011297226 -0.28222907 0
-0.076906204 0.023794174 -0.27870262 0
0.20768213 0.21988106 -0.47250402 0
-0.20091915 0.067935944 -0.26334333 0
-0.11990356 0.092847824 -0.26531672 0
0.13391876 0.28995705 -0.4798919 0
-0.32831526 0.1125412 -0.24755561 0
-0.26790285 0.12935448 -0.2441237 0
0.046130657 0.36600304 -0.47995508 0
0.091005802 0.34659195 -0.47788 0
-0.4743948 0.16917992 -0.23143661 0
-0.38956881 0.16402435 -0.23342979 0
-0.33294344 0.23388481 -0.23557866 0
-0.019057274 0.43608856 -0.46840358 0
-0.52174973 0.19946861 -0.22214067 0
-0.44545436 0.24393463 -0.23913014 0
-0.39538026 0.30541992 -0.25258732 0
-0.35801482 0.36374855 -0.38822532 0
-0.67156267 0.25289536 -0.19172394 0
-0.60817409 0.25691986 -0.20582652 0
-0.51132727 0.31996536 -0.27684128 0
-0.44890809 0.38049889 -0.28880489 0
-0.41110039 0.41604614 -0.37210202 0
-0.73398781 0.30559731 -0.17803586 0
-0.66747713 0.32479858 -0.19354343 0
-0.48736763 0.46690941 -0.32751262 0
-0.47754669 0.48413086 -0.36701488 0
-0.84698606 0.36348152 -0.15660429 0
-0.78561616 0.37989235 -0.15925968 0
-0.71167493 0.38598251 -0.18504536 0
-0.90760994 0.42578506 -0.14778173 0
-0.84066129 0.46581841 -0.14686835 0
-0.98410082 0.49704742 -0.13883734 0
0.86251783 -0.48652649 -0.34166658 0
0.92924595 -0.46164513 -0.35494602 0
0.79759645 -0.42138481 -0.33775544 0
0.8656888 -0.39030838 -0.35560238 0
0.9508214 -0.34339142 -0.37052476 0
0.74649858 -0.36660767 -0.35086608 0
0.81757498 -0.31954193 -0.35702682 0
0.89363575 -0.26628876 -0.37404275 0
0.69753647 -0.29095078 -0.36104441 0
0.73900032 -0.25312424 -0.36207557 0
0.80531359 -0.20485115 -0.36679494 0
0.62383842 -0.20985603 -0.37128913 0
0.67603636 -0.16283226 -0.36034071 0
0.55949974 -0.10886955 -0.37870419 0
0.60872316 -0.094423294 -0.36811519 0
0.51921415 -0.05332756 -0.39410937 0
0.55266476 0.0008430481 -0.38705599 0
0.42901468 0.025339127 -0.4148308 0
0.49038935 0.079055786 -0.41146827 0
0.36750364 0.11070442 -0.43593264 0
0.42436838 0.14608955 -0.42240369 0
0.31783581 0.18259048 -0.44412762 0
0.37000132 0.22827148 -0.42553341 0
0.25499105 0.25954437 -0.45170122 0
0.29595947 0.30398941 -0.43942201 0
0.18196535 0.33949661 -0.46282589 0
0.24738359 0.36910629 -0.44449705 0
0.11747694 0.4187603 -0.44976628 0
-0.29573774 0.25876236 -0.24026668 0
0.0040874481 0.45947456 -0.45558655 0
0.059949398 0.47610664 -0.44198716 0
-0.35948324 0.32066917 -0.23762965 0
-0.41234446 0.40825272 -0.25756216 0
-0.3803184 0.46993256 -0.27676094 0
-0.46439767 0.49542236 -0.2742219 0
0.97613335 -0.27466202 -0.37896764 0
0.91421032 -0.22609901 -0.38001668 0
0.98790455 -0.18919182 -0.39498967 0
0.77060175 -0.1407299 -0.29064858 0
0.84211826 -0.17937279 -0.37185013 0
0.70132303 -0.1194458 -0.30303919 0
0.64901161 -0.049663544 -0.30408788 0
0.60226107 0.033937454 -0.33076298 0
0.63225889 0.093513489 -0.36179328 0
0.55445433 0.10090828 -0.39119232 0
0.60824299 0.1566658 -0.38018548 0
0.48169756 0.19646072 -0.39983213 0
0.53240776 0.24438477 -0.38800085 0
0.41899443 0.275774 -0.41063464 0
0.48286533 0.31992531 -0.39791584 0
0.35531807 0.35676003 -0.41724706 0
0.41567278 0.39892769 -0.40094197 0
0.2969532 0.43281746 -0.41370332 0
0.38002872 0.44348526 -0.39961016 0
0.15527153 0.47570801 -0.42158186 0
0.22617483 0.49079895 -0.40843594 0
0.98136616 -0.076202393 -0.35909367 0
0.9159236 -0.00012779236 -0.33167672 0
0.68794155 -0.008310318 -0.24967039 0
0.74686432 0.089031219 -0.30882001 0
0.90422916 0.19911194 -0.41962284 0
0.9730711 0.20559311 -0.42859095 0
0.6364789 0.046234131 -0.26670074 0
0.66669321 0.11786652 -0.33793008 0
0.75752258 0.16905022 -0.38177812 0
0.85815811 0.2523365 -0.41392171 0
0.64503527 0.20913696 -0.37996864 0
0.69404364 0.23903465 -0.38631105 0
0.78154039 0.31587601 -0.40212715 0
0.59442186 0.25823593 -0.37276328 0
0.66413927 0.3418541 -0.38666463 0
0.72024584 0.3776207 -0.39571178 0
0.52638769 0.35753441 -0.37675655 0
0.59870148 0.40177727 -0.37999368 0
0.45995474 0.4564743 -0.37700093 0
0.5405798 0.48569679 -0.3684901 0
0.94981146 0.29955292 -0.42500901 0
0.91289282 0.40209007 -0.40659618 0
0.7504921 0.41726875 -0.39911318 0
0.81997204 0.47809601 -0.39881384 0
0.60369635 0.4776268 -0.37792647 0
0.68428087 0.49092293 -0.38900495 0
0.94301319 0.44833565 -0.37115467 0
0.98017168 0.48359299 -0.34880352 0
0.45631695 -0.48210526 -0.40371925 0
0.56025648 -0.49152374 -0.37980837 0
0.62089014 -0.4401207 -0.35846436 0
0.45522404 -0.46796417 -0.38965172 0
0.50612211 -0.41135597 -0.3759383 0
0.57016087 -0.38100433 -0.36464906 0
0.37410927 -0.37456512 -0.3984195 0
0.4447732 -0.34412956 -0.38207793 0
0.51518869 -0.29418373 -0.37965286 0
0.33283663 -0.30474091 -0.39677858 0
0.38757944 -0.27095413 -0.38657737 0
0.41371536 -0.19412041 -0.39166713 0
0.26859093 -0.24112129 -0.39882147 0
0.31913424 -0.18805313 -0.3958472 0
0.20490742 -0.16636658 -0.39895475 0
0.26344919 -0.11089897 -0.41357124 0
0.31733465 -0.061414719 -0.4226808 0
0.23228407 -0.050540924 -0.41970581 0
0.86475801 -0.48783302 -0.33422124 0
0.94965506 -0.4455471 -0.35285699 0
0.74762297 -0.48411942 -0.33089852 0
0.79994774 -0.43563271 -0.33727276 0
0.86981678 -0.36981201 -0.3487587 0
0.67203665 -0.4090023 -0.34145665 0
0.74048281 -0.34110069 -0.34122181 0
0.84616423 -0.33008385 -0.35043609 0
0.60365963 -0.33913803 -0.35604846 0
0.67883253 -0.26545143 -0.34993398 0
0.54254103 -0.25746727 -0.37085164 0
0.61990976 -0.2078228 -0.36117041 0
0.48748446 -0.17502213 -0.37939298 0
0.54805374 -0.12182617 -0.36965048 0
0.3678031 -0.15646935 -0.38672841 0
0.41017771 -0.090723038 -0.39115226 0
0.50036383 -0.049396515 -0.39069796 0
0.29734135 -0.085836411 -0.40183818 0
0.34963322 -0.027339935 -0.40895623 0
0.42944098 0.036211014 -0.40902984 0
0.034960747 -0.090238571 -0.30278337 0
0.24101257 0.0069217682 -0.41829318 0
0.30373764 0.050540924 -0.42798799 0
0.35772848 0.11026764 -0.42296553 0
-0.057265759 -0.043888092 -0.28141046 0
-0.0072779655 -0.03327179 -0.27948654 0
0.24005413 0.12808418 -0.4457159 0
0.28745365 0.18673706 -0.4340142 0
-0.118361 0.020246506 -0.25809216 0
-0.059027672 0.040300369 -0.26218212 0
0.17746305 0.21390343 -0.45667642 0
0.23409271 0.25457191 -0.44278979 0
-0.23729777 0.066186905 -0.23941839 0
-0.19242263 0.081136703 -0.24319792 0
0.10555506 0.28285027 -0.46625078 0
0.16769695 0.32527924 -0.44608182 0
-0.29955339 0.11919212 -0.22447801 0
-0.23975372 0.1276989 -0.23600614 0
-0.021744728 0.3583622 -0.4711445 0
0.041496277 0.35770035 -0.45932984 0
-0.3881979 0.18824387 -0.22088575 0
-0.06881237 0.40552902 -0.4564786 0
-0.026670933 0.42392349 -0.44724703 0
-0.42519212 0.27658463 -0.25345957 0
-0.39927793 0.28863335 -0.28775668 0
-0.1322298 0.47720337 -0.43460774 0
-0.069498062 0.46716118 -0.44093871 0
-0.45997691 0.35296822 -0.28260791 0
-0.44687319 0.39003181 -0.32443237 0
-0.51287293 0.46051979 -0.32783949 0
0.98809719 -0.31221581 -0.37242258 0
0.8294282 -0.24763107 -0.3578074 0
0.89826059 -0.24115372 -0.36724305 0
0.99550533 -0.21792603 -0.3832581 0
0.72805834 -0.22082138 -0.31834149 0
0.78883076 -0.2088623 -0.34173179 0
0.6646204 -0.14164925 -0.30677474 0
0.58572912 -0.07865715 -0.32792795 0
0.54892826 -0.021600723 -0.35080552 0
0.57550049 0.033084869 -0.35908449 0
0.64960384 0.099176407 -0.36809564 0
0.45912647 0.069318771 -0.39714932 0
0.53143787 0.12040138 -0.37388003 0
0.40033293 0.14580154 -0.40201986 0
0.45630264 0.19050217 -0.39067221 0
0.33133984 0.22186279 -0.41787255 0
0.39679527 0.26558495 -0.39727271 0
0.28433609 0.29931641 -0.42452073 0
0.33783436 0.34039307 -0.40205288 0
0.21806097 0.38632011 -0.41787338 0
0.2799716 0.41172981 -0.40208733 0
-0.31576395 0.15529633 -0.22169149 0
-0.27257371 0.16706467 -0.23659205 0
0.06537962 0.4159832 -0.43492758 0
0.13869095 0.43797493 -0.41739678 0
-0.37159896 0.21696663 -0.21749246 0
-0.33945227 0.25631905 -0.22822034 0
0.014678478 0.47838211 -0.42526245 0
-0.40576768 0.28968239 -0.23564923 0
-0.37953997 0.3279438 -0.23738587 0
-0.46245289 0.37375641 -0.24912727 0
-0.43222761 0.39491272 -0.25003171 0
-0.51185036 0.43409729 -0.27061307 0
-0.49535561 0.47941208 -0.2692132 0
-0.84745264 0.41200638 -0.13294315 0
-0.78671074 0.40706062 -0.15705955 0
-0.95969462 0.45031929 -0.1155467 0
-0.9012897 0.45254898 -0.1243155 0
-0.83368278 0.44761848 -0.14768207 0
0.76117945 -0.14207458 -0.27894449 0
0.68329287 -0.093826294 -0.26339459 0
0.75654221 -0.073896408 -0.27395499 0
0.62053108 -0.030031204 -0.2665714 0
0.65029669 -0.010515213 -0.25011683 0
0.73550081 0.083230972 -0.32053733 0
0.81840658 0.1513958 -0.39123011 0
0.90508318 0.18183899 -0.40780962 0
0.99232674 0.20491791 -0.42055672 0
0.5856595 0.014915466 -0.28990257 0
0.61021233 0.060918808 -0.29628229 0
0.67800665 0.14795876 -0.36693943 0
0.76476574 0.19456673 -0.38833559 0
0.84148932 0.24892616 -0.40117037 0
0.92575026 0.26184464 -0.41293728 0
0.62147188 0.19640923 -0.36542058 0
0.70173979 0.26644707 -0.38194549 0
0.78009176 0.30438232 -0.39306235 0
0.49989557 0.23908043 -0.36839294 0
0.55720615 0.2665329 -0.3625648 0
0.63508034 0.347229 -0.37264359 0
0.7145586 0.36019516 -0.3823179 0
0.45225096 0.31716347 -0.37770534 0
0.49719286 0.36308861 -0.36226928 0
0.56167698 0.40374565 -0.36562002 0
0.38705635 0.38872719 -0.38440001 0
0.43303537 0.42591858 -0.36734211 0
0.30615664 0.46915245 -0.37643921 0
0.9426918 0.3260479 -0.41087091 0
0.82974148 0.3563118 -0.40023899 0
0.88272667 0.39807701 -0.38739073 0
0.73037815 0.41748047 -0.38650906 0
0.8199935 0.48263359 -0.37952197 0
0.58768082 0.43990898 -0.36638117 0
0.47562027 0.47368431 -0.35057509 0
0.89853859 0.4851532 -0.32546127 0
0.95482016 0.47778511 -0.33446264 0
0.87667847 0.49072647 -0.3569454 0
0.47570038 -0.48603439 -0.37956148 0
0.52590752 -0.45455551 -0.36391962 0
0.42658901 -0.40066147 -0.37507212 0
0.46087742 -0.36762428 -0.36970198 0
0.37360477 -0.32178497 -0.37247539 0
0.38508558 -0.27031898 -0.37812829 0
0.32156849 -0.23224068 -0.38059449 0
0.34028864 -0.18653488 -0.39102077 0
0.29679871 -0.11574554 -0.40086412 0
0.26098156 -0.01423645 -0.41921955 0
0.19983244 0.073776245 -0.42228651 0
0.24201918 0.075153351 -0.43986845 0
0.18269777 0.16825104 -0.44601905 0
0.14062548 0.22972488 -0.44808185 0
0.69728994 -0.43081284 -0.33209717 0
0.56260967 -0.41239929 -0.34629238 0
0.63759756 -0.34572411 -0.34062088 0
0.44811773 -0.37741852 -0.35372686 0
0.4968586 -0.32931709 -0.35952151 0
0.58457136 -0.27663803 -0.3471694 0
0.62892675 -0.21925926 -0.35345876 0
0.44548225 -0.24945831 -0.37063229 0
0.52085972 -0.18867111 -0.35954773 0
0.55167341 -0.11360741 -0.36475241 0
0.37780142 -0.17906761 -0.38133347 0
0.45740509 -0.11353683 -0.37585402 0
0.5081706 -0.048538208 -0.3737998 0
0.32978725 -0.087551117 -0.39356017 0
0.40063477 -0.041276932 -0.38939345 0
0.45055389 0.026216507 -0.39270163 0
0.2901535 -0.031187057 -0.40719414 0
0.33660698 0.025663376 -0.40688002 0
0.40616274 0.089450836 -0.40164423 0
0.025088787 -0.025932312 -0.26005042 0
0.27570343 0.10983276 -0.42174423 0
0.34192705 0.16766167 -0.40460026 0
0.21899271 0.20106697 -0.43082321 0
0.2815485 0.2389183 -0.41462135 0
0.15697908 0.28569984 -0.43750525 0
0.23346996 0.31711197 -0.41733408 0
0.10146379 0.36260986 -0.42616832 0
0.15290928 0.40120697 -0.40391636 0
-0.024943829 0.41630173 -0.42933953 0
0.040735245 0.43659592 -0.41365135 0
-0.086686611 0.48698235 -0.39833951 0
-0.017616272 0.4878273 -0.39984739 0
0.98672152 -0.45729446 -0.34534299 0
0.80174112 -0.48830032 -0.3169626 0
0.82984161 -0.43842316 -0.32657433 0
0.92209673 -0.37221527 -0.34440935 0
0.7397418 -0.38403893 -0.32300663 0
0.79419661 -0.35990143 -0.33107138 0
0.87893152 -0.30697632 -0.34900963 0
0.96996307 -0.27090073 -0.36511528 0
0.69335127 -0.33722496 -0.33276021 0
0.73237944 -0.27570915 -0.33436644 0
0.80268097 -0.23992157 -0.34176767 0
0.66364956 -0.20629501 -0.32033324 0
0.60495567 -0.13144112 -0.31836665 0
0.56571817 -0.04132843 -0.32911623 0
0.60674047 0.050893784 -0.34395945 0
0.69001961 0.10437965 -0.36228263 0
0.5160656 0.041957855 -0.36551714 0
0.57681751 0.094459534 -0.34791255 0
0.45130587 0.12811852 -0.37889755 0
0.5153079 0.1714344 -0.36040795 0
0.38797522 0.20975494 -0.38522756 0
0.45822048 0.25905418 -0.36547673 0
0.33014536 0.2867794 -0.3936193 0
0.39359188 0.33388329 -0.37749171 0
0.26886845 0.37073517 -0.39160299 0
0.33219767 0.405056 -0.373438 0
0.2021184 0.43751907 -0.38314593 0
0.26691866 0.48851013 -0.35604846 0
0.077411652 0.48291397 -0.38826513 0
0.84971285 -0.13490677 -0.29705775 0
0.99962187 -0.094575882 -0.34935617 0
0.70919991 -0.17577934 -0.26494145 0
0.64760923 -0.074716568 -0.24597764 0
0.9555335 0.14453316 -0.40174913 0
0.60258818 -0.010349274 -0.25774801 0
0.64346313 0.036159515 -0.28269136 0
0.72851419 0.089223862 -0.33829987 0
0.78805542 0.15586662 -0.37294531 0
0.89465237 0.20443726 -0.39429367 0
0.97040653 0.28189468 -0.40290272 0
0.61253023 0.07144165 -0.30246449 0
0.65806389 0.16841125 -0.35802889 0
0.74161911 0.23167038 -0.37119555 0
0.81300163 0.27743721 -0.38489056 0
0.89986753 0.31671715 -0.39467192 0
0.53701258 0.24249458 -0.34339273 0
0.61583281 0.24084663 -0.3547045 0
0.7068119 0.29965782 -0.37072563 0
0.75927734 0.36751366 -0.37664425 0
0.83146477 0.39658928 -0.38244343 0
0.49968481 0.29431725 -0.3454541 0
0.54708624 0.32432175 -0.34721124 0
0.6466403 0.3783226 -0.3613466 0
0.71275377 0.43208694 -0.3710928 0
0.44323158 0.36953163 -0.35213709 0
0.49064112 0.40873718 -0.34463108 0
0.56475163 0.46761703 -0.34588182 0
0.65322542 0.46822166 -0.36158919 0
0.3752079 0.4480114 -0.34926808 0
0.98519325 0.32666779 -0.38361609 0
0.94389629 0.37077904 -0.36238444 0
0.78338575 0.43471336 -0.37733424 0
0.86803532 0.4403019 -0.34938526 0
0.74929619 0.47189331 -0.36393237 0
0.92005444 0.47656441 -0.31058335 0
0.19581842 -0.47878456 -0.43510902 0
0.14717245 -0.43230438 -0.4223243 0
0.16793633 -0.39365005 -0.42421347 0
0.17080069 -0.30576706 -0.42088318 0
0.20773888 0.023780823 -0.46350169 0
0.23566055 0.038566589 -0.46608365 0
0.17284536 0.071853638 -0.46911085 0
0.21250916 0.11813545 -0.47172242 0
0.24763918 0.18911362 -0.47413868 0
0.19266367 0.21125603 -0.46747828 0
0.21571159 0.25527573 -0.4580909 0
0.14944315 0.30083847 -0.4514395 0
0.17910576 0.32741928 -0.43922496 0
0.10039186 0.39173698 -0.43021548 0
0.13353109 0.41325569 -0.41878355 0
0.043829918 0.48247719 -0.38870263 0
0.095784664 0.49051666 -0.39346373 0
0.24479198 -0.46365929 -0.43912357 0
0.32468939 -0.41837883 -0.4321934 0
0.20771027 -0.36961174 -0.42859721 0
0.2848835 -0.32006645 -0.42231882 0
0.33606052 -0.2697525 -0.41449738 0
0.17335224 -0.26106834 -0.38587558 0
0.22200155 -0.26594925 -0.41299796 0
0.31149769 -0.19170761 -0.4265027 0
0.3707757 -0.12293243 -0.42746979 0
0.11365938 -0.20656776 -0.33300757 0
0.18294096 -0.20335579 -0.37067151 0
0.29113674 -0.11767769 -0.43593687 0
0.33936501 -0.049062729 -0.43798763 0
0.076690197 -0.12064552 -0.29211438 0
0.15337992 -0.13128471 -0.30032837 0
0.24142218 -0.017305374 -0.44589579 0
0.296731 0.036138535 -0.4523834 0
0.3628521 0.068159103 -0.44418138 0
0.024746895 -0.058843613 -0.27569556 0
0.095621109 -0.051088333 -0.30941212 0
0.26238728 0.11618614 -0.4569189 0
0.32218409 0.15883446 -0.44580299 0
0.39131975 0.19306374 -0.4384203 0
0.23790312 0.18631172 -0.45265841 0
0.2875762 0.25225639 -0.4407652 0
0.34239292 0.28264809 -0.42229438 0
0.23712921 0.34654999 -0.42057991 0
0.31078339 0.36981583 -0.40373766 0
0.20152426 0.43224907 -0.40055203 0
0.26321936 0.46175957 -0.38142693 0
0.42639208 -0.49076271 -0.41748077 0
0.48000002 -0.44876671 -0.40029895 0
0.38875198 -0.40997124 -0.41267002 0
0.44933939 -0.36733627 -0.39594233 0
0.49659586 -0.30600739 -0.39400667 0
0.40553808 -0.28659248 -0.40571874 0
0.4799819 -0.22791672 -0.39933693 0
0.54140949 -0.19551277 -0.4092108 0
0.38413382 -0.19425011 -0.40760338 0
0.43120098 -0.14113998 -0.41359109 0
0.50788355 -0.095623016 -0.40967864 0
0.40299797 -0.062610626 -0.4244591 0
0.46627951 -0.0052776337 -0.42106068 0
0.51708984 0.051000595 -0.41083908 0
0.42777872 0.088193893 -0.42332786 0
0.48498154 0.12660599 -0.4050678 0
0.39078665 0.18119621 -0.42084408 0
0.44939518 0.22056007 -0.40545106 0
0.51653576 0.27234268 -0.39608526 0
0.40351105 0.31129074 -0.40207553 0
0.47341871 0.34780884 -0.38314688 0
0.36652422 0.39769363 -0.38405633 0
0.42933226 0.43285179 -0.36480868 0
0.32753134 0.48045731 -0.36463165 0
0.64812565 -0.48683167 -0.37253165 0
0.54981852 -0.44514847 -0.38351625 0
0.62424278 -0.39873886 -0.37365639 0
0.53449917 -0.37860298 -0.38891637 0
0.57204056 -0.31659126 -0.38317668 0
0.64597416 -0.27259636 -0.37364447 0
0.5406189 -0.2304306 -0.3903327 0
0.60789299 -0.17886353 -0.37783718 0
0.65988302 -0.10968971 -0.37505293 0
0.51230717 -0.15561867 -0.39013433 0
0.57757568 -0.091375351 -0.38445425 0
0.6289382 -0.034622192 -0.38268268 0
0.53820324 -0.0089511871 -0.40354598 0
0.5910058 0.042257309 -0.38618398 0
0.64268827 0.10828209 -0.36748886 0
0.5550642 0.1364994 -0.3837167 0
0.61140966 0.18276024 -0.37279713 0
0.52042103 0.21934891 -0.38517284 0
0.56904745 0.26334381 -0.37421322 0
0.64486408 0.32250786 -0.37520194 0
0.52241755 0.35845757 -0.36741757 0
0.61225939 0.41336823 -0.36519063 0
0.4957509 0.4551487 -0.35001493 0
0.58628988 0.49053955 -0.35072196 0
0.71251297 -0.48251343 -0.3585 0
0.78530502 -0.42851067 -0.35109985 0
0.69366932 -0.40984726 -0.35960698 0
0.74133444 -0.35877419 -0.36180317 0
0.81010723 -0.31221962 -0.36393023 0
0.71194553 -0.25279999 -0.3379817 0
0.68052101 -0.16737175 -0.31340516 0
0.71593094 -0.13183784 -0.29161263 0
0.64614677 -0.091304779 -0.30421317 0
0.66687202 -0.038377762 -0.31699991 0
0.74916649 0.027488708 -0.36134636 0
0.85173845 0.075847626 -0.39527547 0
0.90296173 0.1328907 -0.4074012 0
0.61504078 -0.014635086 -0.33283329 0
0.70177126 0.09651947 -0.37710273 0
0.78205872 0.1493454 -0.39024127 0
0.86991215 0.21154022 -0.40482771 0
0.6884613 0.17022896 -0.37769282 0
0.72437334 0.23429871 -0.38500607 0
0.82262468 0.28763199 -0.39790452 0
0.89192772 0.32925415 -0.4054693 0
0.71427011 0.33193588 -0.38400459 0
0.77350235 0.36628914 -0.39183807 0
0.84485626 0.42328453 -0.39441597 0
0.69094419 0.39091873 -0.38151157 0
0.711514 0.4545002 -0.37690818 0
0.82734632 0.49399757 -0.39150703 0
0.97972059 -0.46770668 -0.36021578 0
0.85002565 -0.442379 -0.34786868 0
0.89593887 -0.37515259 -0.36115861 0
0.96895218 -0.32295799 -0.3789528 0
0.88502169 -0.29443169 -0.37235618 0
0.91812038 -0.26690483 -0.34964263 0
0.76304865 -0.23269844 -0.27877414 0
0.80188513 -0.17546654 -0.27461135 0
0.89826536 -0.17460823 -0.30874801 0
0.97440863 -0.15677452 -0.33670938 0
0.72176647 -0.15914726 -0.2702837 0
0.77090502 -0.12881851 -0.25909698 0
0.89313602 -0.084209442 -0.30081606 0
0.6911068 -0.096755981 -0.2541548 0
0.70847511 -0.059751511 -0.256863 0
0.96512651 0.11597061 -0.41637433 0
0.99472475 0.25943375 -0.41202104 0
0.9571166 0.34368134 -0.37862301 0
0.9050231 0.40937996 -0.36840701 0
0.96689034 0.47278595 -0.36622536 0
0.99287748 0.39300919 -0.33524048 0
0.68755102 -0.45027924 -0.33530927 0
0.56245232 -0.4220314 -0.34654367 0
0.63130856 -0.37297058 -0.34194922 0
0.70551729 -0.31926537 -0.33878338 0
0.55131197 -0.32894325 -0.35180008 0
0.59695101 -0.28630447 -0.35012543 0
0.66299486 -0.25386238 -0.34070647 0
0.57400608 -0.18634224 -0.34983897 0
0.60714483 -0.15905762 -0.32974553 0
0.54409504 -0.10652733 -0.33300507 0
0.58793163 -0.056203842 -0.34672177 0
0.64799261 0.0035839081 -0.341452 0
0.74763966 0.06061554 -0.36486864 0
0.55213118 0.03638649 -0.35771084 0
0.62786245 0.073854446 -0.350757 0
0.71077538 0.12819672 -0.36177552 0
0.75695515 0.18801689 -0.37107491 0
0.5281539 0.11458588 -0.35558653 0
0.56984186 0.1634903 -0.35091293 0
0.67113352 0.21565056 -0.35923827 0
0.7449894 0.2514534 -0.3707695 0
0.49794674 0.20415115 -0.35577893 0
0.54124451 0.25500107 -0.34850228 0
0.63620663 0.30655861 -0.35631883 0
0.70823097 0.35088158 -0.36654782 0
0.45596695 0.27373505 -0.34709907 0
0.49053574 0.34719086 -0.34514701 0
0.58324623 0.39048004 -0.34705925 0
0.65201569 0.43588257 -0.35435009 0
0.45156145 0.43340302 -0.33223009 0
0.5430522 0.47792053 -0.32976043 0
0.60867739 0.49347496 -0.33905947 0
0.83166432 -0.49915695 -0.31978941 0
0.92955112 -0.4610405 -0.3361876 0
0.72415543 -0.45681953 -0.32248187 0
0.77970219 -0.41505623 -0.32632351 0
0.88197279 -0.3670826 -0.3417654 0
0.97187614 -0.33059311 -0.35892153 0
0.68861246 -0.36597252 -0.32202637 0
0.74906063 -0.32635689 -0.33010924 0
0.84167814 -0.30420876 -0.34387541 0
0.97155285 -0.24052811 -0.36233461 0
0.70457411 -0.22634125 -0.28274202 0
0.79384899 -0.19265747 -0.27076101 0
0.89935064 -0.15110397 -0.30343676 0
0.65883446 -0.15293312 -0.27310419 0
0.84609079 -0.03481102 -0.29947591 0
0.9093461 0.044313431 -0.37750685 0
0.56626463 -0.098409653 -0.29647851 0
0.62678146 -0.059728622 -0.27022183 0
0.6957159 0.0072364807 -0.30553734 0
0.79059935 0.039777756 -0.33812118 0
0.85851479 0.10126305 -0.38238716 0
0.94305706 0.12571144 -0.3959775 0
0.58290672 0.0036563873 -0.28833508 0
0.63625765 0.018188477 -0.2990309 0
0.77388859 0.10634613 -0.36715639 0
0.82287169 0.1529274 -0.37956786 0
0.89805841 0.20596886 -0.39132452 0
0.9980855 0.27404976 -0.38511336 0
0.7951417 0.258955 -0.37705255 0
0.85883904 0.32273865 -0.38074815 0
0.93328428 0.33968163 -0.35826182 0
0.75789881 0.36176491 -0.37248087 0
0.82821608 0.40136147 -0.3614186 0
0.90875435 0.42653656 -0.33821571 0
0.70481682 0.4587841 -0.36002326 0
0.77401018 0.48795319 -0.36775064 0
0.85571814 -0.11857224 -0.28077996 0
0.69215536 -0.11232185 -0.2252754 0
0.76619148 -0.1145153 -0.25166976 0
0.6662879 -0.067028046 -0.21733296 0
0.73830652 -0.046625137 -0.23727584 0
0.99010372 0.37261009 -0.32728827 0
0.94599056 0.44909096 -0.31053448 0
0.41213751 -0.47954369 -0.40658206 0
0.37121296 -0.41325188 -0.41126561 0
0.62652063 -0.47447586 -0.35789275 0
0.45622778 -0.46060181 -0.3965674 0
0.5216527 -0.42775726 -0.37628913 0
0.38935995 -0.37653351 -0.39600676 0
0.46401215 -0.34218025 -0.37596107 0
0.33533812 -0.28133202 -0.39454919 0
0.42870474 -0.25996208 -0.38402998 0
0.22917032 -0.2153492 -0.40522563 0
0.3000598 -0.19041443 -0.40236086 0
0.36817265 -0.17095566 -0.39323163 0
0.067910194 -0.13637543 -0.32203913 0
0.18784618 -0.16680527 -0.38626206 0
0.2715044 -0.10397148 -0.40608078 0
0.31987143 -0.095542908 -0.41258585 0
0.038067341 -0.12242317 -0.31674039 0
0.13347006 0.20573807 -0.47206008 0
0.1212883 0.23823357 -0.48067927 0
0.79844046 -0.47802734 -0.32646549 0
0.89863491 -0.44576073 -0.33589542 0
0.95989132 -0.42887306 -0.34508896 0
0.67915106 -0.43461418 -0.34253955 0
0.76585007 -0.40895271 -0.33705127 0
0.83390617 -0.37357712 -0.34120989 0
0.5605073 -0.36478615 -0.35498083 0
0.6133256 -0.37075043 -0.35112822 0
0.70350075 -0.32209206 -0.34233499 0
0.50531769 -0.30711365 -0.36358941 0
0.58455944 -0.27900696 -0.35939777 0
0.65413237 -0.22693634 -0.35457444 0
0.45533323 -0.21894073 -0.3780601 0
0.53337574 -0.1734333 -0.36922014 0
0.6012764 -0.13007927 -0.36697984 0
0.41868067 -0.13684273 -0.38744891 0
0.49349976 -0.08203125 -0.38370991 0
0.54666758 -0.048410416 -0.37604785 0
0.31390047 -0.097808838 -0.39309239 0
0.36278915 -0.048419952 -0.40467346 0
0.43816566 0.015491486 -0.40120876 0
-0.024234295 -0.073534012 -0.29021728 0
0.04392767 -0.075082779 -0.29099762 0
0.27485991 -0.015949249 -0.40818238 0
0.31451893 0.044490814 -0.42324728 0
0.38986826 0.091640472 -0.41467059 0
-0.13706541 0.0098762512 -0.25212371 0
-0.066793442 -0.0087184906 -0.2643609 0
0.016387939 -0.010398865 -0.2683655 0
0.26400137 0.12389183 -0.44048035 0
0.34237146 0.16762352 -0.4230206 0
-0.17889452 0.053817749 -0.24078536 0
-0.1255126 0.068817139 -0.24869132 0
0.16156578 0.20188332 -0.45488584 0
0.2250638 0.20944977 -0.44483304 0
0.29186583 0.24285126 -0.43082112 0
-0.30362868 0.13212967 -0.21619451 0
-0.24176621 0.13034248 -0.23113298 0
0.11167574 0.26685143 -0.46619314 0
0.18240118 0.30114937 -0.44606876 0
-0.36188817 0.19077682 -0.21595669 0
-0.29828906 0.17357826 -0.22127974 0
0.048500538 0.36106682 -0.45300382 0
0.11956978 0.37838173 -0.43783438 0
-0.40980721 0.29077911 -0.24562764 0
-0.05954361 0.42498398 -0.44485676 0
-0.0038495064 0.43654823 -0.43979323 0
-0.44349837 0.3606472 -0.26736259 0
-0.12081289 0.49399185 -0.42419815 0
-0.04907608 0.49372864 -0.42588186 0
-0.50085092 0.45332527 -0.29218781 0
0.9790678 -0.38088799 -0.35585105 0
0.86979771 -0.32413101 -0.34664392 0
0.93531036 -0.27949142 -0.36106372 0
0.76024628 -0.27427673 -0.34108984 0
0.80945063 -0.25253105 -0.34871578 0
0.91805744 -0.23713303 -0.36708069 0
0.69917536 -0.17847443 -0.31071079 0
0.63434696 -0.11433029 -0.31588769 0
0.54212141 -0.037063599 -0.33850288 0
0.5896306 -0.029287338 -0.32815099 0
0.50940418 0.029745102 -0.37312841 0
0.56268311 0.058309555 -0.36892629 0
0.64341497 0.10060692 -0.3625232 0
0.45068932 0.11425018 -0.39721 0
0.51653767 0.14650154 -0.37931609 0
0.38502598 0.20822906 -0.40182328 0
0.45824051 0.23796463 -0.38239551 0
0.3332777 0.28792572 -0.40916634 0
0.40475321 0.32403374 -0.3899225 0
-0.26478767 0.18082237 -0.23318648 0
0.2068553 0.36779404 -0.42180622 0
0.28919888 0.38397598 -0.40438795 0
-0.35143995 0.22063828 -0.2145586 0
-0.29335237 0.23293877 -0.22672832 0
0.086230278 0.41984367 -0.42782271 0
0.16489935 0.43412399 -0.41121006 0
0.23973703 0.45071602 -0.39718676 0
-0.38924265 0.29340363 -0.22343302 0
0.040009499 0.48284531 -0.41780269 0
-0.4273541 0.37613106 -0.24166179 0
-0.40042782 0.40924644 -0.24430692 0
-0.48070478 0.46680069 -0.2589823 0
-0.43573213 0.47019196 -0.25228047 0
0.6656785 -0.073760986 -0.25924253 0
0.83223295 -0.041978836 -0.28945172 0
0.63075113 0.013875961 -0.26127744 0
0.70809746 0.058633804 -0.28595436 0
0.77242327 0.099824905 -0.34796536 0
0.87989807 0.15400887 -0.39540184 0
0.97975779 0.18372726 -0.41107857 0
0.61201763 0.053930283 -0.30720508 0
0.67730904 0.11018372 -0.35262883 0
0.74479818 0.16338539 -0.37693846 0
0.85694695 0.22084427 -0.39740527 0
0.94824266 0.2406826 -0.40924001 0
0.60409212 0.21860123 -0.36288524 0
0.71121931 0.24658394 -0.37519467 0
0.78435373 0.29998398 -0.38630235 0
0.87539768 0.2974987 -0.39872277 0
0.49476004 0.2671299 -0.36510575 0
0.56385517 0.30383873 -0.35955226 0
0.66845989 0.35133362 -0.37218487 0
0.77209663 0.35013771 -0.39018106 0
0.45566845 0.36250114 -0.36773968 0
0.52599764 0.40867996 -0.35670853 0
0.62340164 0.42610931 -0.36713958 0
0.3188858 0.4431572 -0.37954843 0
0.40372562 0.44499397 -0.36675024 0
0.51953602 0.46271133 -0.34922314 0
0.96156645 0.31171799 -0.41042519 0
0.90922165 0.37372971 -0.39003348 0
0.9844842 0.3859005 -0.37128615 0
0.77495623 0.41968918 -0.38589466 0
0.85464001 0.4518528 -0.37068367 0
0.64648676 0.4701786 -0.36794746 0
0.73535776 0.4975071 -0.37785614 0
0.90405941 0.49207687 -0.34631133 0
0.95894384 0.49423409 -0.3210659 0
0.24965954 -0.48140526 -0.45333564 0
0.055315495 -0.48300743 -0.42935717 0
0.11440563 -0.43355751 -0.43398374 0
-0.014397144 -0.39293861 -0.41350055 0
0.025245667 -0.35992432 -0.41587281 0
-0.12788224 -0.33851051 -0.39234304 0
-0.077758312 -0.3320713 -0.40065819 0
-0.15698838 -0.28990555 -0.38934982 0
-0.14525437 -0.25442696 -0.39693034 0
-0.20744562 -0.21829605 -0.39316857 0
-0.19531679 -0.19763374 -0.40578151 0
-0.26300478 -0.14175034 -0.39754176 0
0.38864231 -0.48343849 -0.43655258 0
0.27651834 -0.43314934 -0.45057303 0
0.33811188 -0.39812469 -0.42939532 0
0.13516951 -0.37708473 -0.43273246 0
0.21324015 -0.34917259 -0.44058132 0
0.27956486 -0.33552742 -0.43333018 0
0.081165314 -0.32510757 -0.42168057 0
0.15727425 -0.25855064 -0.42761028 0
0.22878647 -0.25167084 -0.43136632 0
-0.043806553 -0.29048157 -0.40347838 0
0.01390934 -0.24898911 -0.41143882 0
0.09102726 -0.18763351 -0.42060471 0
-0.11628485 -0.21191025 -0.40218139 0
-0.032391071 -0.16294289 -0.41064632 0
0.03660965 -0.15595818 -0.41755337 0
-0.17566419 -0.12202644 -0.40423739 0
-0.089289188 -0.10388947 -0.40424168 0
-0.27493954 -0.10317039 -0.40721166 0
-0.23348904 -0.054767609 -0.39329624 0
-0.34907246 0.00027084351 -0.36626434 0
-0.28819442 -0.012132645 -0.37440646 0
-0.46885753 0.058452606 -0.3234421 0
-0.4112823 0.02759552 -0.34658909 0
-0.54089141 0.10004997 -0.30878341 0
-0.6472075 0.15235138 -0.27895927 0
-0.99185729 0.41184044 -0.2541827 0
0.56163025 -0.47020912 -0.39353597 0
0.45683336 -0.43330956 -0.41040498 0
0.49932432 -0.39146996 -0.39703417 0
0.38490343 -0.34959412 -0.41094548 0
0.43924475 -0.31167603 -0.39301562 0
0.32721329 -0.26887703 -0.41199619 0
0.40067911 -0.23300171 -0.40525156 0
0.27085352 -0.1996212 -0.4208864 0
0.33931208 -0.155056 -0.4152444 0
0.13489485 -0.16244125 -0.38811088 0
0.25741339 -0.10770988 -0.42449057 0
0.2698102 -0.088359833 -0.43110609 0
0.013720989 -0.10456657 -0.34565806 0
0.065936565 -0.13380432 -0.37134886 0
-0.1177659 -0.043094635 -0.32536328 0
-0.066279411 -0.066328049 -0.33722806 0
-0.2002902 -0.0074596405 -0.31384563 0
-0.31752515 0.03950882 -0.28643596 0
-0.24397135 0.035459518 -0.27572918 0
-0.44632959 0.10247993 -0.26815891 0
-0.39191699 0.083522797 -0.26543033 0
-0.58902597 0.14087105 -0.24990129 0
-0.52061319 0.13947678 -0.24742198 0
-0.64481735 0.18717575 -0.22608244 0
-0.55936813 0.20261192 -0.21443582 0
-0.48806143 0.31842804 -0.30051172 0
-0.39625406 0.37042999 -0.37584782 0
-0.37697387 0.38226128 -0.38004518 0
-0.76729178 0.23319244 -0.20414162 0
-0.7043128 0.23532677 -0.19547296 0
-0.50693154 0.35227203 -0.31211686 0
-0.48422909 0.41761208 -0.35419106 0
-0.82595801 0.29023361 -0.19129288 0
-0.96737623 0.36427307 -0.22413099 0
-0.90600896 0.35783386 -0.19331729 0
-0.99932456 0.43287849 -0.19412673 0
-0.97151256 0.41266823 -0.20528698 0
0.73103428 -0.46191597 -0.3493861 0
0.61230373 -0.40937233 -0.36564767 0
0.67597342 -0.38856888 -0.35651791 0
0.54648972 -0.34684563 -0.37699509 0
0.61358213 -0.29781914 -0.36809063 0
0.50613928 -0.26702309 -0.38577271 0
0.56471729 -0.20743942 -0.38099611 0
0.43992138 -0.1891098 -0.39598334 0
0.49265766 -0.13410187 -0.39033985 0
0.3826685 -0.11752701 -0.41197008 0
0.44812965 -0.054122925 -0.40471804 0
0.31709337 -0.044258118 -0.4210673 0
0.38709402 0.029933929 -0.42827064 0
0.033537388 -0.052145004 -0.30125356 0
0.070299149 -0.025007248 -0.29422867 0
0.30825663 0.028959274 -0.42303342 0
0.3130455 0.10111427 -0.44233096 0
-0.10596418 -0.0075874329 -0.28225315 0
-0.017464638 -0.0095787048 -0.2864728 0
0.21081161 0.16526031 -0.46876663 0
0.25623083 0.17301178 -0.45523179 0
-0.14678812 0.034715652 -0.2669884 0
-0.086746693 0.048538208 -0.26675153 0
0.15305519 0.24095726 -0.47562927 0
0.19367838 0.24680519 -0.46853638 0
-0.2889297 0.083972931 -0.25120616 0
-0.21746612 0.094930649 -0.24934554 0
0.099355698 0.31906509 -0.48194075 0
0.14310837 0.31391144 -0.47224307 0
-0.34977746 0.14865875 -0.23154283 0
-0.2717135 0.18775558 -0.23954213 0
0.047046661 0.38205528 -0.46719432 0
-0.46719432 0.18330002 -0.22049785 0
-0.40297985 0.23227501 -0.2321558 0
-0.34884024 0.27544975 -0.23586845 0
-0.042323112 0.45391846 -0.4564985 0
-0.62161756 0.24926376 -0.19907987 0
-0.55069494 0.23480415 -0.21543336 0
-0.44578624 0.30419922 -0.25470352 0
-0.41006088 0.34620857 -0.27151728 0
-0.36877012 0.40275764 -0.37982154 0
-0.74820876 0.28722954 -0.16967154 0
-0.66515636 0.28826714 -0.18920922 0
-0.49548054 0.43865013 -0.26620579 0
-0.45738745 0.4283371 -0.30718338 0
-0.39182901 0.40149117 -0.37448084 0
-0.79407215 0.33513451 -0.15454412 0
-0.73336172 0.35942078 -0.17300844 0
-0.5128653 0.46795464 -0.25876474 0
-0.86395764 0.40306664 -0.14242506 0
-0.78297091 0.44035721 -0.16353118 0
-0.98024774 0.47032738 -0.13742197 0
-0.92811036 0.47827721 -0.13193381 0
0.90413284 -0.47007751 -0.34763968 0
0.95748186 -0.40771866 -0.36044121 0
0.79164219 -0.41775513 -0.33614719 0
0.79580116 -0.38150406 -0.34580541 0
0.94883108 -0.32730103 -0.37176991 0
0.68920135 -0.30752945 -0.34374142 0
0.76216364 -0.30017662 -0.35378265 0
0.8516922 -0.24422264 -0.36676466 0
0.66882658 -0.25821495 -0.36072624 0
0.72739601 -0.21390533 -0.3581363 0
0.82884598 -0.19145012 -0.37190986 0
0.61274242 -0.18606567 -0.37176573 0
0.66497469 -0.15632248 -0.35505986 0
0.55973291 -0.098270416 -0.37939787 0
0.59099007 -0.057992935 -0.3638283 0
0.48362541 -0.0082931519 -0.39850831 0
0.55072784 0.01776886 -0.39538431 0
0.41734457 0.068304062 -0.41330886 0
0.4911747 0.093976974 -0.40777433 0
0.37108231 0.15141106 -0.42867923 0
0.42483759 0.16702461 -0.42066777 0
0.30841064 0.21153831 -0.44115824 0
0.36928368 0.26184464 -0.42484868 0
0.25978422 0.28846741 -0.44546014 0
0.30065727 0.34606361 -0.43821657 0
0.17912245 0.37566948 -0.4473356 0
0.042967796 0.44313049 -0.45078647 0
0.12066793 0.44654083 -0.4358319 0
-0.36671853 0.37093925 -0.24902761 0
-0.42325068 0.44854355 -0.25920808 0
0.92776632 -0.20845413 -0.38151968 0
0.73467445 -0.15472603 -0.2897222 0
0.68533707 -0.095346451 -0.29554081 0
0.63574696 -0.010068893 -0.29874969 0
0.59898472 0.056358337 -0.34911489 0
0.65502453 0.11535835 -0.37028575 0
0.72720814 0.1492939 -0.38546467 0
0.53761816 0.14935493 -0.38990343 0
0.58562517 0.18283463 -0.37662506 0
0.47648096 0.22044754 -0.39860249 0
0.52028656 0.26399803 -0.38492918 0
0.41419697 0.29412842 -0.4044112 0
0.48189449 0.33125877 -0.38900602 0
0.35432768 0.37576866 -0.40902877 0
0.42999792 0.40595245 -0.3969326 0
0.29368019 0.45741081 -0.40291119 0
0.17771769 0.49962425 -0.40787089 0
0.94294548 -0.0045833588 -0.33685946 0
0.703444 -0.030580521 -0.25364542 0
0.68992329 0.020162582 -0.25222778 0
0.6914897 0.077754974 -0.28767419 0
0.88141012 0.18847847 -0.41259563 0
0.99019051 0.23491287 -0.42697477 0
0.63458204 0.065029144 -0.28336632 0
0.71211386 0.12716675 -0.32759511 0
0.76129913 0.21016693 -0.39354956 0
0.8411808 0.2658062 -0.406932 0
0.90525293 0.26277733 -0.41555059 0
0.61605406 0.25800133 -0.37514842 0
0.68421888 0.27997398 -0.3846904 0
0.79389334 0.3340683 -0.40207028 0
0.88389397 0.34482384 -0.41684067 0
0.57439089 0.30607986 -0.37154257 0
0.64470911 0.35893631 -0.38116634 0
0.73103428 0.40859413 -0.39577174 0
0.50983095 0.37714577 -0.36788356 0
0.5803566 0.42604065 -0.37364709 0
0.45485163 0.46214485 -0.37131584 0
0.96755791 0.31641197 -0.42280853 0
0.99629545 0.36912918 -0.40613496 0
0.90918541 0.4077301 -0.39703643 0
0.74305058 0.45933723 -0.39450359 0
0.83626032 0.48649788 -0.38979149 0
0.92759418 0.46952057 -0.35244298 0
0.99475574 0.47106743 -0.3483882 0
0.21828604 -0.46104813 -0.43643051 0
0.086117268 -0.4527626 -0.4186188 0
0.10575104 -0.39809418 -0.41745728 0
-0.022640228 -0.47250175 -0.40582311 0
-0.00041151047 -0.41009712 -0.40432513 0
-0.080054045 -0.4162159 -0.39350092 0
-0.067903519 -0.35105896 -0.39175928 0
-0.15331721 -0.28113365 -0.38034749 0
-0.14191723 -0.22415543 -0.390504 0
-0.21868634 -0.21334267 -0.38529325 0
-0.22301579 -0.15690231 -0.3940382 0
-0.29342079 -0.15413284 -0.38260341 0
-0.2939167 -0.11549759 -0.39257264 0
-0.35810661 -0.047164917 -0.39368248 0
-0.41014552 -0.011924744 -0.38003814 0
0.4285779 -0.44624329 -0.40574378 0
0.32919407 -0.46125031 -0.42627215 0
0.3507247 -0.40348816 -0.41920525 0
0.24942636 -0.4109478 -0.43548036 0
0.28674507 -0.34578896 -0.42345285 0
0.16918278 -0.36521149 -0.42432797 0
0.20448399 -0.28697205 -0.42108297 0
0.074640751 -0.31790161 -0.40840936 0
0.12911892 -0.22742844 -0.40975392 0
-0.024991989 -0.31903648 -0.39247978 0
-0.0084114075 -0.2567482 -0.39710593 0
0.048585415 -0.1743679 -0.40321815 0
-0.088664532 -0.27174187 -0.38582432 0
-0.089883804 -0.1901989 -0.39608145 0
-0.045911789 -0.12020111 -0.39004982 0
-0.15879202 -0.12323189 -0.39226925 0
-0.11016655 -0.09340477 -0.37554431 0
-0.2381959 -0.061237335 -0.38044977 0
-0.215554 -0.014467239 -0.35366786 0
-0.32163382 -0.0091648102 -0.3583101 0
-0.42053413 0.021656036 -0.33372438 0
-0.54113245 0.064949036 -0.32441425 0
-0.50554967 0.073928833 -0.30340588 0
-0.59888768 0.11713982 -0.28980553 0
-0.56988883 0.11285782 -0.29225826 0
-0.68904066 0.16389084 -0.26386881 0
-0.77355647 0.19983101 -0.23594737 0
-0.86304617 0.25636292 -0.22834933 0
-0.93744326 0.33083344 -0.23253334 0
0.5648489 -0.48289299 -0.38221878 0
0.49285364 -0.41006088 -0.38414896 0
0.40686989 -0.35290527 -0.38923943 0
0.43340492 -0.29017448 -0.38244367 0
0.33483267 -0.30157661 -0.39644575 0
0.37212801 -0.23135376 -0.39288092 0
0.2462635 -0.23932457 -0.40683007 0
0.2954216 -0.1681366 -0.40144289 0
0.32262897 -0.10288239 -0.41144365 0
0.14431238 -0.17465401 -0.38908911 0
0.24150229 -0.13642693 -0.41233897 0
0.25948334 -0.051340103 -0.41492617 0
0.061818123 -0.13099861 -0.33868361 0
-0.011189938 -0.09223175 -0.32361603 0
-0.14017034 -0.036943436 -0.30376935 0
-0.098308086 -0.050291061 -0.31155157 0
-0.21055889 -0.0043773651 -0.28909266 0
-0.16638303 -0.042581558 -0.34700406 0
-0.28499389 0.032764435 -0.26615298 0
-0.37880135 0.073928833 -0.2559005 0
-0.52165985 0.10586357 -0.2539351 0
-0.46400833 0.12401199 -0.23772454 0
-0.36287475 0.37007141 -0.37240624 0
-0.58703208 0.14619637 -0.23167098 0
-0.54860735 0.18164444 -0.21087217 0
-0.50332141 0.28117371 -0.25075829 0
-0.43362927 0.39066505 -0.35282683 0
-0.41071343 0.40732574 -0.35851288 0
-0.66471195 0.19534302 -0.20339918 0
-0.62628531 0.24934578 -0.18742716 0
-0.49237895 0.41172791 -0.32936299 0
-0.48802352 0.4597187 -0.34603822 0
-0.75552034 0.24479675 -0.18094468 0
-0.7035315 0.29094505 -0.17125189 0
-0.83124733 0.29056358 -0.17471504 0
-0.90643406 0.35758781 -0.17182791 0
-0.98549032 0.42725754 -0.16842377 0
0.80389023 -0.48396683 -0.32685387 0
0.70412064 -0.48280716 -0.34249854 0
0.72167301 -0.40163612 -0.3372041 0
0.62537193 -0.42679024 -0.35322213 0
0.65034199 -0.34853554 -0.34752786 0
0.56395483 -0.31051064 -0.35862076 0
0.60159874 -0.23269844 -0.36017108 0
0.4828968 -0.2446003 -0.37339222 0
0.54184389 -0.17753601 -0.37384784 0
0.41291189 -0.18276024 -0.38506341 0
0.45654249 -0.11418533 -0.38441324 0
0.49316025 -0.062856674 -0.38439071 0
0.36495495 -0.14060211 -0.39263451 0
0.36751127 -0.070108414 -0.40134096 0
0.42729235 0.000831604 -0.40183473 0
0.30141068 -0.0051555634 -0.41790253 0
0.34379387 0.078659058 -0.41957438 0
0.33190203 0.13986397 -0.43185323 0
0.10206175 -0.03168869 -0.28663266 0
0.2663269 0.1446743 -0.44505173 0
0.28351688 0.19483948 -0.43592286 0
0.024440765 -0.033536911 -0.2803756 0
0.18426275 0.20491219 -0.45666492 0
0.21431923 0.26504898 -0.45160902 0
-0.056162357 0.011470795 -0.26394105 0
0.1386857 0.33274841 -0.45418787 0
-0.19872403 0.038740158 -0.25086129 0
-0.14992619 0.053440094 -0.24692464 0
0.0610466 0.36879349 -0.45682669 0
-0.25835013 0.085700989 -0.23383713 0
-0.2109499 0.11624146 -0.23537087 0
-0.017457485 0.44158745 -0.44461024 0
-0.33978677 0.13182068 -0.22103751 0
-0.29964352 0.1711216 -0.21995604 0
-0.084061623 0.49650002 -0.43202913 0
-0.42416334 0.17861938 -0.21035981 0
-0.37797451 0.25648689 -0.22519112 0
-0.35696363 0.30583191 -0.2556057 0
-0.4917984 0.21844673 -0.21232057 0
-0.44886041 0.2720108 -0.2398088 0
-0.41828322 0.36885262 -0.25812876 0
-0.64783716 0.2823925 -0.18281341 0
-0.47434139 0.44832611 -0.27095759 0
-0.46774077 0.49924469 -0.28095603 0
-0.6938827 0.32863998 -0.17323256 0
-0.79788709 0.34410477 -0.1379751 0
-0.76033664 0.37894821 -0.15452981 0
-0.87626719 0.39915848 -0.12447464 0
-0.85287094 0.45853806 -0.12957549 0
-0.95499468 0.4615097 -0.11743557 0
0.95917606 -0.49231911 -0.34602499 0
0.97910547 -0.39804268 -0.35435545 0
0.85612154 -0.43926048 -0.33152688 0
0.8887682 -0.3673172 -0.34701991 0
0.95417738 -0.27182388 -0.36820817 0
0.77003908 -0.3955307 -0.32769561 0
0.80022049 -0.31698036 -0.33994043 0
0.85618639 -0.23260689 -0.35737693 0
0.70301342 -0.32843208 -0.32825184 0
0.7213397 -0.26949501 -0.34298968 0
0.78736687 -0.20933914 -0.35210788 0
0.66361618 -0.17903328 -0.33845758 0
0.59417534 -0.12044144 -0.3462559 0
0.59053469 -0.079622269 -0.34291267 0
0.54732895 -0.015501022 -0.36661112 0
0.56445742 0.072649002 -0.37500846 0
0.46065331 0.060274124 -0.39597964 0
0.48683405 0.12038803 -0.39056921 0
0.41113472 0.18477631 -0.40427458 0
0.3447361 0.24360275 -0.41766763 0
0.35540628 0.30518913 -0.40511 0
0.26194477 0.30582237 -0.42916262 0
0.2797842 0.36820602 -0.4155978 0
0.13905239 0.39723015 -0.42528474 0
0.1996994 0.41817284 -0.41767049 0
0.057859898 0.43935013 -0.43166029 0
0.1087985 0.47071457 -0.41625834 0
0.9105587 -0.12525177 -0.34480739 0
0.73507929 -0.16401863 -0.28124714 0
0.70834398 -0.1431675 -0.28537738 0
0.7138257 -0.10224915 -0.26117563 0
0.82454491 0.1521759 -0.38958859 0
0.64711905 -0.04458046 -0.28278852 0
0.66529179 0.067831039 -0.3143276 0
0.69771814 0.13451576 -0.35330915 0
0.75746918 0.18981743 -0.3802712 0
0.60874224 0.028299332 -0.28387547 0
0.6128006 0.0801754 -0.34604597 0
0.67105484 0.17321777 -0.3687607 0
0.54020882 0.16885948 -0.36939919 0
0.57688141 0.24179077 -0.36530828 0
0.48366308 0.20975494 -0.37680256 0
0.48479891 0.29419327 -0.37297904 0
0.41524887 0.34292412 -0.38603997 0
0.45631838 0.41342926 -0.37119472 0
0.34347296 0.41187477 -0.39261663 0
0.37490845 0.46139526 -0.37175333 0
0.26397467 0.45994568 -0.39252937 0
0.90364456 -0.029790878 -0.31036341 0
0.80596542 0.10269356 -0.33706391 0
0.87042427 0.19392776 -0.39603448 0
0.9457922 0.2418232 -0.40986681 0
0.66751242 0.011343002 -0.23768091 0
0.79569912 0.23122597 -0.3869369 0
0.86475182 0.30784416 -0.39863324 0
0.72536612 0.28681374 -0.38055611 0
0.82347727 0.36602783 -0.39521849 0
0.66819859 0.33542633 -0.37370372 0
0.7061162 0.42150879 -0.37834251 0
0.55767536 0.37848282 -0.35876918 0
0.61908817 0.47613525 -0.36578465 0
0.4800148 0.45952034 -0.35654187 0
0.92879009 0.41482353 -0.37482512 0
0.8491869 0.4747982 -0.36996782 0
0.98008871 0.47272491 -0.33143497 0
0.083801746 -0.45526886 -0.42189807 0
0.0034942627 -0.47712135 -0.41174781 0
-0.03715086 -0.40761948 -0.40367138 0
-0.12135434 -0.4276619 -0.39094478 0
-0.18130445 -0.33013725 -0.38050711 0
-0.22541571 -0.25801659 -0.38633978 0
-0.28009748 -0.19214249 -0.39001954 0
-0.24994302 -0.32722855 -0.37428296 0
-0.28322053 -0.25320053 -0.38015163 0
-0.33512735 -0.18898964 -0.38476431 0
-0.38407063 -0.11674881 -0.3864156 0
-0.453758 -0.10325623 -0.36857247 0
-0.4944551 -0.053667068 -0.3668524 0
-0.60387063 0.011711121 -0.34655082 0
0.32216454 -0.44324875 -0.43445873 0
0.28411579 -0.36933708 -0.43112284 0
0.23359442 -0.47397995 -0.44231403 0
0.20558739 -0.37151527 -0.43162608 0
0.14519024 -0.29046249 -0.41899109 0
0.098236561 -0.40198326 -0.42054415 0
0.07380867 -0.3305378 -0.41238201 0
0.037579536 -0.23607635 -0.40502107 0
-0.030801296 -0.16397667 -0.40377152 0
-0.026891708 -0.35181046 -0.39997661 0
-0.070010185 -0.28013039 -0.39320028 0
-0.1021471 -0.17224884 -0.40083635 0
-0.16008186 -0.10330963 -0.39317656 0
-0.15718341 -0.27253723 -0.39096093 0
-0.18092251 -0.21999168 -0.39188671 0
-0.23782301 -0.13552856 -0.39730525 0
-0.28729105 -0.046892166 -0.3799212 0
-0.3109386 -0.15415001 -0.38707483 0
-0.35830617 -0.058328629 -0.38617814 0
-0.41300225 -0.0069999695 -0.35816324 0
-0.48765135 0.014772415 -0.34620988 0
-0.54876947 0.056623459 -0.3276552 0
-0.61600113 0.065248489 -0.33127475 0
-0.6682775 0.1146183 -0.30490625 0
-0.73458767 0.11855888 -0.31013942 0
-0.79556346 0.17687988 -0.28267241 0
-0.86147332 0.23006439 -0.27366269 0
-0.83670974 0.20742798 -0.22509217 0
-0.90726066 0.24569893 -0.27076733 0
-0.968081 0.31731224 -0.25953436 0
0.56388712 -0.4587326 -0.38424027 0
0.48270369 -0.44201469 -0.39362675 0
0.41901875 -0.3734951 -0.39602268 0
0.37883234 -0.29151344 -0.39460659 0
0.41255283 -0.45849991 -0.41253084 0
0.35244846 -0.37779617 -0.40818357 0
0.30945587 -0.31091118 -0.41156369 0
0.2651453 -0.22386742 -0.41214335 0
0.23541355 -0.12876892 -0.41411418 0
0.17107248 -0.23350525 -0.41665149 0
0.13138866 -0.18367386 -0.40035689 0
0.08916378 -0.16037941 -0.35329545 0
0.0033245087 -0.1307373 -0.36358368 0
-0.065189838 -0.097133636 -0.39130521 0
-0.053235054 -0.098798752 -0.34299481 0
-0.12999344 -0.0623703 -0.33142197 0
-0.18335581 -0.040231705 -0.36797881 0
-0.18667936 -0.047924042 -0.33025384 0
-0.25129318 -0.008348465 -0.29894733 0
-0.31048584 0.014572144 -0.27674115 0
-0.38285542 0.047235489 -0.2764864 0
-0.44024181 0.058057785 -0.2792623 0
-0.49180079 0.10187912 -0.25474739 0
-0.55408835 0.16434097 -0.21502399 0
-0.58001566 0.11696434 -0.24975729 0
-0.62332678 0.15878868 -0.22439611 0
-0.66906452 0.21593285 -0.18235171 0
-0.70249677 0.1669445 -0.2259258 0
-0.75385809 0.21348 -0.19847333 0
-0.80640078 0.26759338 -0.17702663 0
-0.84515715 0.21957016 -0.21180701 0
-0.85548091 0.27920532 -0.18918931 0
-0.92988825 0.35218811 -0.18913162 0
0.70727921 -0.44122696 -0.34525812 0
0.65762901 -0.46921349 -0.35964251 0
0.61367035 -0.38372803 -0.35772419 0
0.55328608 -0.30956459 -0.36925149 0
0.49858475 -0.21012497 -0.37721395 0
0.45544052 -0.12350082 -0.38948715 0
0.40293217 -0.038124084 -0.40998363 0
0.35900974 0.051734924 -0.42747813 0
0.31621981 0.11575508 -0.44008267 0
0.56369829 -0.45590973 -0.3628695 0
0.53126717 -0.40390778 -0.37135351 0
0.4732399 -0.33312607 -0.37675929 0
0.42765713 -0.24798393 -0.38572443 0
0.37346601 -0.15538788 -0.39644897 0
0.3281951 -0.069478989 -0.41655475 0
0.30695438 0.013971329 -0.42434067 0
0.26593781 0.1243248 -0.44329125 0
0.2145195 0.21917725 -0.45416659 0
0.13143063 0.28936195 -0.46478146 0
0.26586533 -0.10513306 -0.41050339 0
0.045106411 0.35719299 -0.46155477 0
-0.0074901581 0.42063141 -0.45220977 0
-0.079016209 0.44557953 -0.44558287 0
-0.095432758 0.48345375 -0.43664074 0
0.086025715 -0.12688065 -0.31910241 0
0.034079552 -0.066951752 -0.29419661 0
-0.016798973 0.0067539215 -0.27192783 0
-0.032824516 -0.076574326 -0.29917872 0
-0.092897415 -0.026275635 -0.27628624 0
-0.12659359 0.040904999 -0.25507724 0
-0.16783094 -0.013399124 -0.27778745 0
-0.21312499 0.046257019 -0.25095534 0
-0.25595379 0.11061287 -0.2336756 0
-0.30819225 0.20292473 -0.22476375 0
-0.39370847 0.30564308 -0.27247465 0
-0.41426992 0.39151573 -0.33237398 0
-0.46517563 0.44063187 -0.33079886 0
-0.34218407 0.098922729 -0.23365688 0
-0.38340235 0.17492485 -0.21982598 0
-0.41356707 0.26659775 -0.23370135 0
-0.45189595 0.36699295 -0.27281892 0
-0.49567533 0.44972038 -0.30360317 0
-0.46063232 0.16044426 -0.21555436 0
-0.52003407 0.19512939 -0.21236014 0
-0.59098983 0.20596123 -0.19974864 0
-0.65135884 0.26236343 -0.18602121 0
-0.71101189 0.33356094 -0.17418897 0
-0.73480296 0.27414322 -0.16464424 0
-0.77822113 0.32918549 -0.15338576 0
-0.81078267 0.41937637 -0.14448702 0
-0.86429119 0.47917747 -0.1343118 0
-0.85732055 0.34134865 -0.14322782 0
-0.8907342 0.39563179 -0.13350749 0
-0.94869328 0.48043633 -0.12034106 0
0.98338032 -0.40390396 -0.3621273 0
0.93001795 -0.35667038 -0.36259985 0
0.88374138 -0.44864464 -0.34043872 0
0.86033487 -0.35310745 -0.35064149 0
0.78945637 -0.25003815 -0.35192382 0
0.73307705 -0.20401955 -0.34986126 0
0.80845642 -0.49156761 -0.32895601 0
0.74290752 -0.402565 -0.33566904 0
0.70922136 -0.31593132 -0.34797585 0
0.65213823 -0.21955109 -0.3534987 0
0.61042404 -0.13907623 -0.35634017 0
0.5670681 -0.055410385 -0.37190068 0
0.52029085 0.044818878 -0.38411283 0
0.46937084 0.12829018 -0.39914238 0
0.43419647 0.17134285 -0.40523088 0
0.57469559 -0.24176407 -0.35597849 0
0.55007935 -0.17063141 -0.37360394 0
0.5048995 -0.080234528 -0.3868618 0
0.4584775 -0.0029907227 -0.39642262 0
0.41224432 0.0890522 -0.41239011 0
0.35381699 0.18153954 -0.42542374 0
0.30721283 0.2631588 -0.42541873 0
