# .PCD v0.7 - Point Cloud Data file format
VERSION 0.7
FIELDS x y z intensity
SIZE 4 4 4 4
TYPE F F F F
COUNT 1 1 1 1
WIDTH 1288
HEIGHT 1
VIEWPOINT 0 0 0 1 0 0 0
POINTS 1288
DATA ascii
-0.62395859 -0.31312108 -0.39709729 0
-0.57295752 -0.299366 -0.38631231 0
-0.47732449 -0.28952479 -0.37595534 0
-0.35246563 -0.28155255 -0.37393355 0
-0.28841829 -0.26429939 -0.36435664 0
-0.14063597 -0.26061273 -0.35269743 0
0.018633366 -0.25959945 -0.34977651 0
0.63257408 -0.16068053 -0.33315367 0
0.76222801 -0.14916992 -0.31851703 0
0.81958771 -0.16833901 -0.31090176 0
0.98092127 -0.14702487 -0.27610886 0
-0.6265831 -0.22946167 -0.39203304 0
-0.57932615 -0.20217013 -0.39003068 0
-0.47610044 -0.18223453 -0.3854335 0
-0.36867762 -0.17735791 -0.3779459 0
-0.29509783 -0.17451262 -0.37038404 0
-0.16444683 -0.15756845 -0.36859936 0
-0.10200644 -0.16978216 -0.35342693 0
0.05611515 -0.17525196 -0.34886533 0
0.11447859 -0.13983989 -0.35858923 0
0.32032824 -0.094396114 -0.3567301 0
0.54875422 -0.063603878 -0.35287762 0
0.63625193 -0.10242438 -0.33270705 0
0.6770525 -0.028044224 -0.33766717 0
0.80239439 -0.057296991 -0.31009549 0
0.87459612 -0.078946829 -0.29927981 0
-0.56726265 -0.091186523 -0.39836526 0
-0.49974966 -0.088295221 -0.3912189 0
-0.39568615 -0.083668947 -0.38592768 0
-0.2965951 -0.077703476 -0.3801319 0
-0.18438673 -0.048503876 -0.37243354 0
-0.085913181 -0.074052095 -0.36512232 0
-0.022894382 -0.040178537 -0.36118186 0
0.14747858 -0.04766345 -0.35792297 0
0.34133959 -0.052451372 -0.35748678 0
0.38365936 0.0023510456 -0.36238396 0
0.65192652 0.051200867 -0.32943028 0
0.67019701 0.0074717999 -0.33468109 0
0.79114437 0.042497396 -0.31607372 0
0.90306664 0.058705807 -0.29716456 0
-0.5668211 0.0013480186 -0.39727408 0
-0.51050949 0.018550634 -0.39257264 0
-0.37897825 0.036054373 -0.39080727 0
-0.29634762 0.037655115 -0.38457668 0
-0.20792437 0.056172848 -0.37861395 0
-0.10438395 0.038539648 -0.37102562 0
0.026284695 0.068573475 -0.36578751 0
0.19996262 0.073747635 -0.36291057 0
0.3463726 0.10996675 -0.35522091 0
0.81685734 0.13014245 -0.31719273 0
0.9271431 0.17691231 -0.29657513 0
-0.56591558 0.075180292 -0.39755666 0
-0.51252031 0.12329268 -0.40059876 0
-0.39661932 0.1352427 -0.39262116 0
-0.28853703 0.14062309 -0.38547814 0
-0.20989561 0.1384449 -0.37770373 0
-0.081548214 0.1376183 -0.37342143 0
0.038827419 0.14189196 -0.36620778 0
0.086344719 0.20569277 -0.37308025 0
0.18787909 0.18002033 -0.36062694 0
0.32158375 0.22792363 -0.35175496 0
0.36893034 0.20033741 -0.35911196 0
0.82328606 0.2370646 -0.31557244 0
0.95914602 0.27406096 -0.29954869 0
-0.50905371 0.21133924 -0.40451157 0
-0.42518806 0.20217514 -0.39371735 0
-0.27043867 0.21816349 -0.38892752 0
-0.20481873 0.23904681 -0.38935596 0
-0.15752411 0.26799297 -0.3865642 0
-0.047318935 0.24040866 -0.37806588 0
0.086341858 0.25851464 -0.37209004 0
0.24043655 0.29038119 -0.36781859 0
0.34203434 0.28646016 -0.35553986 0
0.95788574 0.38722634 -0.29739171 0
-0.51485109 0.29480481 -0.404369 0
-0.45438528 0.3191154 -0.39523894 0
-0.34726095 0.31990647 -0.39918894 0
-0.23575783 0.33752942 -0.39667076 0
-0.10171938 0.36852384 -0.39683485 0
0.014636993 0.36255813 -0.3884635 0
0.032410622 0.33685303 -0.39118814 0
0.14457226 0.36336017 -0.38114452 0
0.26543903 0.35949564 -0.37080079 0
0.90989256 0.42971635 -0.29120868 0
0.93215132 0.49879551 -0.29639238 0
-0.52197647 0.41204619 -0.40621305 0
-0.44952631 0.40978312 -0.38651609 0
-0.33627272 0.43086815 -0.38483316 0
-0.25647688 0.41227126 -0.39584261 0
-0.14348221 0.47293425 -0.39408839 0
-0.066866875 0.4419632 -0.40387708 0
-0.48425531 -0.48342991 -0.28211761 0
-0.61848354 -0.43663216 -0.36849123 0
-0.56029797 -0.41045904 -0.35498387 0
-0.46661901 -0.41414547 -0.31549948 0
-0.38502121 -0.37118697 -0.30915898 0
-0.30100393 -0.33734536 -0.31928772 0
-0.66149139 -0.27467847 -0.38747472 0
-0.5393281 -0.34252858 -0.37762672 0
-0.45094585 -0.49673724 -0.23485929 0
-0.39873695 -0.47686124 -0.19543123 0
-0.43591976 -0.42015743 -0.25031084 0
-0.34476805 -0.41486859 -0.222449 0
-0.27292967 -0.47656727 -0.10952151 0
0.5619421 -0.45221186 -0.36665106 0
0.46835423 -0.38872027 -0.38448 0
0.57498026 -0.39010739 -0.36486089 0
0.63589048 -0.35570002 -0.35648578 0
0.47335815 -0.27661419 -0.38070458 0
0.52480698 -0.2784512 -0.37083071 0
0.5771904 -0.27881622 -0.36078095 0
0.68539095 -0.29114962 -0.34387028 0
0.81702948 -0.26770306 -0.32043904 0
0.47416258 -0.20947027 -0.37858337 0
0.59996462 -0.14955258 -0.36100626 0
0.67877293 -0.18071747 -0.33926523 0
0.54704905 -0.072925806 -0.35000008 0
0.55975485 -0.11951947 -0.35312933 0
0.66391993 -0.045179605 -0.33264375 0
0.55502653 -0.015280962 -0.34909278 0
0.70938253 0.058794022 -0.33587795 0
0.82608938 0.018424273 -0.31058925 0
0.97198629 0.022881031 -0.28616339 0
0.39324141 0.10736275 -0.3645665 0
0.57269526 0.092775106 -0.34818131 0
0.71023703 0.18271804 -0.33141547 0
0.74007177 0.15528274 -0.33770847 0
0.8557868 0.16780233 -0.30870223 0
0.9922576 0.14514399 -0.28271765 0
0.61714125 0.22720456 -0.35264927 0
0.62555695 0.22854376 -0.35426742 0
0.72114372 0.24620867 -0.33177084 0
0.84804916 0.2446878 -0.30476773 0
0.61313534 0.3296473 -0.35156602 0
0.74340677 0.3395288 -0.33400446 0
0.89484978 0.36286426 -0.31045884 0
0.38033724 0.39357138 -0.35864609 0
0.58799601 0.38016009 -0.3488059 0
0.60671854 0.4457593 -0.35116744 0
0.73703051 0.46086812 -0.33287466 0
0.84859228 0.43561077 -0.30378819 0
0.13381481 0.49081826 -0.39532125 0
0.28403044 0.47105241 -0.38172764 0
0.44574881 0.49653363 -0.36728913 0
0.64529657 -0.4433341 -0.34501642 0
0.75426626 -0.4651885 -0.32174152 0
0.88108206 -0.4676199 -0.29915422 0
0.88374329 -0.40897417 -0.2949934 0
0.79382706 -0.35849428 -0.32187057 0
0.89287853 -0.35460711 -0.29283768 0
0.76987028 -0.23542666 -0.31081969 0
0.90980291 -0.26380706 -0.29016554 0
-0.062203884 -0.22014618 -0.35436261 0
0.22790194 -0.17782545 -0.35268903 0
0.79864502 -0.15911126 -0.31408292 0
0.94806957 -0.12267399 -0.29127926 0
-0.37953901 -0.18362665 -0.38419014 0
-0.29632759 -0.19551277 -0.37264836 0
-0.18369484 -0.15852857 -0.36208659 0
-0.02215147 -0.14911008 -0.35329622 0
0.30638456 -0.091896772 -0.35864198 0
0.65218973 -0.10590172 -0.3327986 0
0.77963591 -0.078291416 -0.3075636 0
0.95646381 -0.032575607 -0.2868706 0
-0.45751476 -0.082958698 -0.39038587 0
-0.35135555 -0.065663815 -0.38227862 0
-0.22482681 -0.054530144 -0.3769598 0
-0.13815928 -0.041386843 -0.36265063 0
0.026297569 -0.07362628 -0.35528612 0
0.068443775 -0.025824547 -0.35983247 0
0.38919735 0.023659945 -0.36532509 0
0.54141951 0.025687218 -0.34474021 0
0.80501461 0.058738708 -0.30405283 0
0.93906784 0.059651375 -0.27712613 0
-0.4223671 -0.0071997643 -0.38546324 0
-0.34329891 0.036209583 -0.38069779 0
-0.20428658 0.036361456 -0.37695384 0
-0.1028142 0.084518909 -0.36368835 0
-0.064136982 0.068481445 -0.37116671 0
0.10780239 0.069274426 -0.36229092 0
0.14045191 0.080272675 -0.36652678 0
-0.5464735 0.12063694 -0.39690614 0
-0.4158411 0.10853076 -0.39377218 0
-0.30808258 0.13295817 -0.38553137 0
-0.18827391 0.13962007 -0.37762809 0
-0.03042841 0.17430782 -0.37356108 0
0.13618088 0.19634128 -0.36448008 0
0.35673046 0.19233871 -0.35867459 0
-0.52054882 0.20252109 -0.40182221 0
-0.41620541 0.21302819 -0.39393806 0
-0.28565931 0.19830632 -0.38907945 0
-0.27860975 0.25217223 -0.38978142 0
-0.16065502 0.22127175 -0.38053203 0
0.04476881 0.26620507 -0.38383621 0
0.18843174 0.28037429 -0.37028581 0
0.35967636 0.32452869 -0.3582316 0
-0.53321075 0.30656433 -0.4024201 0
-0.46682596 0.34359765 -0.39778078 0
-0.39100218 0.3036263 -0.39914387 0
-0.25454235 0.31907821 -0.39378023 0
-0.15437937 0.34520292 -0.39566123 0
-0.093482494 0.36741376 -0.3903811 0
0.071694851 0.35915422 -0.38615018 0
0.23428106 0.3635509 -0.3756234 0
-0.54448175 0.39833426 -0.40416002 0
-0.47576475 0.41692615 -0.38381559 0
-0.32812738 0.44626951 -0.38969219 0
-0.30230951 0.39759135 -0.38999504 0
-0.061637402 0.47455096 -0.39732563 0
-0.59172773 -0.49978304 -0.34924972 0
-0.6503973 -0.40754211 -0.39727223 0
-0.57779789 -0.41173971 -0.36459863 0
-0.48944378 -0.42231345 -0.32030654 0
-0.40551424 -0.36527705 -0.33920467 0
-0.31637478 -0.3554337 -0.31266415 0
-0.14862394 -0.32765913 -0.34950966 0
-0.65340376 -0.28642917 -0.3894459 0
-0.56854916 -0.30379319 -0.38833332 0
-0.45566368 -0.29439664 -0.37694538 0
-0.36467981 -0.31329942 -0.35937089 0
-0.28168583 -0.27801299 -0.36050385 0
-0.12890863 -0.29166651 -0.34915376 0
-0.61622143 -0.1961031 -0.39167184 0
-0.51378441 -0.19954562 -0.38559908 0
-0.39315748 -0.15166736 -0.37886798 0
-0.31030178 -0.16613364 -0.3671096 0
-0.58338261 -0.09163332 -0.39342153 0
-0.4862318 -0.095765829 -0.38554776 0
-0.58569527 -0.014992952 -0.39108223 0
-0.56484079 0.043835878 -0.39398324 0
-0.5921607 0.060477495 -0.38929403 0
-0.47047806 -0.4994328 -0.25871563 0
-0.42009592 -0.48408699 -0.20359695 0
-0.46317101 -0.43147969 -0.28162158 0
-0.42151928 -0.41384244 -0.25689882 0
-0.32631063 -0.41530991 -0.22121328 0
-0.32677031 -0.4918189 -0.11822659 0
0.71529102 -0.42773747 -0.33197081 0
0.83689642 -0.43751431 -0.30536062 0
0.53439522 -0.34760356 -0.38253921 0
0.63353395 -0.36817193 -0.36217272 0
0.74174786 -0.35701537 -0.33268881 0
0.83130884 -0.36137938 -0.29916275 0
0.50513601 -0.27899146 -0.37516773 0
0.60782528 -0.26177049 -0.35393953 0
0.74038649 -0.27719259 -0.32870287 0
0.84079647 -0.20706177 -0.29409868 0
0.87315035 -0.25058246 -0.30096596 0
0.53355742 -0.17119312 -0.3777982 0
0.60262299 -0.17947054 -0.35136986 0
0.7355113 -0.14463758 -0.32557815 0
0.88857985 -0.1067152 -0.30110073 0
0.38597441 -0.077597141 -0.36065304 0
0.49461746 -0.13701391 -0.37042695 0
0.58377981 -0.084971189 -0.34696251 0
0.72629309 -0.059404135 -0.32172877 0
0.87720919 -0.06179142 -0.29548043 0
0.43443775 0.0084502697 -0.36277938 0
0.58568048 0.014368534 -0.34368664 0
0.74243402 -0.0017700195 -0.32153428 0
0.75000906 0.057653189 -0.31990135 0
0.92098761 0.047859907 -0.29733813 0
0.42957544 0.12532902 -0.3617937 0
0.57816315 0.091719151 -0.33958763 0
0.76563787 0.1194129 -0.32011968 0
0.92447805 0.13124204 -0.29349685 0
0.95905447 0.20381999 -0.29678839 0
0.42101622 0.21190953 -0.36151689 0
0.64319181 0.21490216 -0.3483631 0
0.79375219 0.22612381 -0.3222729 0
0.95898199 0.26808667 -0.294846 0
0.36892271 0.2751298 -0.35481256 0
0.63892365 0.32638574 -0.34611177 0
0.75943756 0.2930758 -0.31494075 0
0.81875467 0.38773298 -0.3239736 0
0.97350645 0.34077406 -0.29579645 0
0.045147896 0.34409666 -0.38706625 0
0.23053885 0.36920404 -0.37477362 0
0.43885946 0.40179658 -0.36256534 0
0.63868523 0.42773676 -0.34688181 0
0.79040527 0.44266748 -0.32027233 0
0.98219156 0.45060611 -0.29886597 0
0.10883904 0.45944571 -0.39528215 0
0.28166056 0.48285604 -0.37992889 0
0.48674345 0.49663568 -0.36643004 0
0.76477242 0.49885559 -0.31880188 0
-0.67746353 -0.49492371 -0.41975236 0
-0.15397453 -0.31468225 -0.35217065 0
-0.49581003 -0.2525785 -0.38656211 0
-0.39797306 -0.31497622 -0.3796649 0
-0.27976751 -0.27007866 -0.36210501 0
-0.16693163 -0.29649782 -0.34603387 0
-0.129076 -0.24511814 -0.34812272 0
-0.71897554 -0.1926322 -0.41892374 0
-0.46814203 -0.18495488 -0.38635492 0
-0.37729836 -0.18583608 -0.37315685 0
-0.29861021 -0.18410492 -0.36936617 0
-0.22970104 -0.15085506 -0.36046183 0
-0.069354534 -0.17460561 -0.35066509 0
0.003054142 -0.095551968 -0.35637742 0
-0.70444441 -0.11061478 -0.41848278 0
-0.6119895 -0.092592955 -0.40159529 0
-0.54487658 -0.064204216 -0.3956998 0
-0.43126297 -0.068656921 -0.38698858 0
-0.31938362 -0.077290535 -0.37688816 0
-0.16807604 -0.068002939 -0.36677164 0
0.076034069 -0.0087957382 -0.3624692 0
-0.66912508 0.002270937 -0.42241257 0
-0.61690712 0.0094838142 -0.41291207 0
-0.5373311 0.011842728 -0.3952409 0
-0.39935589 0.041011572 -0.38960081 0
-0.30599928 0.023164511 -0.37562674 0
-0.11802387 0.044018269 -0.36995208 0
0.12026262 0.063037157 -0.36468875 0
-0.62255621 0.098244905 -0.41738629 0
-0.5369339 0.098148823 -0.3944025 0
-0.39365149 0.11976433 -0.3895402 0
-0.26196194 0.14248443 -0.38125694 0
-0.059622765 0.17632127 -0.37538153 0
0.11447334 0.14365792 -0.36389261 0
0.14537287 0.2207489 -0.36648464 0
-0.60908318 0.20072412 -0.42673117 0
-0.53861427 0.20824671 -0.40717709 0
-0.43127394 0.20630765 -0.39780653 0
-0.37981081 0.22806668 -0.39146847 0
-0.21573925 0.24286151 -0.38688314 0
-0.012765408 0.25511718 -0.37994468 0
0.14006758 0.25330567 -0.36321831 0
-0.62946606 0.29315138 -0.43232971 0
-0.57840204 0.29713082 -0.41542488 0
-0.46648932 0.33398795 -0.40019268 0
-0.32743835 0.3076942 -0.3997069 0
-0.15726566 0.35361695 -0.39488953 0
-0.63246346 0.39822793 -0.43014246 0
-0.54526806 0.40056276 -0.40967828 0
-0.45321751 0.41103864 -0.38906205 0
-0.353374 0.46992183 -0.37950027 0
-0.2804203 0.435009 -0.38331616 0
-0.11179447 0.43909955 -0.40194112 0
-0.67503262 0.47367144 -0.43438226 0
-0.47960663 -0.45625722 -0.29996854 0
-0.77324152 -0.4373337 -0.41596919 0
-0.67337894 -0.42781997 -0.40663874 0
-0.5913825 -0.42026329 -0.36570412 0
-0.46085072 -0.40799069 -0.31576157 0
-0.38561678 -0.36084247 -0.32242197 0
-0.75546217 -0.3164475 -0.41861373 0
-0.68920135 -0.32203817 -0.40010208 0
-0.58756685 -0.33780265 -0.3832103 0
-0.44421053 -0.30717826 -0.37057078 0
-0.42603922 -0.27113223 -0.37059695 0
-0.74042034 -0.24693155 -0.41755277 0
-0.69533968 -0.21229839 -0.39973831 0
-0.60916471 -0.20963669 -0.39016378 0
-0.51715183 -0.21179223 -0.37817818 0
-0.38331079 -0.47039604 -0.18063289 0
-0.45874405 -0.43637776 -0.26497483 0
-0.39476109 -0.41496897 -0.23556811 0
0.82419586 -0.41480827 -0.30443525 0
0.61264324 -0.36595702 -0.37015784 0
0.7124157 -0.36519337 -0.33563411 0
0.8493495 -0.34293866 -0.30528367 0
0.58081245 -0.27925873 -0.36292189 0
0.74017715 -0.25377083 -0.3370055 0
0.84602547 -0.24780059 -0.30053723 0
0.54353237 -0.14213586 -0.35521358 0
0.56318712 -0.19590592 -0.3588379 0
0.72082138 -0.15743542 -0.3330158 0
0.83919716 -0.14124441 -0.29832554 0
0.54913664 -0.068032503 -0.35605872 0
0.70116758 -0.062356472 -0.3293373 0
0.86517239 -0.038814068 -0.29851538 0
0.18160248 -0.022735357 -0.35886717 0
0.56552172 0.031180143 -0.35672414 0
0.70997477 -0.0090534687 -0.32811582 0
0.74419928 0.067097902 -0.3309955 0
0.89905643 0.068878651 -0.29907858 0
0.24194145 0.10413599 -0.36415452 0
0.57919025 0.12618852 -0.35656637 0
0.73443508 0.15368629 -0.326379 0
0.89427423 0.18169379 -0.29310691 0
0.9295907 0.15239882 -0.30094951 0
-0.025417328 0.18360567 -0.37371564 0
0.21289825 0.17926979 -0.36155397 0
0.57985926 0.21884537 -0.35683036 0
0.75781393 0.26544571 -0.32830399 0
0.93427038 0.276999 -0.29809761 0
0.07643652 0.29540253 -0.38569897 0
0.22916365 0.26753974 -0.36191189 0
0.49214602 0.28499746 -0.34663016 0
0.52379084 0.36679697 -0.35469079 0
0.7832613 0.36929059 -0.3316614 0
0.9207406 0.36484814 -0.2951532 0
0.061896801 0.32550168 -0.3802532 0
0.14297724 0.40744853 -0.39169669 0
0.32929325 0.40890622 -0.37187064 0
0.52170038 0.41637182 -0.3519426 0
0.75824833 0.45606112 -0.32843471 0
0.89997435 0.46694779 -0.29562038 0
-0.13779259 0.42173195 -0.39582038 0
0.15951157 0.48604894 -0.39172179 0
0.3616004 0.49164796 -0.37314659 0
-0.64669132 -0.49420953 -0.40157247 0
-0.58854437 -0.46519959 -0.39530456 0
-0.86329079 -0.44915283 -0.44011688 0
-0.77008867 -0.42569947 -0.42066759 0
-0.67896175 -0.44343865 -0.41062331 0
-0.59758472 -0.38883901 -0.38647026 0
-0.53909826 -0.34873271 -0.36973679 0
-0.41072178 -0.35535765 -0.34989846 0
-0.332829 -0.32491922 -0.35275573 0
-0.86711359 -0.34352803 -0.44224912 0
-0.79260111 -0.32891548 -0.42915732 0
-0.72252512 -0.31476951 -0.4084323 0
-0.59778547 -0.31730938 -0.39608467 0
-0.49060345 -0.31811261 -0.36425042 0
-0.43750715 -0.29373169 -0.37199235 0
-0.25933504 -0.25526214 -0.36110628 0
-0.083811283 -0.29504323 -0.35049349 0
-0.0053963661 -0.22492933 -0.35315228 0
-0.79627275 -0.21789193 -0.4357118 0
-0.68792915 -0.21078753 -0.4033013 0
-0.54003906 -0.19571233 -0.38550544 0
-0.37598801 -0.19311881 -0.37639529 0
-0.34586811 -0.14421892 -0.37825483 0
-0.21885204 -0.17975855 -0.36116409 0
0.094168186 -0.12537456 -0.35629117 0
-0.7884407 -0.12579894 -0.44021416 0
-0.69419909 -0.13092303 -0.41153181 0
-0.64513254 -0.10532904 -0.40206569 0
-0.48492622 -0.082402945 -0.38977969 0
-0.31051016 -0.075139284 -0.37991101 0
-0.15028143 -0.060210943 -0.36443067 0
-0.78307533 -0.049109697 -0.44599938 0
-0.7114625 -0.011497498 -0.43688029 0
-0.61343575 0.0012860298 -0.40902561 0
-0.48444605 -0.0077011585 -0.3873015 0
-0.46042013 0.062323093 -0.39007467 0
-0.27863789 -0.0012557507 -0.38218403 0
-0.26822948 0.044276714 -0.38262719 0
-0.073149204 0.079761028 -0.37047213 0
-0.73105955 0.074076653 -0.44742829 0
-0.652349 0.10052395 -0.42305356 0
-0.56332731 0.10587168 -0.40262806 0
-0.43213606 0.12101531 -0.3943103 0
-0.2614274 0.13133287 -0.38206244 0
-0.73670149 0.19405031 -0.45494798 0
-0.63206387 0.19499683 -0.42877257 0
-0.53521061 0.1998322 -0.40691882 0
-0.43052387 0.20712543 -0.39438266 0
-0.20659399 0.2460866 -0.38831466 0
-0.18513346 0.2906363 -0.39018142 0
-0.72776747 0.29824829 -0.45956132 0
-0.65317345 0.29828572 -0.43765473 0
-0.552917 0.30250502 -0.41312057 0
-0.46195698 0.34495354 -0.39525449 0
-0.38598299 0.31264377 -0.40187037 0
-0.16693544 0.34200668 -0.39150393 0
-0.72251749 0.38996363 -0.46438241 0
-0.65918541 0.39116788 -0.43423164 0
-0.54422045 0.41948056 -0.41249579 0
-0.48333073 0.40178323 -0.39440972 0
-0.3618288 0.45060563 -0.38001823 0
-0.76101446 0.47974682 -0.4642857 0
-0.67588329 0.49309039 -0.43750125 0
-0.47438526 0.49230623 -0.38461763 0
-0.58658075 -0.49942851 -0.33168322 0
-0.47674322 -0.48218143 -0.27920198 0
-0.57604885 -0.42924738 -0.34839576 0
-0.48008633 -0.41673779 -0.30932987 0
-0.42131519 -0.39820814 -0.28559232 0
-0.34485817 -0.34518719 -0.33207297 0
-0.41895199 -0.49134803 -0.19014043 0
-0.30650139 -0.45028019 -0.15898836 0
-0.40346193 -0.42905855 -0.21336764 0
-0.37056398 -0.49112439 -0.11617571 0
0.81579208 -0.41829038 -0.3190847 0
0.58479691 -0.33803511 -0.3776648 0
0.66239834 -0.38792467 -0.33970231 0
0.81386995 -0.35948968 -0.31464499 0
0.53014994 -0.30049038 -0.36706823 0
0.69269991 -0.26298285 -0.34081411 0
0.81399488 -0.2571373 -0.30930084 0
0.98343468 -0.22418976 -0.27451563 0
0.52024364 -0.22831678 -0.3640216 0
0.57616997 -0.13588214 -0.37247437 0
0.68981123 -0.1580379 -0.338902 0
0.83408213 -0.13871288 -0.3108511 0
0.52814579 -0.096528053 -0.36395121 0
0.68306828 -0.050665379 -0.33587867 0
0.81630993 -0.077593803 -0.30572087 0
0.81598473 -0.019708395 -0.3009364 0
0.49788713 -0.0080728531 -0.35707313 0
0.71580124 0.056945562 -0.33591688 0
0.87609339 0.073507547 -0.30650133 0
0.51329994 0.13095474 -0.35878813 0
0.69374704 0.16449976 -0.3264097 0
0.72281027 0.11907005 -0.33387047 0
0.90448904 0.15194845 -0.30697238 0
0.48008394 0.21614361 -0.35501015 0
0.72255707 0.24437737 -0.32888693 0
0.90672588 0.25691962 -0.30234265 0
0.17177391 0.31123495 -0.37354273 0
0.46149778 0.32081413 -0.35499221 0
0.74065781 0.35090733 -0.32914132 0
0.91131783 0.35400629 -0.29977357 0
0.20600653 0.37150288 -0.37394971 0
0.5287118 0.4392972 -0.35917479 0
0.7528038 0.46478105 -0.33065331 0
0.91805696 0.47161412 -0.30308163 0
0.032105446 0.49738741 -0.39977062 0
0.29905033 0.49078727 -0.3819555 0
-0.90859604 0.48669147 -0.52567816 0
-0.99125481 -0.4422344 -0.47844586 0
-0.91967344 -0.43189144 -0.45458221 0
-0.83206558 -0.41566658 -0.44465715 0
-0.28586721 -0.3269701 -0.35685247 0
-0.99998236 -0.34374845 -0.48504308 0
-0.90779686 -0.33961034 -0.46410686 0
-0.83927774 -0.2970078 -0.44873303 0
-0.26727438 -0.29253459 -0.35478884 0
-0.19888544 -0.22151685 -0.35988218 0
-0.8995924 -0.24127865 -0.46555135 0
-0.81506348 -0.21419501 -0.44523656 0
-0.51197529 -0.17311931 -0.39123631 0
-0.39536762 -0.20173168 -0.37416744 0
-0.13661098 -0.13884377 -0.36186987 0
-0.99485111 -0.14753413 -0.50194609 0
-0.91304159 -0.1385293 -0.48003164 0
-0.81436682 -0.12619185 -0.44742215 0
-0.72748327 -0.12962604 -0.43175107 0
-0.63676882 -0.08326149 -0.41099572 0
-0.5130434 -0.13855958 -0.38749546 0
-0.47007465 -0.060942888 -0.39080697 0
-0.32662106 -0.095892191 -0.3762579 0
-0.093017101 -0.029599428 -0.35616988 0
-0.070388794 -0.047905445 -0.36445725 0
-0.92165661 -0.028791666 -0.49894822 0
-0.85444593 -0.023489237 -0.4780522 0
-0.74601412 -0.020034552 -0.44661665 0
-0.63242674 -0.0097761154 -0.4079715 0
-0.43924761 0.034206867 -0.39143437 0
-0.28146887 0.0054330826 -0.37692714 0
-0.0014567375 0.065379858 -0.36605471 0
0.011415482 0.10929942 -0.36327028 0
-0.95260334 0.052303553 -0.50628078 0
-0.8420186 0.083942175 -0.48526445 0
-0.73128986 0.075207949 -0.45182514 0
-0.64106226 0.10475159 -0.43106246 0
-0.5485878 0.12473536 -0.40817297 0
-0.40720367 0.1211822 -0.39378679 0
-0.38919353 0.17122722 -0.39550817 0
-0.21879101 0.12834644 -0.38258862 0
0.089716911 0.18833613 -0.37118512 0
-0.94580698 0.17216897 -0.50872284 0
-0.83590555 0.18040419 -0.48698956 0
-0.77292585 0.17426181 -0.4663749 0
-0.66740417 0.20735025 -0.44872016 0
-0.58896446 0.1978724 -0.42033529 0
-0.51701069 0.2500515 -0.41105604 0
-0.38846493 0.23246121 -0.3932178 0
-0.1648078 0.23504424 -0.38466609 0
0.14178514 0.25858712 -0.37359679 0
-0.93426466 0.28281307 -0.51324034 0
-0.86082506 0.25036573 -0.49732864 0
-0.76321888 0.29318714 -0.47164443 0
-0.67987394 0.27115655 -0.43724281 0
-0.60494518 0.32978058 -0.42973834 0
-0.48861742 0.33501959 -0.40631831 0
-0.33046627 0.31693769 -0.39836293 0
-0.070360661 0.35818219 -0.3912015 0
-0.93754196 0.38766789 -0.51681244 0
-0.88116789 0.37031341 -0.49829203 0
-0.76319981 0.38858795 -0.47286728 0
-0.69553423 0.39916039 -0.4488444 0
-0.58044338 0.3995378 -0.42015707 0
-0.46370029 0.42347932 -0.39123094 0
-0.38812351 0.47518349 -0.37147975 0
-0.96379519 0.45599461 -0.5166626 0
-0.88456392 0.48511171 -0.50298429 0
-0.80416059 0.46593046 -0.4789798 0
-0.57603645 0.49189782 -0.41899914 0
-0.60567951 -0.49240243 -0.35629702 0
-0.49479246 -0.4741888 -0.30042404 0
-0.93733978 -0.48257446 -0.45428127 0
-0.80419636 -0.43753207 -0.42772228 0
-0.6969161 -0.41040123 -0.4063822 0
-0.59351635 -0.39660501 -0.37119442 0
-0.50940943 -0.4228611 -0.32175821 0
-0.43037271 -0.38676548 -0.31971669 0
-0.80795765 -0.32701802 -0.4288137 0
-0.73168707 -0.32041502 -0.40680921 0
-0.58283567 -0.30435133 -0.38695598 0
-0.45472431 -0.29753351 -0.37274975 0
-0.73851585 -0.23306656 -0.41304231 0
-0.65506744 -0.17720699 -0.40283167 0
-0.55935431 -0.22839141 -0.38720685 0
-0.66205502 -0.10997534 -0.39695281 0
-0.42753744 -0.48046541 -0.20992023 0
-0.48397827 -0.43584633 -0.272098 0
-0.42315435 -0.42257404 -0.23912406 0
-0.35320091 -0.48331118 -0.12511665 0
0.89050055 -0.40023875 -0.28935134 0
0.77321529 -0.3557694 -0.33237922 0
0.9242363 -0.31081605 -0.29048634 0
0.62048817 -0.27555442 -0.35728931 0
0.7565155 -0.26332784 -0.32501394 0
0.91690731 -0.24619985 -0.28529501 0
0.56796503 -0.16051316 -0.34747672 0
0.70192146 -0.18409896 -0.31507409 0
0.93998146 -0.12208343 -0.28496021 0
0.55596399 -0.044847488 -0.34484172 0
0.74280071 -0.046772957 -0.31944197 0
0.95732403 -0.012891054 -0.28049392 0
0.59632587 0.03686142 -0.34773612 0
0.72488117 0.03651762 -0.3095513 0
0.98558807 0.070545197 -0.27969724 0
0.15458679 0.071158648 -0.36414987 0
0.60290432 0.13747478 -0.34455794 0
0.80555964 0.13702607 -0.31933755 0
0.99774027 0.13830519 -0.27709776 0
0.15083504 0.16738367 -0.36501294 0
0.62349129 0.24820399 -0.34451348 0
0.80684471 0.24429893 -0.3150968 0
0.22238255 0.2957263 -0.36626059 0
0.61228418 0.30776072 -0.34086359 0
0.84617472 0.3718791 -0.31815046 0
-0.96498394 0.26891732 -0.53131235 0
0.0069441795 0.39447641 -0.39092934 0
0.31201077 0.40741301 -0.37013561 0
0.66115046 0.43109775 -0.34758991 0
0.81273365 0.46279955 -0.31391776 0
0.037005424 0.47139645 -0.38560671 0
-0.63708782 -0.49329364 -0.40086108 0
-0.9042058 -0.44276977 -0.45999753 0
-0.81899834 -0.42504454 -0.43132889 0
-0.71963263 -0.40584791 -0.41482961 0
-0.61366796 -0.42248762 -0.39865398 0
-0.25836086 -0.31303239 -0.35187048 0
-0.93491316 -0.3386997 -0.46048498 0
-0.82937288 -0.30210841 -0.43898821 0
-0.69708061 -0.32562947 -0.41553658 0
-0.60430479 -0.32603574 -0.39649564 0
-0.48560381 -0.30377412 -0.36901236 0
-0.40093136 -0.22961402 -0.37792516 0
-0.17605257 -0.21925116 -0.35427123 0
-0.92698002 -0.21504641 -0.47069162 0
-0.82349396 -0.20809793 -0.44960982 0
-0.73377943 -0.21803379 -0.41912889 0
-0.63370848 -0.19279051 -0.39708173 0
-0.39045668 -0.16131353 -0.3680374 0
-0.37020588 -0.17702055 -0.37630033 0
-0.082703114 -0.11952806 -0.35982996 0
-0.9085145 -0.12711835 -0.47882584 0
-0.87423611 -0.14762449 -0.46817419 0
-0.74839306 -0.11190033 -0.44231898 0
-0.67711878 -0.093537807 -0.4049179 0
-0.56005526 -0.087553978 -0.39059937 0
-0.30220747 -0.07263732 -0.37674457 0
-0.03632164 -0.062869549 -0.35920793 0
0.056995392 -0.00032520294 -0.36194408 0
-0.93424511 -0.052831888 -0.49423602 0
-0.83528662 -0.050578594 -0.47120768 0
-0.7627573 -0.013555527 -0.45107758 0
-0.66572046 0.013499737 -0.41846007 0
-0.53825903 0.023787737 -0.38760805 0
-0.25156593 0.034659624 -0.37732464 0
-0.93667269 0.066526651 -0.50584882 0
-0.85315943 0.055012226 -0.48345032 0
-0.78226376 0.10062289 -0.46590534 0
-0.64982319 0.082477331 -0.41856736 0
-0.56450748 0.15660334 -0.41468036 0
-0.47957611 0.12399483 -0.3942135 0
-0.20462894 0.14981246 -0.37943107 0
-0.95860577 0.17025304 -0.51219928 0
-0.85513735 0.16967869 -0.48295897 0
-0.77282715 0.19120431 -0.46204445 0
-0.67424822 0.20647001 -0.44554573 0
-0.57357693 0.20884109 -0.42316556 0
-0.44130135 0.21643734 -0.39828831 0
-0.15348721 0.22011471 -0.38122082 0
-0.09819603 0.28199673 -0.38364118 0
-0.93472958 0.27581739 -0.50908959 0
-0.85141134 0.26962543 -0.49416453 0
-0.77154922 0.2876873 -0.46886727 0
-0.69008207 0.33122969 -0.44488308 0
-0.57332706 0.3269906 -0.42416149 0
-0.50706387 0.31605244 -0.39141119 0
-0.39513493 0.30256033 -0.40055114 0
-0.99019718 0.35651326 -0.52155066 0
-0.88424873 0.37341022 -0.49917287 0
-0.81027269 0.381392 -0.47652808 0
-0.69042253 0.40743899 -0.44728374 0
-0.5726738 0.40260673 -0.41521591 0
-0.50621462 0.40156937 -0.39374256 0
-0.98295975 0.44475174 -0.52196139 0
-0.89326668 0.4866116 -0.49593192 0
-0.78323555 0.48262239 -0.46877205 0
-0.67130756 0.48313928 -0.43694317 0
-0.52736855 0.49210238 -0.40404356 0
-0.7427454 -0.48800683 -0.41359472 0
-0.51384211 -0.46934533 -0.29765862 0
-0.59783936 -0.412094 -0.37111074 0
-0.53877974 -0.41111732 -0.33503586 0
-0.42502737 -0.37236428 -0.32361233 0
-0.76209736 -0.31953907 -0.40292406 0
-0.63897657 -0.29359174 -0.38994986 0
-0.56544495 -0.33390117 -0.37018555 0
-0.49858427 -0.49550092 -0.25913554 0
-0.43259239 -0.47617042 -0.20349389 0
-0.49914026 -0.4311707 -0.25853264 0
-0.41132545 -0.39588404 -0.2456212 0
-0.33105707 -0.49547577 -0.10337406 0
0.6171608 -0.33267927 -0.35627908 0
0.7564764 -0.32633924 -0.32262045 0
0.92290449 -0.34336042 -0.28117204 0
0.5935545 -0.25542164 -0.35658807 0
0.71890545 -0.26273894 -0.31905633 0
0.94274187 -0.24667621 -0.28555506 0
0.55623198 -0.15050793 -0.35693085 0
0.69693851 -0.19174981 -0.31993252 0
0.9137516 -0.12930226 -0.28538847 0
0.54561615 -0.02135253 -0.36284214 0
0.71213341 -0.041035414 -0.32940859 0
0.90383816 -0.019104004 -0.28541011 0
0.49269438 0.015700102 -0.35674697 0
0.65295267 0.099926233 -0.32311106 0
0.69749498 0.054377079 -0.32884049 0
0.92393541 0.070761204 -0.28930575 0
-0.96033144 -0.018392801 -0.51863337 0
0.32690763 0.14498353 -0.35520548 0
0.4351697 0.093307734 -0.3596375 0
0.69391346 0.1998868 -0.3323943 0
0.9422431 0.19070959 -0.29398763 0
-0.96450806 0.095392704 -0.52233863 0
-0.88424635 0.07933116 -0.50572634 0
0.26917505 0.21851349 -0.35879773 0
0.74789858 0.3115387 -0.34434289 0
0.93671846 0.30299306 -0.29672611 0
-0.089168072 0.29646635 -0.38434774 0
0.22948408 0.2689383 -0.35635972 0
0.28442383 0.35250187 -0.36251032 0
0.67280626 0.35160065 -0.3356685 0
0.95966816 0.40525842 -0.30430257 0
-0.038701057 0.38009071 -0.39034748 0
0.35717297 0.44944739 -0.37200493 0
0.72028399 0.45205665 -0.34701419 0
0.88215113 0.46403909 -0.30062944 0
-0.94136715 0.41731906 -0.51888549 0
0.010596275 0.48343706 -0.39664221 0
-0.80507135 -0.49114227 -0.42776138 0
-0.63149309 -0.48732746 -0.39249045 0
-0.93720722 -0.40462136 -0.46303824 0
-0.86336756 -0.42344999 -0.44166702 0
-0.75152826 -0.40095162 -0.41328377 0
-0.62826633 -0.37135506 -0.39255512 0
-0.56578875 -0.37114596 -0.36036742 0
-0.40566969 -0.3542304 -0.33013666 0
-0.32081413 -0.31246734 -0.35945934 0
-0.92981815 -0.31891394 -0.46322501 0
-0.84904289 -0.31733024 -0.44437683 0
-0.74904966 -0.28863621 -0.41590089 0
-0.54526234 -0.28658342 -0.37944245 0
-0.2672224 -0.23818302 -0.36505032 0
-0.94899845 -0.22886348 -0.48047316 0
-0.85575962 -0.21762037 -0.4527393 0
-0.74665785 -0.18208289 -0.42614955 0
-0.6879425 -0.21660304 -0.40486014 0
-0.51122522 -0.19211054 -0.38452566 0
-0.46626425 -0.11907816 -0.39018798 0
-0.24226713 -0.18072844 -0.36640805 0
-0.20285559 -0.11798239 -0.3707819 0
-0.94611311 -0.12457705 -0.49182343 0
-0.85076046 -0.11964393 -0.46411389 0
-0.75735903 -0.089419842 -0.44090897 0
-0.64426994 -0.10192943 -0.4109149 0
-0.47390509 -0.048167944 -0.38984245 0
-0.18036461 -0.037817717 -0.37174582 0
-0.96495008 -0.0051364899 -0.5046916 0
-0.859869 -0.021293402 -0.47447747 0
-0.72048473 0.012239218 -0.43057281 0
-0.63788033 0.014568329 -0.41201675 0
-0.61478472 0.026210546 -0.41572148 0
-0.48506355 0.050439835 -0.39054376 0
-0.16832304 0.080240011 -0.37321198 0
-0.93463278 0.12089062 -0.50058937 0
-0.83795261 0.08597517 -0.48039183 0
-0.74490166 0.10853863 -0.46252665 0
-0.67009735 0.1158371 -0.42950279 0
-0.50737 0.12149215 -0.38985211 0
-0.15503359 0.16854405 -0.37808353 0
-0.98105907 0.1684258 -0.51479906 0
-0.88346195 0.21079087 -0.49110806 0
-0.76683331 0.2046442 -0.47437251 0
-0.69062138 0.22376776 -0.44133395 0
-0.5764184 0.21626592 -0.4250409 0
-0.46479511 0.23455358 -0.40104795 0
-0.12875366 0.22808743 -0.38041162 0
-0.99438477 0.29159045 -0.51630694 0
-0.8824873 0.31221867 -0.49748769 0
-0.77897596 0.31937623 -0.46877739 0
-0.69081116 0.3296926 -0.44768277 0
-0.60400009 0.31007171 -0.42630816 0
-0.5033021 0.33126593 -0.40197325 0
-0.91494989 0.39587975 -0.50483894 0
-0.8094945 0.41349912 -0.48249057 0
-0.7179265 0.42833233 -0.45174307 0
-0.6356492 0.41275287 -0.42981803 0
-0.51743269 0.44195437 -0.40826106 0
-0.42395544 0.48911905 -0.38399053 0
-0.99562836 0.46532297 -0.51632148 0
-0.83392668 0.48076987 -0.47468108 0
-0.53464031 -0.4693917 -0.30455488 0
-0.43631887 -0.45734334 -0.2573967 0
-0.4318285 -0.39286423 -0.27729368 0
-0.42492676 -0.4599905 -0.19763094 0
-0.37286139 -0.47850227 -0.13309449 0
0.75684547 -0.34219766 -0.32981384 0
0.70191288 -0.28141618 -0.32795322 0
0.67641497 -0.18658233 -0.33451343 0
0.64687109 -0.011661291 -0.34853494 0
-0.90923977 -0.49236727 -0.45230234 0
-0.60463762 -0.48323298 -0.38843489 0
0.90356064 -0.31477857 -0.2862317 0
-0.9836607 -0.41563058 -0.46990323 0
-0.85673141 -0.40750158 -0.44329023 0
-0.73246717 -0.37863016 -0.41402018 0
-0.67218685 -0.39326739 -0.39958984 0
-0.57714176 -0.39016938 -0.38292843 0
-0.40716553 -0.34170008 -0.36812407 0
-0.17926931 -0.33508182 -0.34512442 0
0.90280867 -0.18036032 -0.29648477 0
-0.96046114 -0.31212354 -0.46910661 0
-0.84392977 -0.29820442 -0.44042808 0
-0.74508572 -0.29204345 -0.41772085 0
-0.64454556 -0.2848928 -0.3916834 0
-0.42470503 -0.25339866 -0.37135524 0
-0.15238142 -0.23838449 -0.35172826 0
0.64021397 -0.11721563 -0.33769685 0
0.83771324 -0.11685681 -0.29651642 0
-0.96038723 -0.19882631 -0.48943803 0
-0.88074684 -0.21174073 -0.45857105 0
-0.75293016 -0.22275424 -0.41974217 0
-0.6800971 -0.1782639 -0.40677977 0
-0.36755848 -0.13610363 -0.38387501 0
-0.13552809 -0.10514021 -0.35902697 0
0.84187126 -0.024243116 -0.30301613 0
-0.89057922 -0.10629654 -0.47217664 0
-0.8073082 -0.1306076 -0.45228457 0
-0.69573212 -0.087189674 -0.41462237 0
-0.37807846 -0.052024126 -0.38728124 0
-0.10177374 0.0052993298 -0.36878181 0
0.58694029 0.035444736 -0.34429228 0
0.86533165 0.075400829 -0.31268364 0
-0.90154648 -0.0053632259 -0.49511462 0
-0.79115248 0.0017752647 -0.46127662 0
-0.68533754 0.018627405 -0.44003445 0
-0.62150288 0.039286852 -0.4121415 0
-0.44818735 0.046476603 -0.38753009 0
-0.094007015 0.071903706 -0.37344015 0
0.60137367 0.17048526 -0.35699606 0
0.81948709 0.17409253 -0.31450784 0
-0.92794609 0.10796285 -0.50208342 0
-0.84864855 0.091589451 -0.48957402 0
-0.7279501 0.095766306 -0.45089859 0
-0.61913872 0.12027717 -0.41685617 0
-0.46131563 0.14177394 -0.39485079 0
-0.10971642 0.16974974 -0.38006908 0
0.42352962 0.25963831 -0.35840327 0
0.79158211 0.29522276 -0.32182711 0
-0.95935965 0.17790318 -0.51448834 0
-0.81856012 0.19215846 -0.48143452 0
-0.71498394 0.19408751 -0.44771838 0
-0.59551811 0.2171905 -0.42621708 0
-0.48921251 0.22882533 -0.40025216 0
-0.11062193 0.26393986 -0.38435799 0
0.34505081 0.32482672 -0.36160541 0
0.75536728 0.37315369 -0.3249433 0
-0.94170141 0.2868104 -0.51605356 0
-0.84667492 0.2801671 -0.49089655 0
-0.72114086 0.31137371 -0.45748255 0
-0.60593367 0.33317375 -0.43554091 0
-0.53774929 0.33568287 -0.40530062 0
-0.074157238 0.37571168 -0.39447421 0
0.36563158 0.40294743 -0.36676157 0
0.71507692 0.43671918 -0.32707173 0
0.94547272 0.49336886 -0.29146504 0
-0.92517662 0.39078975 -0.50773931 0
-0.8443861 0.39436507 -0.4877001 0
-0.74741459 0.41678977 -0.4653458 0
-0.67426062 0.46148181 -0.44162983 0
-0.57879114 0.43135214 -0.42961478 0
0.40274811 0.48903704 -0.37502962 0
-0.95388603 0.48402834 -0.52188277 0
-0.87751389 0.49567151 -0.49480027 0
-0.56899452 -0.46502459 -0.33630806 0
-0.47023439 -0.45476794 -0.28119272 0
-0.44113016 -0.38270211 -0.32122195 0
-0.4014616 -0.3705709 -0.27809775 0
-0.478158 0.37969041 -0.38063449 0
-0.47559118 0.45131493 -0.38845342 0
-0.46057177 -0.47749686 -0.22058392 0
-0.39844322 -0.45350075 -0.18922246 0
-0.21838665 -0.47033501 -0.084341407 0
-0.98212337 -0.48968875 -0.48109248 0
-0.84389925 -0.47808158 -0.44323468 0
-0.74956465 -0.43239641 -0.42179972 0
0.72119665 -0.29020071 -0.34012961 0
-0.95376539 -0.38337779 -0.4751395 0
-0.85484791 -0.38863111 -0.45092928 0
-0.7670908 -0.37164485 -0.42629528 0
0.62465096 -0.16737556 -0.34837604 0
-0.99015141 -0.28133118 -0.48891538 0
-0.89504576 -0.31881189 -0.45317793 0
-0.81253719 -0.26549768 -0.44368684 0
0.58587694 -0.094329596 -0.35534185 0
-0.89920187 -0.18190098 -0.47599304 0
-0.77300215 -0.16266966 -0.44557613 0
0.51699066 -0.0023071766 -0.36249739 0
-0.91766262 -0.067173958 -0.49032778 0
-0.79201794 -0.060901642 -0.45278996 0
-0.90326262 0.024883032 -0.50094616 0
-0.86771297 0.072530985 -0.49268517 0
-0.76708078 0.036553144 -0.46489587 0
-0.96958351 0.096311331 -0.51892245 0
-0.88502312 0.1286335 -0.4973484 0
-0.75496101 0.13229299 -0.47602683 0
-0.946208 0.2096808 -0.51759291 0
-0.84249926 0.20719767 -0.48763809 0
-0.92445564 0.36198545 -0.52153063 0
-0.86717415 0.32052875 -0.49904549 0
-0.97120714 0.42322206 -0.5251013 0
-0.87239838 0.44694972 -0.5035733 0
0.92313719 -0.32888651 -0.29382789 0
-0.64718008 -0.39759445 -0.3964985 0
-0.59452534 -0.45092237 -0.37323576 0
-0.49536943 -0.4417119 -0.3035441 0
-0.42075109 -0.36808562 -0.31459016 0
0.88104296 -0.24905562 -0.29932308 0
-0.67825603 -0.32197809 -0.40356058 0
-0.57390785 -0.33888364 -0.37739605 0
-0.53083134 -0.37272501 -0.34361166 0
-0.30762434 -0.2770195 -0.35773659 0
0.8236661 -0.17256737 -0.30480933 0
-0.70414686 -0.25476909 -0.40880346 0
-0.57321024 -0.21671867 -0.38872874 0
-0.27599812 -0.1832788 -0.3663736 0
0.77143764 -0.074173212 -0.31502008 0
0.97934484 -0.061988831 -0.27410394 0
-0.68676567 -0.15777874 -0.41948473 0
-0.62551832 -0.13316298 -0.39398885 0
-0.30617046 -0.092094898 -0.37333971 0
0.75015688 0.0095365047 -0.32296687 0
0.97106838 0.035523653 -0.28517956 0
-0.69534111 -0.049687147 -0.42830873 0
-0.61748648 -0.040766239 -0.40348744 0
-0.32533169 0.016953468 -0.3853693 0
0.29491711 0.067756414 -0.36570227 0
0.66697645 0.147645 -0.33251411 0
0.73040771 0.09867835 -0.33184916 0
0.92264795 0.10630751 -0.28940696 0
-0.70221806 0.089101791 -0.4408859 0
-0.62492943 0.058331966 -0.42913938 0
-0.4399848 0.12490129 -0.39119142 0
-0.36659956 0.079555273 -0.39073479 0
0.10959244 0.11829829 -0.36749214 0
0.66748524 0.25361824 -0.34655911 0
0.86742163 0.28013444 -0.30711722 0
0.92887545 0.21622348 -0.30366033 0
-0.6249423 0.15205526 -0.432625 0
-0.444942 0.20678043 -0.40261889 0
0.034511566 0.23291206 -0.37932777 0
0.57662821 0.3074491 -0.34702498 0
0.85382175 0.37233496 -0.31863636 0
-0.71406174 0.27474666 -0.46071053 0
-0.64242649 0.25029683 -0.44188094 0
-0.52223635 0.31400943 -0.40921152 0
-0.49493027 0.25866055 -0.40462768 0
-0.029229164 0.35258341 -0.38732177 0
0.42995548 0.38427162 -0.35560477 0
0.80621815 0.46735334 -0.32825065 0
0.99666262 0.45925212 -0.2735309 0
-0.74027109 0.35678196 -0.46860239 0
-0.68379307 0.37090397 -0.44235039 0
-0.54601097 0.36910844 -0.4144851 0
-0.50563908 0.42193341 -0.38362378 0
-0.038306713 0.46401429 -0.40025586 0
0.46656275 0.47485328 -0.36855829 0
-0.82784271 0.47076559 -0.47607788 0
-0.74513102 0.4603591 -0.48183301 0
-0.6987834 0.4704082 -0.4544057 0
-0.5796361 0.46140766 -0.42411584 0
-0.43919325 -0.42299843 -0.276079 0
-0.40777731 -0.39894938 -0.24604726 0
-0.36591244 -0.41924191 -0.17700469 0
0.78941536 -0.33166838 -0.32210243 0
-0.99930859 -0.45149338 -0.48448408 0
-0.92766714 -0.4890815 -0.46642673 0
-0.79692841 -0.41190457 -0.4347865 0
-0.72036982 -0.45220053 -0.41648465 0
-0.60509586 -0.41570294 -0.39352393 0
0.71488476 -0.25826907 -0.32949692 0
0.93720913 -0.24127626 -0.2874698 0
-0.98564625 -0.34518921 -0.48097965 0
-0.88177729 -0.34584594 -0.45520818 0
-0.76641846 -0.30418611 -0.4351567 0
-0.62077904 -0.29536033 -0.41023254 0
0.64756536 -0.15560079 -0.34400994 0
0.93783712 -0.11789393 -0.3093369 0
-0.90588474 -0.26797068 -0.46389037 0
-0.81106234 -0.22830653 -0.44225872 0
-0.73002815 -0.23660302 -0.41137689 0
0.5701828 -0.070023537 -0.35503757 0
-0.90001202 -0.16646314 -0.4784998 0
-0.82467699 -0.13752055 -0.45384932 0
-0.7456398 -0.11024261 -0.42814344 0
0.52475691 0.010005236 -0.36696893 0
-0.93251753 -0.067333937 -0.49000874 0
-0.82514286 -0.054176807 -0.4658283 0
-0.76927996 -0.033113003 -0.43740547 0
-0.93916082 0.05388999 -0.50752521 0
-0.85557556 0.063966036 -0.48093602 0
-0.76214409 0.040119886 -0.44880801 0
-0.96756983 0.14125371 -0.51903594 0
-0.86427021 0.15367246 -0.49436143 0
-0.74300623 0.1461432 -0.46645066 0
-0.96922255 0.24308968 -0.5239203 0
-0.89307594 0.21701193 -0.50250793 0
-0.79650307 0.22331214 -0.47509941 0
-0.95556307 0.34920692 -0.51998329 0
-0.82842875 0.34346032 -0.49285835 0
-0.96175432 0.44418859 -0.53564966 0
-0.59032679 -0.41710353 -0.3505547 0
-0.48932505 -0.4009676 -0.31482619 0
-0.43241119 -0.36678553 -0.30266291 0
-0.5953002 -0.32379413 -0.37345505 0
-0.3795805 -0.31114459 -0.34668118 0
-0.2144537 -0.25195193 -0.35756004 0
-0.59113979 -0.17025733 -0.39641351 0
-0.5523715 -0.24272966 -0.38725144 0
-0.28831387 -0.18677473 -0.36344475 0
0.78017187 -0.083223581 -0.30716807 0
-0.64036274 -0.11619115 -0.40171802 0
-0.34353161 -0.076527357 -0.37858987 0
0.74970198 0.017312527 -0.32256645 0
0.98789072 0.062525749 -0.28674543 0
-0.64010811 -0.020436049 -0.41560894 0
-0.43693304 0.016475439 -0.39010108 0
0.053363323 0.060581207 -0.36743182 0
0.71647072 0.11561155 -0.33759195 0
0.94182158 0.13896823 -0.29763031 0
-0.68215322 0.086372852 -0.42812526 0
-0.55407333 0.14330435 -0.40611959 0
-0.48316813 0.10728168 -0.40464723 0
-0.18002129 0.18339252 -0.38133794 0
-0.090891838 0.11407614 -0.37178028 0
0.56157541 0.25994945 -0.35605776 0
0.66228724 0.20635962 -0.35087132 0
0.88250589 0.23240781 -0.31113452 0
-0.65826941 0.19610977 -0.446693 0
-0.57157469 0.1984899 -0.4131664 0
-0.25372791 0.23894119 -0.38799685 0
0.29711103 0.32290411 -0.36543626 0
0.73849487 0.39519191 -0.3340444 0
0.81134748 0.3123095 -0.32227004 0
-0.8236146 0.28284597 -0.4830668 0
-0.70734072 0.24243689 -0.45099747 0
-0.59702635 0.25796866 -0.42098242 0
-0.29341936 0.31996393 -0.401272 0
0.23841 0.37901449 -0.37166053 0
0.7041564 0.48737311 -0.34976166 0
0.88618088 0.48170996 -0.29310197 0
-0.87615156 0.39520264 -0.49863154 0
-0.78807783 0.35474086 -0.46479219 0
-0.68395758 0.33667207 -0.46836531 0
-0.61235142 0.366853 -0.43894583 0
-0.49803972 0.3964963 -0.41030127 0
0.20240259 0.46184683 -0.38417405 0
-0.90555239 0.45529127 -0.50721681 0
-0.82033443 0.44790554 -0.47913885 0
-0.70002413 0.48149443 -0.45404899 0
-0.48411751 -0.4990747 -0.22292775 0
-0.40473366 -0.46661377 -0.18459016 0
-0.44042301 -0.39953589 -0.24477893 0
-0.36421394 -0.49694312 -0.10491389 0
-0.99477243 -0.43949914 -0.48260474 0
-0.796031 -0.49902415 -0.44017059 0
-0.57960367 -0.46954513 -0.36255735 0
0.8540678 -0.33656144 -0.31847137 0
-0.88478851 -0.39635944 -0.45273411 0
-0.82767773 -0.36160624 -0.42689174 0
-0.73325014 -0.39712775 -0.42584628 0
-0.6023159 -0.38000965 -0.3878389 0
-0.5654583 -0.32867622 -0.37613505 0
-0.35165691 -0.30403113 -0.3491751 0
0.7651844 -0.27135777 -0.32762957 0
0.87780523 -0.17712235 -0.29495198 0
0.96513319 -0.24937034 -0.28314197 0
-0.90821552 -0.30312872 -0.46793312 0
-0.81755543 -0.26220012 -0.44568104 0
-0.69081211 -0.25129199 -0.41875309 0
-0.54710197 -0.2543571 -0.39042252 0
-0.23065805 -0.25570202 -0.35897434 0
0.67449045 -0.15714908 -0.34831333 0
-0.97146654 -0.23407948 -0.47661823 0
-0.81244135 -0.20000625 -0.45734483 0
-0.72885942 -0.20561123 -0.42514032 0
-0.63094091 -0.1485045 -0.4074083 0
-0.29607058 -0.17836928 -0.37202203 0
0.5703764 -0.087147474 -0.35923213 0
0.81845093 -0.062109709 -0.31834316 0
-0.94512701 -0.120929 -0.49898309 0
-0.83419037 -0.10704303 -0.47333464 0
-0.73597002 -0.10094786 -0.44427961 0
-0.66379118 -0.052609921 -0.4237535 0
0.7369628 0.033381462 -0.33575755 0
-0.93872452 -0.041019678 -0.49712172 0
-0.8265481 0.030026674 -0.46435437 0
-0.73111725 0.030217171 -0.45277971 0
-0.68719196 0.0070521832 -0.43392527 0
0.65121508 0.10564351 -0.34808213 0
-0.95457506 0.059672832 -0.5155232 0
-0.84858799 0.070560455 -0.48863855 0
-0.95806408 0.18516397 -0.52300084 0
-0.83288383 0.20902157 -0.49935105 0
-0.98634291 0.29851031 -0.52725577 0
-0.90252924 0.29492664 -0.51337475 0
-0.97183657 0.4068799 -0.53317624 0
-0.52373552 -0.46001434 -0.29708469 0
-0.43927574 -0.41673779 -0.26913005 0
-0.47456121 -0.36693215 -0.33522737 0
-0.41395426 -0.37915254 -0.25711119 0
-0.3890214 -0.11404538 -0.38132632 0
-0.5106144 -0.050186396 -0.39018917 0
-0.069970608 -0.038484573 -0.35987395 0
0.91924524 0.044517279 -0.29031485 0
-0.54484272 0.034781456 -0.4068386 0
-0.16452026 0.038126469 -0.37304103 0
0.45233393 0.1816709 -0.36158836 0
0.87885189 0.1402061 -0.30994207 0
-0.73407125 0.1202755 -0.4535237 0
-0.62430811 0.14013553 -0.42342693 0
-0.57723284 0.092425823 -0.4163956 0
-0.43614149 0.166605 -0.39413065 0
-0.30096769 0.1194911 -0.38738656 0
0.095727444 0.22459531 -0.36772341 0
0.73102808 0.26650214 -0.33350527 0
-0.78039885 0.2151885 -0.47045439 0
-0.63257074 0.21102428 -0.4371416 0
-0.48158121 0.23754811 -0.40840489 0
-0.0073318481 0.29254508 -0.3802852 0
0.4370265 0.36665106 -0.35387284 0
0.8825326 0.43063378 -0.31145388 0
-0.805655 0.3274622 -0.49228129 0
-0.67821932 0.31534672 -0.45680609 0
-0.56974983 0.32224011 -0.42236942 0
-0.48448658 0.37293482 -0.39456141 0
-0.15106916 0.34066987 -0.38838142 0
0.35801601 0.43764782 -0.36783558 0
-0.89462709 0.44347286 -0.51264942 0
-0.78448725 0.41665554 -0.48649931 0
-0.61136675 0.44528866 -0.44733173 0
-0.53334713 0.43829823 -0.40725148 0
-0.8835144 0.49615526 -0.50555015 0
-0.4025836 -0.45111275 -0.18969685 0
-0.41931915 0.47520423 -0.38044149 0
0.8306222 -0.28917027 -0.32083851 0
0.75306654 -0.18306899 -0.34833044 0
-0.67552328 -0.48216116 -0.41051853 0
-0.60562372 -0.48209751 -0.37758428 0
-0.97220469 -0.43146253 -0.48138982 0
-0.92587328 -0.3686769 -0.46395466 0
-0.798594 -0.3920846 -0.44544894 0
-0.60835695 -0.41850984 -0.39405864 0
-0.93172359 -0.28764939 -0.48351866 0
-0.79987383 -0.29174471 -0.43676156 0
-0.58871651 -0.32223105 -0.41866481 0
-0.15180874 -0.27194953 -0.36023343 0
0.86766195 -0.1545167 -0.30972719 0
-0.99974203 -0.21532559 -0.50039768 0
-0.89866495 -0.2070601 -0.4720656 0
0.57654953 -0.051217556 -0.35988522 0
0.74097061 -0.061252356 -0.33490044 0
-0.90304089 -0.097862482 -0.50003219 0
0.79084921 0.11994457 -0.32979846 0
0.90040064 0.043108702 -0.30766702 0
0.65595818 0.20977449 -0.3559944 0
0.95892668 0.24791813 -0.30858409 0
-0.55959749 -0.4807303 -0.31868988 0
-0.47347975 -0.42991757 -0.28648257 0
-0.42983294 -0.42167473 -0.23949474 0
-0.57318687 -0.37935567 -0.36456907 0
-0.42771244 -0.34644413 -0.31543928 0
-0.55310965 -0.28124976 -0.39072043 0
-0.34412146 -0.20750165 -0.37416959 0
-0.79884052 -0.21646452 -0.44027126 0
-0.69946337 -0.17353487 -0.41575521 0
-0.47363949 -0.1415565 -0.38952845 0
-0.83620501 -0.11306119 -0.46659145 0
-0.71229506 -0.058108091 -0.44597483 0
-0.59647274 -0.047907352 -0.41225898 0
-0.23500156 -0.05335927 -0.37504375 0
-0.98794794 0.015094995 -0.52853417 0
-0.93327188 -0.011383057 -0.50228655 0
-0.8008008 0.050227404 -0.47420722 0
-0.72698069 0.025165796 -0.44963187 0
-0.6154871 0.03869319 -0.41642576 0
-0.34321404 0.033194304 -0.39761752 0
0.055119514 0.069055557 -0.37038809 0
-0.94618797 0.10275865 -0.52232939 0
-0.83445406 0.11536241 -0.49158791 0
-0.71873617 0.12900543 -0.45957056 0
-0.59011078 0.16006184 -0.43096077 0
-0.43682957 0.18732285 -0.40348411 0
-0.17617702 0.13323283 -0.38827503 0
0.19049311 0.26132274 -0.37521845 0
0.76824713 0.31213522 -0.32943898 0
-0.97769403 0.21003532 -0.51592529 0
-0.84784222 0.2230134 -0.50257301 0
-0.76819086 0.19665623 -0.47785521 0
-0.67967367 0.24100184 -0.45341873 0
-0.00070810318 0.31705594 -0.39285177 0
0.65120792 0.39903927 -0.35652381 0
0.96933746 0.44723415 -0.30950409 0
-0.97002697 0.29743028 -0.53969657 0
-0.87793159 0.32450175 -0.51268995 0
-0.74183798 0.33762884 -0.48045948 0
0.3653183 0.444489 -0.37517911 0
0.76591587 0.49859619 -0.32896864 0
-0.95833492 0.40506434 -0.53505421 0
0.16718674 0.49679351 -0.39385617 0
-0.38798332 -0.4462018 -0.19067627 0
-0.34797525 -0.43658805 -0.15088648 0
-0.53260183 0.24557734 -0.41997361 0
-0.65899849 0.37652445 -0.45753434 0
-0.58948612 0.33998966 -0.42608422 0
-0.25929594 0.36701131 -0.40986007 0
-0.83148146 0.38844633 -0.49486193 0
-0.75824118 0.41721463 -0.46961743 0
-0.59221935 0.46457696 -0.44157159 0
-0.51573086 0.46931291 -0.40019596 0
-0.96837854 0.48252702 -0.52208275 0
-0.86210489 0.48970103 -0.50205302 0
-0.287992 -0.48558927 -0.057843745 0
0.6165514 -0.28851914 -0.34590524 0
0.87233734 -0.24916267 -0.30336189 0
0.76020241 -0.14213634 -0.33665091 0
-0.61401463 -0.48227322 -0.34799922 0
-0.91625166 -0.49490702 -0.45610881 0
-0.84669924 -0.41435981 -0.44253618 0
-0.64908504 -0.43106687 -0.40470368 0
-0.6193285 -0.42313778 -0.36692083 0
-0.96559286 -0.40049541 -0.4796015 0
-0.93877745 -0.36650229 -0.45427275 0
-0.76806545 -0.35063887 -0.42482269 0
-0.62375879 -0.35885763 -0.38767797 0
0.98620939 -0.13219595 -0.28409415 0
0.53999949 -0.07792902 -0.35818183 0
0.81096077 -0.089854956 -0.2998969 0
0.63016081 0.028681993 -0.33948618 0
0.88219357 0.091168404 -0.30785424 0
0.72686434 0.1733892 -0.33745193 0
-0.47601318 -0.45736265 -0.25481135 0
-0.59283733 -0.39498043 -0.33852464 0
-0.51184845 -0.40226221 -0.29449695 0
-0.44376469 -0.37356424 -0.25926906 0
-0.71319056 -0.27711272 -0.41021204 0
-0.58525753 -0.31974459 -0.36255616 0
-0.52439737 -0.27452826 -0.37961245 0
-0.44464874 -0.32380342 -0.31968379 0
-0.87070084 -0.19916081 -0.46725675 0
-0.82185984 -0.23621893 -0.43904191 0
-0.67068911 -0.16917348 -0.40789044 0
-0.29990196 -0.15545344 -0.37469387 0
-0.91598034 -0.12876964 -0.48838788 0
-0.83070993 -0.13795543 -0.45137906 0
-0.73355532 -0.1130259 -0.42568952 0
-0.50557423 -0.10149813 -0.39037967 0
-0.94288015 -0.037392378 -0.49957159 0
-0.83014727 -0.057077408 -0.45988634 0
-0.70771742 0.037174463 -0.433617 0
-0.67102003 -0.038685083 -0.40938848 0
-0.23960352 -0.0086944103 -0.37782139 0
-0.97274351 0.040766716 -0.50741553 0
-0.84833956 0.055163383 -0.47899261 0
-0.72655916 0.11234426 -0.45752987 0
0.25466967 0.13025904 -0.37454993 0
0.40168142 0.2349062 -0.36322725 0
