# .PCD v0.7 - Point Cloud Data file format
VERSION 0.7
FIELDS x y z intensity
SIZE 4 4 4 4
TYPE F F F F
COUNT 1 1 1 1
WIDTH 1284
HEIGHT 1
VIEWPOINT 0 0 0 1 0 0 0
POINTS 1284
DATA ascii
0.84567785 0.42765999 -0.10383272 0
0.93981266 0.15791321 -0.063058376 0
0.89377499 0.2766819 -0.056453705 0
0.89249706 0.34318352 -0.00056838989 0
0.86159325 0.47494316 0.020720482 0
0.98437977 0.23616982 -0.0016479492 0
0.97946024 0.32794762 0.023932934 0
0.95058107 0.43043327 0.045072079 0
0.97539186 0.070104599 -0.14585018 0
0.91524696 0.14413261 -0.1350503 0
0.87103939 0.24061012 -0.1344471 0
0.85196543 0.34416962 -0.13130999 0
0.83201504 0.43671799 -0.13389635 0
0.97660065 0.070833206 -0.073491573 0
0.92068434 0.16012955 -0.063725948 0
0.97464943 0.16415977 -0.01902914 0
0.88244724 0.24016571 -0.06425333 0
0.8558507 0.33718872 -0.058518887 0
0.82733822 0.43851089 -0.052512646 0
0.99966764 0.18849945 -0.0017175674 0
0.91228437 0.25675964 0.0002746582 0
0.96392965 0.26462364 0.013268471 0
0.87256622 0.34453201 0.0089144707 0
0.91900444 0.37832642 0.037213802 0
0.83915997 0.43930626 0.015035152 0
0.88347864 0.46741295 0.049293518 0
0.98940754 0.025466919 -0.19436646 0
0.94514179 0.068742752 -0.21901751 0
0.91256428 0.1465416 -0.1914525 0
0.88345146 0.22616196 -0.18327999 0
0.86675215 0.18585396 -0.14351892 0
0.85537052 0.26519394 -0.18938255 0
0.83713818 0.35598564 -0.16992426 0
0.82412958 0.44808197 -0.16363955 0
0.76690722 0.38368988 -0.21064949 0
0.77228928 0.4664135 -0.19527817 0
0.7089839 0.4932003 -0.21743011 0
0.97193527 0.086299896 -0.048492908 0
0.94756746 0.07443428 -0.11691666 0
0.91676617 0.13723183 -0.091133595 0
0.89155817 0.20767403 -0.067641258 0
0.85923719 0.19832039 -0.12997961 0
0.86691666 0.24788666 -0.089253902 0
0.8450098 0.34960365 -0.083155632 0
0.82306957 0.43777275 -0.092118263 0
0.80696487 0.48499489 -0.076586246 0
0.98978472 0.20269585 -0.0061135292 0
0.9407773 0.16839409 -0.030800819 0
0.92787313 0.23578262 -0.012526989 0
0.93992138 0.32484436 0.022068024 0
0.92229462 0.40214348 0.03809309 0
0.87007189 0.29067612 -0.024931908 0
0.86495638 0.35177422 -0.0049767494 0
0.85376263 0.45096397 0.022590637 0
0.81299019 0.48562431 -0.004711628 0
0.98357964 0.043626785 -0.17093611 0
0.94414759 0.089447021 -0.1540308 0
0.8971076 0.16709709 -0.15081215 0
0.87115955 0.26516724 -0.14720964 0
0.86162996 0.31762695 -0.13497972 0
0.85297918 0.20792198 -0.12176704 0
0.85266924 0.27427483 -0.12710285 0
0.84411764 0.36521912 -0.13720608 0
0.83265066 0.46273041 -0.13513136 0
0.98702478 0.15117645 -0.019251347 0
0.94111967 0.093587875 -0.093660831 0
0.91606712 0.16544151 -0.065033913 0
0.88330269 0.26326942 -0.049068928 0
0.86404133 0.34011459 -0.047677994 0
0.84714222 0.30889702 -0.078209877 0
0.84619236 0.37074089 -0.048702717 0
0.82141733 0.46032333 -0.041853905 0
0.99937439 0.18419456 -0.0045027733 0
0.98435307 0.23798943 0.00710392 0
0.97748995 0.3282032 0.030536652 0
0.92123842 0.27824211 0.0090632439 0
0.89059401 0.36039925 0.019886494 0
0.88815546 0.4517765 0.042275429 0
0.8570385 0.38833618 0.0099487305 0
0.83334589 0.47542763 0.024092197 0
0.98397779 0.020153046 -0.19384432 0
0.97659254 0.037666321 -0.12747526 0
0.93397808 0.10541534 -0.14189053 0
0.89051962 0.14767647 -0.10494375 0
0.86347055 0.22201347 -0.11248302 0
0.84865713 0.32020187 -0.11131525 0
0.82659101 0.41657257 -0.1028285 0
0.80717468 0.44802666 -0.089047432 0
0.9849391 0.047431946 -0.059947014 0
0.95045805 0.11895943 -0.043212891 0
0.94812298 0.1936245 -0.0083904266 0
0.94065237 0.2867527 0.022833824 0
0.89980078 0.15966415 -0.07032299 0
0.88390732 0.22476387 -0.042751312 0
0.86379099 0.31086922 -0.022652626 0
0.83518219 0.40613365 -0.008149147 0
0.82095528 0.48788261 0.031489372 0
0.80740595 0.45059776 -0.027443409 0
0.93261337 0.33139229 0.035005569 0
0.92684889 0.40550995 0.049574852 0
0.90234566 0.35793877 0.03608942 0
0.88110399 0.42766762 0.044726849 0
0.96867847 0.061258316 -0.19337654 0
0.93989992 0.12610435 -0.17807245 0
0.89203119 0.19189072 -0.19081497 0
0.8427639 0.3125782 -0.1884594 0
0.83018303 0.39624977 -0.18393517 0
0.80173874 0.4564991 -0.18894625 0
0.95154905 0.077196121 -0.11404419 0
0.93010521 0.12495613 -0.075654507 0
0.88240576 0.18463326 -0.11943197 0
0.87309456 0.26933289 -0.12748718 0
0.84587812 0.24185944 -0.13059378 0
0.84729481 0.31938744 -0.1181941 0
0.82797766 0.39038658 -0.1235013 0
0.81703854 0.44847488 -0.12591839 0
0.97629929 0.093612671 -0.050558567 0
0.97249651 0.15071106 -0.031594753 0
0.9869566 0.23130798 -0.0014996529 0
0.90233898 0.20618629 -0.045844078 0
0.90114927 0.28019142 -0.01129818 0
0.93926334 0.35462379 0.026258469 0
0.85548019 0.32671738 -0.032099724 0
0.83582067 0.40936661 -0.017384529 0
0.80859995 0.46141052 -0.031772614 0
0.93075418 0.41557312 0.038685799 0
0.8796773 0.43846893 0.033450603 0
0.9598608 0.053152084 -0.18015337 0
0.93116236 0.1022377 -0.16971922 0
0.88703823 0.1579628 -0.16351223 0
0.86259031 0.23381042 -0.18102598 0
0.83956718 0.2240448 -0.13951445 0
0.84191465 0.29423332 -0.16053772 0
0.82868862 0.37382698 -0.15818262 0
0.80835295 0.42919731 -0.16711521 0
0.95969057 0.049575806 -0.1047368 0
0.94994259 0.10445595 -0.062754154 0
0.89099407 0.16059303 -0.086892605 0
0.87724304 0.2292881 -0.065788746 0
0.84321213 0.21266365 -0.12558508 0
0.84214401 0.29468155 -0.074463367 0
0.83119392 0.36349678 -0.072240353 0
0.80798531 0.43340492 -0.067653656 0
0.97478867 0.20362854 -0.010248661 0
0.89616013 0.26165771 -0.01023674 0
0.91606474 0.3402195 0.019633293 0
0.8551178 0.30956268 -0.016112328 0
0.85278988 0.3729496 0.0052700043 0
0.86922169 0.46437645 0.03806591 0
0.81228018 0.44079208 -0.010300159 0
0.99722385 -0.0088367462 -0.16302252 0
0.94755745 0.068349838 -0.16359472 0
0.92688417 0.09161377 -0.16077852 0
0.8701539 0.16512108 -0.15353823 0
0.83876896 0.27938652 -0.15418625 0
0.81595469 0.36388016 -0.15601778 0
0.80588007 0.42899513 -0.15926075 0
0.94264174 0.05475235 -0.10992479 0
0.93061018 0.097166061 -0.07341671 0
0.86886358 0.16725159 -0.10293531 0
0.85666084 0.23604965 -0.073424339 0
0.83405447 0.23121262 -0.13259649 0
0.83638144 0.30283928 -0.10158682 0
0.81651783 0.38020897 -0.089418888 0
0.80088902 0.43918419 -0.093062401 0
0.96673918 0.12752342 -0.029759884 0
0.96441746 0.21393204 -0.0062241554 0
0.90173912 0.17168236 -0.038665771 0
0.88089943 0.2539463 -0.018274784 0
0.91042995 0.34327316 0.0233078 0
0.84294558 0.31685829 -0.021581173 0
0.82888889 0.3857193 -0.00451231 0
0.85360909 0.46699333 0.039438248 0
0.79059982 0.44552803 -0.02569294 0
0.99380875 -0.019538879 -0.079828739 0
0.93503952 0.047636032 -0.091824055 0
0.90948105 0.095588684 -0.074327946 0
0.86656761 0.16168022 -0.08227396 0
0.84693861 0.2427845 -0.066728592 0
0.82953119 0.2925148 -0.086903095 0
0.80721712 0.37044334 -0.074158669 0
0.78575134 0.44543648 -0.077236176 0
0.99884558 0.09198761 -0.017100811 0
0.94084835 0.067941666 -0.049441338 0
0.93635416 0.1127758 -0.034042358 0
0.9432745 0.19091606 -0.0060191154 0
0.88073444 0.17638779 -0.040547371 0
0.87953615 0.24216843 -0.013202667 0
0.899436 0.31836891 0.025595188 0
0.83033752 0.29583359 -0.024483204 0
0.82359076 0.36511993 -0.0015153885 0
0.86036587 0.45819855 0.051077843 0
0.78803205 0.42868996 -0.013774872 0
0.78916788 0.38074875 -0.094456196 0
0.7772584 0.43780327 -0.094750404 0
0.99158812 -0.067081451 -0.11135769 0
0.97856998 -0.010456085 -0.066281796 0
0.918262 0.049053192 -0.081468105 0
0.92587566 0.12948799 -0.025004387 0
0.85757732 0.11676216 -0.099628448 0
0.85415411 0.16622543 -0.068371773 0
0.85423994 0.24504662 -0.01770401 0
0.81439638 0.30082703 -0.050392628 0
0.79541922 0.37028313 -0.019047737 0
0.77218628 0.43522644 -0.045676708 0
0.90376616 0.28380775 0.021373749 0
0.83070898 0.3766861 0.029726982 0
0.83810329 0.45502663 0.051233292 0
0.78763008 0.44928741 0.027357578 0
0.99007034 -0.037759781 -0.16482019 0
0.9668541 0.0060272217 -0.17201185 0
0.93075848 0.034109116 -0.14978456 0
0.86343575 0.12026405 -0.14452791 0
0.83263636 0.1751461 -0.12850952 0
0.82783127 0.25261497 -0.1246357 0
0.80973434 0.33672333 -0.12202215 0
0.79942513 0.38048744 -0.098314285 0
0.78152084 0.45999718 -0.10610962 0
0.93164062 0.047369003 -0.088393211 0
0.9276185 0.10811996 -0.044054985 0
0.95892096 0.19592094 -0.0042614937 0
0.87501192 0.1076622 -0.10771179 0
0.86579561 0.18280792 -0.058457851 0
0.86770725 0.24653816 -0.011687279 0
0.9051404 0.37132835 0.031900883 0
0.82763338 0.24051666 -0.096275806 0
0.82476568 0.30752182 -0.047261715 0
0.83562613 0.37731743 0.0039730072 0
0.83939505 0.47521591 0.042327881 0
0.78016186 0.44694138 -0.031816006 0
0.84487343 -0.21221542 -0.30008268 0
0.87332726 -0.1162014 -0.28088856 0
0.90289354 -0.029230118 -0.25926685 0
0.90662813 0.077911377 -0.23022699 0
0.79538584 -0.066280365 -0.28646803 0
0.83485365 0.0056800842 -0.2657609 0
0.85403204 0.099985123 -0.24148941 0
0.86677599 0.19217682 -0.2156353 0
0.75335217 0.063318253 -0.27023649 0
0.7585535 0.13116646 -0.25630093 0
0.80383492 0.21741676 -0.22845078 0
0.82675028 0.33426094 -0.19015837 0
0.72235298 0.18482971 -0.25859928 0
0.70612049 0.27924156 -0.24761343 0
0.74461031 0.34204102 -0.22426414 0
0.78051567 0.44121361 -0.19017029 0
0.68532324 0.40111542 -0.23861027 0
0.69586229 0.49322128 -0.21778202 0
0.93561983 -0.49276543 -0.3177762 0
0.99430084 -0.36518288 -0.30020952 0
0.90445805 -0.45024872 -0.31617928 0
0.91654396 -0.33746529 -0.30757666 0
0.93453693 -0.26462555 -0.29479885 0
0.96617889 -0.17733765 -0.27369595 0
0.9978652 -0.012458801 -0.17336798 0
0.75242662 -0.49621391 -0.31496525 0
0.79094887 -0.41314125 -0.31204271 0
0.810431 -0.32541275 -0.30834341 0
0.96221828 -0.014526367 -0.24055529 0
0.94474936 0.045101166 -0.19124174 0
0.90804195 0.098716736 -0.15040874 0
0.87788773 0.16803169 -0.15740347 0
0.85027695 0.23463249 -0.16611862 0
0.84095716 0.3050518 -0.13326645 0
0.83399677 0.38724709 -0.14049578 0
0.80670214 0.43466568 -0.096608162 0
0.95461702 0.042913437 -0.089099884 0
0.97620344 0.10843277 -0.032271862 0
0.97914839 0.18569183 -0.0070710182 0
0.89295483 0.15107918 -0.075005531 0
0.89120722 0.23272896 -0.025316715 0
0.85296869 0.28880119 -0.044482708 0
0.84555149 0.35710526 -0.0079975128 0
0.87679529 0.49645233 0.059335709 0
0.81681824 0.41841316 -0.012654305 0
0.48360395 0.12123299 -0.33171749 0
0.40759468 0.1127243 -0.34054089 0
0.43528986 0.17392921 -0.33124638 0
0.48139858 0.25505447 -0.31607962 0
0.53713369 0.34684753 -0.29474449 0
0.55175495 0.44469643 -0.27648258 0
0.39092922 0.22655869 -0.33719158 0
0.40464592 0.29280853 -0.33221483 0
0.41918564 0.40534973 -0.32052755 0
0.48273993 0.46833801 -0.30118322 0
0.34825706 0.45173454 -0.33174944 0
0.72671461 -0.13504601 -0.28852654 0
0.80411863 -0.11714363 -0.28521109 0
0.79346991 -0.0014247894 -0.26608038 0
0.58326292 -0.22060013 -0.30661297 0
0.63520193 -0.15218163 -0.29453325 0
0.667171 -0.05103302 -0.28907347 0
0.72774553 0.048175812 -0.2703476 0
0.77150106 0.11593437 -0.24747324 0
0.80109406 0.21327782 -0.22169447 0
0.81985807 0.31797791 -0.19798899 0
0.43599081 -0.35173225 -0.32757378 0
0.4809432 -0.27330589 -0.31926584 0
0.5055809 -0.18940544 -0.31744146 0
0.55864954 -0.1086731 -0.31139708 0
0.59346247 -0.0037174225 -0.30578613 0
0.653409 0.070335388 -0.29139757 0
0.67438698 0.17576218 -0.26778555 0
0.71429968 0.2624855 -0.24024582 0
0.76252174 0.34744263 -0.21183062 0
0.77106428 0.44434929 -0.19080305 0
0.36505365 -0.4177742 -0.34119272 0
0.37432957 -0.36295509 -0.34085131 0
0.40292883 -0.26322174 -0.33514929 0
0.42372084 -0.15980911 -0.33582306 0
0.44854355 -0.05399704 -0.33332729 0
0.50124645 0.041498184 -0.32281971 0
0.54899073 0.12578773 -0.30983734 0
0.57514048 0.21261215 -0.29814529 0
0.62254429 0.29900932 -0.27065277 0
0.66333103 0.38349152 -0.24185324 0
0.67128515 0.48342705 -0.22145224 0
0.41415834 -0.03531456 -0.34159565 0
0.58491659 0.43073463 -0.26056528 0
0.92249918 -0.48791313 -0.30634642 0
0.99007893 -0.38173676 -0.29429913 0
0.81994152 -0.43609047 -0.30203724 0
0.89059448 -0.34265518 -0.29829073 0
0.9393239 -0.25265312 -0.2828064 0
0.97485161 -0.18617058 -0.26485825 0
0.72982264 -0.48806572 -0.3034482 0
0.74140215 -0.36167908 -0.29707289 0
0.76722097 -0.30758095 -0.29552794 0
0.84451342 -0.22514725 -0.2907567 0
0.89025545 -0.12500572 -0.26969957 0
0.91364241 -0.038030624 -0.24992847 0
0.94535112 0.053382874 -0.19834185 0
0.92946911 0.11098099 -0.16579103 0
0.63542986 -0.46510315 -0.30251932 0
0.65617943 -0.36366272 -0.29624414 0
0.66735744 -0.26006699 -0.29143047 0
0.75526428 -0.17398834 -0.28986025 0
0.83756065 -0.082204819 -0.27203512 0
0.84971189 -0.0055618286 -0.25569868 0
0.87847948 0.081804276 -0.23232794 0
0.88221884 0.18053246 -0.18050289 0
0.53920174 -0.42986107 -0.30741262 0
0.58497381 -0.31344795 -0.30107021 0
0.61492586 -0.22076225 -0.29541111 0
0.68513107 -0.19620705 -0.28914738 0
0.8551693 0.21719742 -0.13398266 0
0.84974241 0.29314232 -0.15039015 0
0.83764601 0.38834381 -0.12242937 0
0.41364527 -0.48125458 -0.33478594 0
0.47361851 -0.4146595 -0.3223505 0
0.52103281 -0.31673813 -0.31027269 0
0.82058382 0.43595123 -0.11829042 0
0.95979214 0.0414505 -0.10133123 0
0.95417356 0.081268311 -0.046264648 0
0.89447117 0.15524101 -0.077526093 0
0.88175583 0.22601509 -0.034041882 0
0.85373449 0.28725624 -0.053777218 0
0.84055996 0.36114311 -0.033125401 0
0.81763458 0.41742516 -0.021789074 0
0.80692148 0.48160934 -0.0038290024 0
0.99643993 0.10518646 -0.016066074 0
0.93820906 0.16643143 -0.0086131096 0
0.94238997 0.21542358 0.006052494 0
0.94133615 0.29160118 0.027801514 0
0.88571835 0.29522514 0.014618397 0
0.87812424 0.36409187 0.030459881 0
0.88883162 0.44750023 0.055131435 0
-0.9681077 0.48120308 -0.41531229 0
0.39571953 -0.06975174 -0.34999466 0
0.45096684 0.032709122 -0.34150171 0
0.47719479 0.11760521 -0.32694054 0
0.53463364 0.18669891 -0.31368542 0
0.55477762 0.32667923 -0.29558182 0
0.14339399 -0.46967316 -0.39590502 0
0.17662048 -0.39780807 -0.38906097 0
0.22835493 -0.31978798 -0.38166714 0
0.27436447 -0.21196556 -0.37032175 0
0.31096029 -0.12358475 -0.36100578 0
0.34369183 -0.023300171 -0.35806704 0
0.39210558 0.075824738 -0.3486619 0
0.40236139 0.17303848 -0.33922911 0
0.44158983 0.20935249 -0.33213758 0
0.50532484 0.32920265 -0.30874681 0
0.52047825 0.43953896 -0.29739237 0
0.54138327 0.49917793 -0.27562428 0
0.12992477 -0.37067413 -0.3968854 0
0.16227674 -0.28281403 -0.39594078 0
0.21546125 -0.20578957 -0.38203239 0
0.21331263 -0.10149574 -0.3839941 0
0.24739933 -0.028289795 -0.37844849 0
0.28461027 0.072748184 -0.36926937 0
0.31995201 0.18342781 -0.36156178 0
0.37513638 0.27166176 -0.34213734 0
0.38857985 0.34888077 -0.33654261 0
0.46264267 0.45860291 -0.30931568 0
0.062112808 -0.23714066 -0.39996004 0
0.096637249 -0.13403511 -0.39467573 0
0.14068604 -0.066986084 -0.39134407 0
0.17642927 0.043462753 -0.38659668 0
0.22885609 0.12911415 -0.38020802 0
0.2237649 0.23078156 -0.37215948 0
0.27694607 0.32790184 -0.3578124 0
0.33644581 0.40431595 -0.34804821 0
0.36644554 0.47778511 -0.33253098 0
-0.018260956 -0.19059563 -0.39444733 0
0.0070152283 -0.10622597 -0.39002514 0
0.04028368 -0.041627884 -0.38711596 0
0.078866959 0.073307037 -0.38104725 0
0.1082468 0.1544838 -0.37671995 0
0.11049366 0.21941185 -0.37223959 0
0.16407156 0.31295586 -0.36464262 0
0.22329617 0.43862152 -0.34780455 0
0.24244118 0.49489975 -0.34076262 0
-0.098304272 -0.074855804 -0.38370228 0
-0.059158325 -0.036653519 -0.38307428 0
-0.02970314 0.057481766 -0.37801886 0
0.0026803017 0.15154076 -0.37307596 0
0.025535583 0.25935936 -0.366117 0
0.09453249 0.34493828 -0.36147261 0
0.11483526 0.46109009 -0.34839487 0
-0.1900897 -0.08082962 -0.37939405 0
-0.16226244 0.029356003 -0.37449789 0
-0.10616827 0.09711647 -0.37256908 0
-0.064044476 0.18837166 -0.3681736 0
-0.048345566 0.27775383 -0.36188889 0
0.010842323 0.39090157 -0.35514545 0
-0.30323839 -0.036798477 -0.37100649 0
-0.27161026 0.043266296 -0.36817741 0
-0.21921873 0.14559937 -0.36501265 0
-0.17045546 0.25396156 -0.35954571 0
-0.11645508 0.32434082 -0.35619974 0
-0.10065126 0.44925499 -0.34699583 0
-0.38562727 -0.0073871613 -0.36786366 0
-0.35024548 0.072370529 -0.36373043 0
-0.31756687 0.17533684 -0.35841703 0
-0.27646112 0.30276871 -0.35228634 0
-0.20855665 0.33339691 -0.35198116 0
-0.18104029 0.45477486 -0.34350348 0
-0.44305229 0.051822662 -0.37047958 0
-0.42220926 0.15543175 -0.36571455 0
-0.39156532 0.2478981 -0.36238098 0
-0.36047411 0.34020042 -0.35028744 0
-0.31709528 0.45867729 -0.33811855 0
-0.26076651 0.47945786 -0.33888483 0
-0.50242519 0.11812401 -0.37386274 0
-0.5340662 0.14694023 -0.37724972 0
-0.49545717 0.27100372 -0.3705225 0
-0.44879675 0.38811684 -0.35117245 0
-0.41460228 0.45737839 -0.33707857 0
-0.61852312 0.22543716 -0.38290024 0
-0.58897734 0.32524109 -0.37801075 0
-0.54533386 0.40267944 -0.36129093 0
-0.69820118 0.29749298 -0.38706446 0
-0.67861605 0.35900879 -0.38397694 0
-0.6365118 0.44763184 -0.36482668 0
-0.76920176 0.33711624 -0.39574146 0
-0.76895618 0.39535713 -0.38962507 0
-0.72903252 0.48949814 -0.3692255 0
-0.8631711 0.44433403 -0.39896393 0
0.97878361 -0.40100479 -0.30396891 0
0.83029318 -0.47337151 -0.30576611 0
0.82593346 -0.3773632 -0.30240488 0
0.92022467 -0.2740345 -0.29317665 0
0.93265104 -0.17736626 -0.2744832 0
0.98602962 -0.085212708 -0.24824762 0
0.80132055 -0.34016991 -0.29905891 0
0.78631258 -0.25104523 -0.29550314 0
0.8413229 -0.11545944 -0.28067303 0
0.87996101 -0.037593842 -0.2599268 0
0.92187834 0.0483284 -0.23030233 0
0.91117287 0.098287582 -0.21170092 0
0.65423107 -0.3790493 -0.2994895 0
0.73763132 -0.11695671 -0.28837919 0
0.79398584 -0.023313522 -0.27422762 0
0.8531208 0.054042816 -0.24757147 0
0.86021709 0.16169739 -0.22058392 0
0.86441231 0.23604393 -0.20504618 0
0.51424265 -0.43955994 -0.31486082 0
0.5674715 -0.33304405 -0.30770874 0
0.59621716 -0.24663734 -0.30167627 0
0.6051693 -0.15485191 -0.29996204 0
0.64194965 -0.071767807 -0.29845428 0
0.71786833 0.020259857 -0.280931 0
0.74875259 0.10997581 -0.25906181 0
0.76396179 0.21751404 -0.23282909 0
0.82149172 0.31082153 -0.20036411 0
0.80232286 0.36832237 -0.19886827 0
0.81492424 0.45069313 -0.17502594 0
0.42376661 -0.40980911 -0.33402014 0
0.46138668 -0.31892395 -0.32490063 0
0.50117731 -0.21477699 -0.32094336 0
0.53343678 -0.129776 -0.31635475 0
0.56356859 -0.026983261 -0.31110334 0
0.59164333 0.060276031 -0.3077426 0
0.6598444 0.12081528 -0.28808498 0
0.6852026 0.24670029 -0.25797987 0
0.71934652 0.34887123 -0.22588682 0
0.7496047 0.42800331 -0.2061348 0
0.28157711 -0.46678352 -0.36713219 0
0.32728386 -0.36289787 -0.35403252 0
0.36392307 -0.2479229 -0.34648657 0
0.41630411 -0.18877411 -0.33705235 0
0.43948889 -0.070606232 -0.33445549 0
0.48287916 0.015817642 -0.32391167 0
0.59058762 0.20677757 -0.29622984 0
0.59720802 0.29046059 -0.28320789 0
0.62375164 0.3583374 -0.26546335 0
0.6562767 0.45688438 -0.23645115 0
0.20703745 -0.41455841 -0.3814292 0
0.25201941 -0.35064316 -0.36958075 0
0.30174303 -0.24446487 -0.35572624 0
0.32555151 -0.1638298 -0.35366964 0
0.3793292 -0.08890152 -0.34546661 0
0.56473064 0.4185791 -0.27451897 0
0.57703781 0.49041748 -0.26378536 0
0.95484924 0.057182312 -0.14963055 0
0.9294939 0.10182381 -0.15895414 0
0.8734355 0.17944717 -0.14409637 0
0.86744595 0.24461174 -0.15710831 0
0.84944057 0.30345726 -0.13695145 0
0.83931494 0.3735199 -0.12207317 0
0.80279064 0.44022369 -0.17324257 0
0.96181393 0.05412674 -0.085456848 0
0.94001245 0.11963844 -0.053986549 0
0.88653708 0.17486191 -0.074943542 0
0.88416338 0.23598671 -0.044957161 0
0.84183073 0.35739136 -0.033609867 0
0.81765985 0.44735909 -0.032367229 0
0.80163622 0.49162102 -0.013101101 0
0.98355293 0.22811699 0.010714054 0
0.9251194 0.26627541 0.015192986 0
0.89137697 0.30392456 0.018790245 0
0.87246466 0.35237503 0.022637367 0
0.86537409 0.43335915 0.037361622 0
-0.71643448 -0.13134575 -0.43009472 0
-0.72729826 -0.074655533 -0.42923117 0
-0.67793465 0.022703171 -0.41507912 0
-0.65334606 0.14316177 -0.40283775 0
-0.60302019 0.21406555 -0.40083122 0
-0.56950617 0.31970978 -0.39395761 0
-0.5435605 0.38667488 -0.38283205 0
-0.79674149 -0.031713486 -0.43844604 0
-0.75939989 0.056966782 -0.42685986 0
-0.70336533 0.1452198 -0.41099739 0
-0.72587156 0.25138092 -0.40479565 0
-0.63174009 0.32830811 -0.40021992 0
-0.62901783 0.41493797 -0.38867855 0
-0.56836081 0.47440147 -0.36979675 0
-0.85581112 0.076684952 -0.44084263 0
-0.8019948 0.18859673 -0.42762232 0
-0.77821732 0.27274704 -0.41619921 0
-0.75029373 0.38349533 -0.40738058 0
-0.70393944 0.4719696 -0.38791132 0
-0.94746399 0.15509415 -0.45178366 0
-0.90189552 0.21828842 -0.43935251 0
-0.88333702 0.3358345 -0.43104029 0
-0.82118082 0.41420174 -0.4149909 0
-0.80422211 0.48728371 -0.39882898 0
-0.99703407 0.24824715 -0.45749664 0
-0.96288013 0.33889771 -0.44780731 0
-0.91428614 0.44750214 -0.42960453 0
-0.99819708 0.42091751 -0.45000076 0
0.27386856 -0.24647331 -0.39412594 0
0.32206202 -0.10186577 -0.37745428 0
0.38481379 0.020811081 -0.36759758 0
0.42589235 0.12079239 -0.36408281 0
0.15406036 -0.4244442 -0.4135294 0
0.18106747 -0.32134438 -0.40392447 0
0.1896987 -0.2311573 -0.40253592 0
0.25767469 -0.14532852 -0.39440966 0
0.28919697 -0.030927658 -0.38670111 0
0.3241415 0.040014267 -0.38137245 0
0.35341787 0.11009598 -0.37622213 0
0.39622307 0.23521614 -0.35715723 0
0.43664169 0.31955528 -0.34406376 0
0.44950724 0.42015648 -0.33453846 0
0.0045833588 -0.40407753 -0.41840029 0
0.086425781 -0.30075073 -0.42009497 0
0.10380363 -0.20057106 -0.4154892 0
0.15405321 -0.092287064 -0.40940237 0
0.22016239 -0.024036407 -0.4027915 0
0.24779654 0.07752037 -0.39728022 0
0.27358294 0.19825172 -0.38824368 0
0.31792068 0.27297592 -0.37506533 0
0.3489418 0.37926102 -0.36188841 0
0.39317465 0.43775177 -0.35292101 0
-0.098662853 -0.43451309 -0.41333151 0
-0.024476528 -0.34288216 -0.41698885 0
-0.0091915131 -0.2484436 -0.41436577 0
0.0032391548 -0.1477356 -0.40880966 0
0.086595058 -0.00069999695 -0.40255737 0
0.14147615 0.12776756 -0.39624357 0
0.20702076 0.2360611 -0.38991308 0
0.19957399 0.31201935 -0.38112593 0
0.26185417 0.47069168 -0.36035156 0
-0.2174387 -0.47978401 -0.40549088 0
-0.228724 -0.42951965 -0.40497541 0
-0.17101574 -0.3234539 -0.40772772 0
-0.12019253 -0.22883224 -0.40745258 0
-0.093933582 -0.11769867 -0.40264225 0
-0.040761948 -0.034660339 -0.4000082 0
0.020681858 0.066616058 -0.39569759 0
0.086900234 0.183815 -0.39054871 0
0.038249969 0.23020935 -0.38538265 0
0.11372519 0.32973289 -0.38003874 0
0.1606245 0.41969872 -0.3693862 0
-0.3202281 -0.46587753 -0.4030652 0
-0.28296661 -0.36111069 -0.40094805 0
-0.23728561 -0.24650002 -0.40228844 0
-0.21779203 -0.13405418 -0.39708614 0
-0.14651728 -0.080410004 -0.39779139 0
-0.10476255 0.014080048 -0.39441156 0
-0.048987389 0.14159012 -0.38822317 0
-0.082819462 0.16483688 -0.38542747 0
-0.034429073 0.28696632 -0.37829971 0
0.048784733 0.38891983 -0.37322521 0
-0.43098116 -0.4921627 -0.41592884 0
-0.39632273 -0.41987801 -0.40582466 0
-0.37874985 -0.3076458 -0.39661932 0
-0.33067322 -0.19892693 -0.3943634 0
-0.29033661 -0.090852737 -0.39084959 0
-0.27355099 -0.036022186 -0.38868284 0
-0.20499516 0.046730042 -0.38768196 0
-0.20526314 0.1157341 -0.38382292 0
-0.15948534 0.22506142 -0.3786087 0
-0.11532784 0.34832573 -0.37066221 0
-0.020971298 0.44512749 -0.36639643 0
-0.082381725 0.48215103 -0.36116886 0
-0.48596764 -0.44118118 -0.41727543 0
-0.48564482 -0.36690521 -0.40986061 0
-0.46207476 -0.28330994 -0.3986907 0
-0.43205929 -0.20978928 -0.39092255 0
-0.39512682 -0.13438225 -0.38798237 0
-0.38880396 -0.0061798096 -0.38220596 0
-0.298522 0.050483704 -0.38257408 0
-0.26289034 0.14072227 -0.37939644 0
-0.24803877 0.28146172 -0.37118387 0
-0.21182299 0.4088192 -0.36244202 0
-0.19408131 0.42475128 -0.36241198 0
-0.57686901 -0.31007767 -0.41774559 0
-0.55057049 -0.25314522 -0.40930414 0
-0.51832438 -0.15194511 -0.39679003 0
-0.47640181 -0.056596756 -0.39161062 0
-0.44489384 0.047092438 -0.38740015 0
-0.37506294 0.13156319 -0.37939644 0
-0.33448219 0.21502113 -0.37392426 0
-0.33483505 0.31277275 -0.37031221 0
-0.27035761 0.44656181 -0.35749292 0
-0.63606024 -0.20251656 -0.42056704 0
-0.61008644 -0.11976433 -0.4112711 0
-0.57809258 -0.018960953 -0.40192223 0
-0.53900766 0.10968781 -0.39237499 0
-0.50011539 0.16080284 -0.39070749 0
-0.43793964 0.2598362 -0.38364029 0
-0.42517233 0.36919403 -0.37030411 0
-0.3938942 0.40030098 -0.36054182 0
-0.34718037 0.49732018 -0.35097218 0
-0.71032858 -0.13620567 -0.42591953 0
-0.66585541 -0.11386108 -0.42223883 0
-0.6531167 0.0031261444 -0.40999174 0
-0.61834335 0.090040207 -0.39987326 0
-0.52866602 0.25131989 -0.39153051 0
-0.49350548 0.38186646 -0.37698317 0
-0.49328232 0.49267769 -0.3565073 0
0.72530937 -0.22990417 -0.31014347 0
0.82470846 -0.06394577 -0.29474401 0
0.59088802 -0.35718727 -0.31639051 0
0.60066986 -0.30189323 -0.31634712 0
0.60333252 -0.22801781 -0.31524277 0
0.71061945 -0.12071419 -0.3048687 0
0.71379995 -0.0080337524 -0.30182743 0
0.75999975 0.074863434 -0.28151131 0
0.46401882 -0.46538925 -0.34546518 0
0.50242853 -0.34045601 -0.33354521 0
0.52834463 -0.25515175 -0.33293915 0
0.5916853 -0.18465042 -0.32343245 0
0.58126831 -0.076026917 -0.32453537 0
0.62081432 0.023731232 -0.31315899 0
0.67586946 0.10259247 -0.30238628 0
0.70371151 0.19749451 -0.27889347 0
0.72662354 0.2903614 -0.25864649 0
0.32837915 -0.49198151 -0.37723446 0
0.35520697 -0.40237808 -0.36517096 0
0.4064889 -0.31882286 -0.35532427 0
0.43233156 -0.22834778 -0.35120583 0
0.47249508 -0.14291573 -0.34678698 0
0.50998735 -0.019094467 -0.34146118 0
0.55048895 0.072628021 -0.33351517 0
0.58017349 0.17075157 -0.32173491 0
0.6175971 0.2633667 -0.30242586 0
0.65110445 0.3433876 -0.27941227 0
0.69178438 0.42239189 -0.24716616 0
0.69690418 0.49657059 -0.23733616 0
0.22751951 -0.45238876 -0.39714527 0
0.27486563 -0.35766411 -0.38250017 0
0.31120634 -0.28529739 -0.37917757 0
0.36158562 -0.18250847 -0.36815882 0
0.39366007 -0.095438004 -0.36724472 0
0.44403601 -0.0094203949 -0.35389614 0
0.45013046 0.091522217 -0.35564995 0
0.50030708 0.17265701 -0.34016562 0
0.52356911 0.27696991 -0.32910204 0
0.57468605 0.37626457 -0.30197716 0
0.59456825 0.47139931 -0.2768755 0
0.5048151 0.41584969 -0.31926727 0
0.55232 0.47756195 -0.29836512 0
0.900002 -0.4934845 -0.32423782 0
0.91608286 -0.43687248 -0.32268906 0
0.92982149 -0.29896927 -0.31180048 0
0.98814964 -0.23462868 -0.29319477 0
0.74007893 -0.43565559 -0.31956673 0
0.90770769 -0.25918007 -0.31317234 0
0.86904621 -0.17275047 -0.30497122 0
0.9258728 -0.098320007 -0.28114319 0
0.96224213 0.020648956 -0.23955536 0
0.95892 0.071865082 -0.21303225 0
0.73901796 -0.34077072 -0.31557322 0
0.86610079 0.0017490387 -0.27514267 0
0.9123497 0.11648178 -0.22970629 0
0.90254784 0.18377686 -0.19339132 0
0.59534836 -0.45856667 -0.31919575 0
0.82759809 0.07730484 -0.2673974 0
0.80989504 0.16792107 -0.25293636 0
0.86357784 0.23814583 -0.20108795 0
0.85060072 0.32992744 -0.17965651 0
0.76655293 0.19147873 -0.25608778 0
0.76659393 0.29543877 -0.23857975 0
0.81788635 0.35836792 -0.18846083 0
0.82687283 0.45864487 -0.17416859 0
0.75861597 0.43672371 -0.2188592 0
0.97384214 0.065986633 -0.14593554 0
0.91991758 0.12050056 -0.13087893 0
0.90624189 0.18555641 -0.08713007 0
0.88355017 0.24458885 -0.10780907 0
0.86135435 0.33936119 -0.10600996 0
0.84554625 0.38442039 -0.081579208 0
0.8218627 0.47714424 -0.063485146 0
0.95164204 0.12042046 -0.064548492 0
0.93221521 0.20872879 -0.032197475 0
0.86839294 0.27140617 -0.05544138 0
0.87867451 0.32304573 -0.022531986 0
0.84055901 0.45569801 0.0032525063 0
0.50263357 0.29735756 -0.32459545 0
0.31369352 0.056861877 -0.37818575 0
0.36533213 0.1531601 -0.36085939 0
0.38995838 0.22864532 -0.35076904 0
0.41030359 0.31676483 -0.33956337 0
0.48852682 0.37902641 -0.32018042 0
0.51037598 0.4752121 -0.30089664 0
0.22680378 0.013332367 -0.38956594 0
0.23934412 0.0900383 -0.39074802 0
0.30236912 0.17912102 -0.3751936 0
0.30102348 0.28496552 -0.36518478 0
0.36837673 0.37865448 -0.34819746 0
0.40066147 0.45747185 -0.33448267 0
0.078312397 0.023677826 -0.38925314 0
0.20987272 0.14904594 -0.3856349 0
0.18052721 0.19589424 -0.38097715 0
0.21239471 0.3837719 -0.3597517 0
0.29690886 0.48946953 -0.34462214 0
0.059482574 0.057706833 -0.38629389 0
0.12433767 0.27654457 -0.3726511 0
0.16098452 0.45758438 -0.35220051 0
-0.015491486 0.16760445 -0.37624311 0
0.037056446 0.38233566 -0.36115217 0
-0.079134941 0.23702431 -0.36864758 0
-0.14510298 0.31280518 -0.36074591 0
0.0045385361 0.43355751 -0.35662603 0
-0.059074879 0.4889946 -0.34964132 0
-0.19698858 0.34705162 -0.35593033 0
-0.28443813 0.42889595 -0.34678173 0
-0.33557367 0.456213 -0.34268236 0
0.72243881 0.0023498535 -0.29604626 0
0.56871939 -0.099962234 -0.32674599 0
0.64085722 0.007358551 -0.30850363 0
0.68107986 0.10118484 -0.29517794 0
0.745471 0.14754295 -0.26155758 0
0.7639823 0.2588501 -0.23959303 0
0.77284336 0.38269997 -0.21639252 0
0.81455231 0.4743042 -0.18505049 0
0.4473052 -0.22803307 -0.34956694 0
0.50972557 -0.12903786 -0.323349 0
0.50570774 -0.037883759 -0.3389039 0
0.57449245 0.049230576 -0.32106256 0
0.57688713 0.15772247 -0.31536198 0
0.64964437 0.23325348 -0.28673887 0
0.6928978 0.29865837 -0.26133728 0
0.70180798 0.42679787 -0.23470211 0
0.22874594 -0.43757629 -0.39422321 0
0.27756357 -0.38910103 -0.38113689 0
0.31707668 -0.29818535 -0.3716197 0
0.37995768 -0.17689323 -0.36021328 0
0.38571835 -0.071901321 -0.36137772 0
0.43969345 -0.0054950714 -0.35281658 0
0.48627663 0.072595596 -0.34401894 0
0.52033615 0.16951561 -0.33150434 0
0.5817709 0.25403404 -0.31036854 0
0.58786869 0.35483932 -0.29281569 0
0.61590433 0.44836235 -0.2652626 0
0.173172 -0.45392418 -0.40642977 0
0.19936657 -0.33604622 -0.39871836 0
0.23088741 -0.2383194 -0.39203501 0
0.2483964 -0.1271286 -0.38622761 0
0.31389189 -0.073476791 -0.37970209 0
0.39212608 0.044586182 -0.36625719 0
0.4279108 0.16392899 -0.34647417 0
0.16760397 -0.15856361 -0.40416002 0
0.13516378 -0.085142136 -0.39849854 0
0.12631416 -0.057294846 -0.3963151 0
0.88846827 -0.42594337 -0.3111124 0
0.96677208 -0.33611107 -0.30131245 0
0.98834753 -0.24905014 -0.28291845 0
0.90019989 -0.20372009 -0.29151011 0
0.93798494 -0.11977768 -0.27016449 0
0.98360157 -0.028024673 -0.23015499 0
0.98553228 0.030763626 -0.19508314 0
0.7171545 -0.42861366 -0.308321 0
0.74731112 -0.3183136 -0.30359125 0
0.78153658 -0.25334549 -0.30166769 0
0.80516624 -0.17034721 -0.2982254 0
0.81725645 -0.11727715 -0.29365301 0
0.84970665 0.020132065 -0.26124859 0
0.93088531 0.095798492 -0.21270609 0
0.91492081 0.16196442 -0.1998682 0
0.58915091 -0.40917397 -0.30947495 0
0.62244654 -0.34222984 -0.30784225 0
0.63541222 -0.24289513 -0.30346823 0
0.68518925 -0.12174797 -0.30040836 0
0.79089403 -0.03455925 -0.28380203 0
0.76037693 0.049406052 -0.27304459 0
0.8182807 0.1388588 -0.2437458 0
0.87777567 0.23189926 -0.18820286 0
0.86407948 0.299757 -0.15110826 0
0.44793892 -0.48044014 -0.33998299 0
0.50174618 -0.37571907 -0.32767439 0
0.54742765 -0.28005791 -0.32083321 0
0.59470034 -0.16365814 -0.31289339 0
0.63530207 -0.12645912 -0.31398869 0
0.77387428 0.24643135 -0.23062706 0
0.83977413 0.37127304 -0.16380024 0
0.84022427 0.43927956 -0.13411951 0
0.36072826 -0.39980888 -0.35728312 0
0.42224503 -0.33780479 -0.34844065 0
0.46258497 -0.2481308 -0.34220123 0
0.25232077 -0.47355652 -0.38662386 0
0.30151415 -0.35229683 -0.36594152 0
0.99340057 0.013435364 -0.12446022 0
0.93059635 0.092926025 -0.12519073 0
0.91487312 0.14591599 -0.071955681 0
0.88604641 0.20558548 -0.10124111 0
0.87872934 0.2818203 -0.06656599 0
0.85990047 0.34225082 -0.043606758 0
0.84130764 0.41903877 -0.034074306 0
0.82689333 0.48914146 0.023304462 0
0.97822618 0.083137512 -0.041901112 0
0.97032404 0.16610718 -0.018578053 0
0.96003532 0.23407555 0.0061116219 0
0.89119053 0.2809906 -0.0091834068 0
0.91012001 0.34926605 0.027756691 0
0.87232971 0.47716904 0.048874855 0
0.75706768 0.46640205 -0.020830154 0
0.98440838 -0.055233002 -0.095545292 0
0.91509104 0.069894791 -0.061563015 0
0.89609098 0.132658 -0.034094334 0
0.86612797 0.13812065 -0.067615032 0
0.84892607 0.20100021 -0.041073322 0
0.90764189 0.34069633 0.026518822 0
0.82447147 0.26159096 -0.048779011 0
0.81401396 0.31414223 -0.01850462 0
0.83607817 0.40043831 0.021202564 0
0.84986639 0.46609306 0.046156406 0
0.77771139 0.46523857 0.015195847 0
0.57126331 0.36382866 -0.28340054 0
0.5472126 0.47538185 -0.27629757 0
0.96597767 -0.050983429 -0.24143457 0
0.78679466 -0.15549278 -0.30237484 0
0.8921752 -0.11395264 -0.2752018 0
0.87784243 -0.045186996 -0.26621342 0
0.90299654 0.04161644 -0.22972679 0
0.76254654 -0.07175827 -0.29274035 0
0.84889317 0.035089493 -0.25589561 0
0.88314486 0.09551239 -0.22093534 0
0.58073425 -0.12553215 -0.31454945 0
0.73935318 0.005235672 -0.28353643 0
0.70659351 0.070018768 -0.27663136 0
0.79196739 0.16224861 -0.24128103 0
0.83427477 0.2241478 -0.20594215 0
0.62729645 0.034431458 -0.30717897 0
0.65974808 0.13605881 -0.28535604 0
0.67601013 0.21857071 -0.26348352 0
0.7668767 0.31203461 -0.20352268 0
0.79674673 0.37652969 -0.17447472 0
0.5943985 0.23293495 -0.29246521 0
0.67171049 0.27073479 -0.25929689 0
0.66274405 0.33687019 -0.254179 0
0.74800777 0.43791962 -0.18386316 0
0.79396868 0.48651886 -0.14641619 0
0.5867157 0.30056763 -0.28783274 0
0.65270662 0.41105652 -0.2487359 0
0.97089767 -0.43667603 -0.31620693 0
0.94603777 -0.33466339 -0.3029995 0
0.92798328 -0.26582527 -0.29432249 0
0.90558243 -0.1954689 -0.28590441 0
0.98977995 -0.059356689 -0.1440773 0
0.6305871 -0.41582298 -0.31292057 0
0.73817825 -0.27478409 -0.30881929 0
0.94530773 0.018684387 -0.16744089 0
0.88755131 0.095314026 -0.15522289 0
0.45765686 -0.42983055 -0.3277669 0
0.50158024 -0.3239212 -0.32291603 0
0.52971506 -0.2357254 -0.31878996 0
0.83604908 0.22039413 -0.12219191 0
0.81052065 0.34438324 -0.083434582 0
0.78934669 0.42835617 -0.11666775 0
0.76524258 0.46747017 -0.059039116 0
0.96111441 0.0055885315 -0.08279705 0
0.99542809 0.062587738 -0.031628132 0
0.89902496 0.085010529 -0.089916706 0
0.89625311 0.12257576 -0.056047916 0
0.93567181 0.19083977 -0.012833118 0
0.85093307 0.19295311 -0.060434818 0
0.86210012 0.25490952 -0.013664722 0
0.82743168 0.33894348 -0.0084547997 0
0.80994797 0.42033386 0.019846916 0
0.78966093 0.45289803 0.0059885979 0
0.54287338 0.12203598 -0.3273716 0
0.61561728 0.22533226 -0.2924509 0
0.43758059 0.097585678 -0.35315514 0
0.54294014 0.22470284 -0.31994343 0
0.60137367 0.31380844 -0.28416872 0
0.63546467 0.37462807 -0.26520348 0
0.21194887 -0.052446365 -0.40356588 0
0.32177544 0.12404442 -0.37578583 0
0.40789795 0.23003197 -0.34355402 0
0.42090559 0.30739021 -0.33930588 0
0.53476906 0.31405449 -0.31294203 0
0.60852337 0.48209763 -0.25538731 0
0.22148132 0.10276985 -0.39770508 0
0.32137585 0.24177933 -0.36956978 0
0.41167355 0.4312458 -0.33151007 0
0.46955585 0.47593117 -0.30962276 0
0.16304445 0.17837715 -0.38988066 0
0.30616236 0.37101936 -0.3622551 0
0.0764184 0.26675797 -0.38007212 0
0.24626493 0.47318077 -0.35352564 0
0.0014357567 0.30585861 -0.37408257 0
-0.11302519 0.37190247 -0.36509371 0
-0.18660593 0.39221382 -0.36087847 0
-0.31202126 0.43621063 -0.35335779 0
-0.25059175 0.41616058 -0.35691071 0
-0.45842314 0.27205467 -0.38052654 0
-0.38691139 0.46007729 -0.34910107 0
-0.67907524 0.17322159 -0.3997612 0
-0.54981041 0.3610096 -0.37617016 0
-0.45841074 0.45868874 -0.34755945 0
-0.60020447 0.39588928 -0.37609673 0
0.92619562 -0.34150696 -0.31066942 0
0.89269638 -0.23908997 -0.29819679 0
0.88697624 -0.15881538 -0.28647327 0
0.98957157 -0.079954147 -0.25007677 0
0.83905315 -0.015451431 -0.26908112 0
0.91466236 0.041713715 -0.23154259 0
0.56583738 -0.23266983 -0.32702208 0
0.72270393 -0.025043488 -0.29399443 0
0.82954597 0.032155991 -0.26164722 0
0.85377169 0.098371506 -0.2371707 0
0.85155296 0.20490456 -0.1919241 0
0.61405659 -0.080062866 -0.31786537 0
0.65623665 0.015981674 -0.31173658 0
0.71104527 0.057498932 -0.28400183 0
0.75010729 0.17052841 -0.25272799 0
0.83053493 0.26738358 -0.20012236 0
0.81968069 0.32575035 -0.17639065 0
0.17922592 -0.4742527 -0.39926291 0
0.30531836 -0.38864136 -0.37570858 0
0.31419754 -0.25479698 -0.36800718 0
0.41562986 -0.23228264 -0.34615183 0
0.48171806 -0.099758148 -0.34023809 0
0.52451372 0.048353195 -0.33239985 0
0.61943769 0.15637398 -0.29919434 0
0.66466951 0.26080704 -0.26348066 0
0.71363783 0.30395317 -0.24311876 0
0.77529192 0.36574173 -0.18745089 0
0.80409718 0.4734478 -0.15272951 0
0.1977973 -0.40774727 -0.39605808 0
0.23518896 -0.31759071 -0.39325094 0
0.2535615 -0.18115997 -0.38712358 0
0.32632303 -0.10618782 -0.3735013 0
0.42332125 -0.026483536 -0.35998297 0
0.71885157 0.48684883 -0.20851135 0
0.091802597 -0.34861565 -0.40897322 0
0.1613307 -0.26872063 -0.40961695 0
0.18413162 -0.14112091 -0.40546131 0
-0.27089643 -0.25933838 -0.39883709 0
-0.33504105 -0.21744537 -0.39315796 0
-0.42432976 -0.18156624 -0.38658333 0
-0.64664984 -0.35453796 -0.42586613 0
-0.56460524 -0.27196121 -0.40447187 0
-0.57909632 -0.21370888 -0.4040494 0
-0.43923664 -0.072216034 -0.38432264 0
-0.4414258 0.043117523 -0.38258696 0
-0.68409252 -0.27651596 -0.42297125 0
-0.70505619 -0.21862602 -0.42367411 0
-0.59914589 -0.12529182 -0.40326166 0
-0.62029219 -0.036504745 -0.40281153 0
-0.44561291 0.15234756 -0.38097525 0
-0.64561081 0.049028397 -0.40202999 0
0.94303036 -0.40829468 -0.31937885 0
0.9926815 -0.042982101 -0.18107367 0
0.5547514 -0.44525719 -0.32145691 0
0.92883253 0.046640396 -0.16529083 0
0.44676876 -0.46845818 -0.34062862 0
0.49888086 -0.34975624 -0.33332014 0
0.61185169 -0.28440285 -0.31049728 0
0.86960697 0.14032936 -0.14243889 0
0.38899326 -0.36671066 -0.3541646 0
0.83374882 0.3049984 -0.091939449 0
0.25119495 -0.4430275 -0.37711334 0
0.79977417 0.43483162 -0.074050426 0
-0.34178925 -0.48474884 -0.39932251 0
-0.49093294 -0.46496391 -0.41111422 0
-0.56636763 -0.4119091 -0.41862059 0
-0.52513695 -0.36254692 -0.40863657 0
0.99709558 -0.03455162 -0.085242748 0
0.92875099 0.048007965 -0.096482754 0
0.9383173 0.1029644 -0.054125786 0
0.96117687 0.17338943 -0.010750294 0
0.88939857 0.15860558 -0.05412674 0
0.89367533 0.23377419 -0.001663208 0
0.85152769 0.30197334 -0.010741234 0
0.85486555 0.37619591 0.021335602 0
0.81916952 0.44595528 0.011579514 0
0.36341763 0.49892426 -0.34455729 0
0.80582285 0.48208618 -0.18003702 0
0.44796133 0.11268616 -0.34371614 0
0.56289673 0.16564369 -0.31259537 0
0.61505461 0.27293968 -0.28596306 0
0.62284756 0.42368507 -0.25426626 0
0.68692875 0.47146416 -0.21859264 0
0.33883953 0.035337448 -0.37657309 0
0.34713745 0.14992523 -0.36866045 0
0.46868086 0.21945953 -0.33504057 0
0.50341272 0.36198807 -0.30782795 0
0.54675388 0.47203445 -0.28074503 0
0.63380098 0.49016953 -0.24619436 0
0.33133507 0.30037117 -0.35730743 0
0.46497583 0.44826508 -0.31588793 0
0.34482765 0.39207077 -0.35122442 0
0.93799019 -0.20959854 -0.2837534 0
0.92831278 -0.12971306 -0.2717371 0
0.96246099 -0.020856857 -0.22254133 0
0.9106617 -0.043359756 -0.25931072 0
0.91263533 0.045215607 -0.22030258 0
0.77958059 -0.067979813 -0.28905725 0
0.75782204 0.036985397 -0.27347088 0
0.88597107 0.094861984 -0.23648882 0
0.86492538 0.17678452 -0.20562649 0
0.61150789 -0.13104057 -0.31290197 0
0.69144154 0.017402649 -0.30044127 0
0.67642736 0.10667419 -0.28999138 0
0.73997116 0.13487053 -0.25849915 0
0.83024549 0.24608612 -0.19441843 0
0.83327913 0.30190849 -0.16645718 0
0.45727253 -0.1688633 -0.33825111 0
0.57056761 0.0076560974 -0.32708788 0
0.66848278 0.20314789 -0.27847815 0
0.72488403 0.28120995 -0.24044514 0
0.81417608 0.38665962 -0.15426493 0
0.80448389 0.45496178 -0.1262207 0
0.21545839 -0.23314667 -0.38940334 0
0.33648014 -0.19223213 -0.36286831 0
0.38802958 -0.00141716 -0.35075855 0
0.26912832 -0.11471939 -0.38350964 0
0.97823095 -0.41905403 -0.31377172 0
0.93603325 -0.28420067 -0.29632139 0
0.98908186 -0.029708862 -0.16654205 0
0.59769344 -0.4095993 -0.31388903 0
0.94015837 0.036165237 -0.14710093 0
0.91131592 0.076019287 -0.093143463 0
0.45346737 -0.48554039 -0.34061766 0
0.51870632 -0.30271339 -0.32583427 0
0.87939787 0.099082947 -0.14367628 0
0.86855507 0.16202736 -0.11448669 0
0.32106781 -0.49585533 -0.3628068 0
0.4057622 -0.31319237 -0.34849644 0
0.85261631 0.2319355 -0.10603237 0
0.83398676 0.2936573 -0.069761753 0
0.25176048 -0.47147942 -0.38203764 0
0.31570339 -0.40056801 -0.37769318 0
0.80890846 0.41587448 -0.027653217 0
0.14479208 -0.47548676 -0.40431023 0
0.17921925 -0.39452744 -0.39899111 0
0.93052387 0.086156845 -0.054662704 0
0.99527311 0.15827751 -0.0059151649 0
0.91515255 0.21826935 -0.010010719 0
0.8469367 0.30365562 -0.015305996 0
0.89212322 0.35267448 0.028388023 0
0.85277176 0.46895218 0.049193382 0
0.43544388 0.47093964 -0.33029175 0
0.26111937 0.41327858 -0.36475134 0
0.2294488 0.487257 -0.35641479 0
0.64545441 0.1533699 -0.30081987 0
0.7797389 0.46700287 -0.19184875 0
0.40927076 0.094345093 -0.36275482 0
0.51744652 0.13961029 -0.3310976 0
0.58186483 0.27218056 -0.30265236 0
0.60786343 0.38026428 -0.27464914 0
0.68556213 0.39349556 -0.23761272 0
0.42701769 0.19692039 -0.35382891 0
0.55135298 0.3330555 -0.3107605 0
0.52028894 0.45747185 -0.2979393 0
0.60965157 0.46043968 -0.26491356 0
0.2859273 0.28704453 -0.37556744 0
0.41894102 0.37346077 -0.33865976 0
0.91956234 -0.2401123 -0.29779053 0
0.91407824 -0.15636063 -0.28461218 0
0.93013096 -0.11397171 -0.27560663 0
0.98063231 -0.063180923 -0.2340374 0
0.89722109 0.029474258 -0.23816919 0
0.74636316 -0.0095119476 -0.29025555 0
0.86431551 0.096086502 -0.24548769 0
0.8652482 0.15847588 -0.21063185 0
0.58066988 -0.10015297 -0.32719803 0
0.69212723 0.061203003 -0.29578972 0
0.70404005 0.18243217 -0.26444674 0
0.83145761 0.25718117 -0.20114756 0
0.82474661 0.32214546 -0.15434361 0
0.34770727 -0.20416069 -0.35826063 0
0.48649025 -0.032766342 -0.34631348 0
0.71302366 0.26373291 -0.25291014 0
0.79048729 0.35919762 -0.20667458 0
0.80613852 0.44117355 -0.13076544 0
0.24390221 -0.27266884 -0.38786507 0
0.32400894 -0.098930359 -0.37595606 0
0.98000097 -0.032583237 -0.15915966 0
0.92121696 0.038988113 -0.12300825 0
0.9072423 0.09141922 -0.17738104 0
0.53411818 -0.43593407 -0.32993031 0
0.6436553 -0.2364769 -0.31171179 0
0.86935663 0.14112282 -0.12442923 0
0.44496155 -0.30965614 -0.34415436 0
0.83260584 0.29058838 -0.071643353 0
0.83801889 0.33854866 -0.0096096992 0
0.20710087 -0.44916916 -0.40116024 0
0.30228233 -0.39176559 -0.37346411 0
0.81407404 0.35305786 -0.088952541 0
0.78234529 0.445755 -0.053455353 0
-0.47929096 -0.48031616 -0.41600609 0
-0.51134968 -0.35801125 -0.40728807 0
0.98789597 -0.020069122 -0.077103138 0
0.9472146 0.041294098 -0.065843582 0
0.99539661 0.14913559 -0.011620998 0
0.91011858 0.11953735 -0.050834656 0
0.86712027 0.20389175 -0.036579132 0
0.95038462 0.26529121 0.010179996 0
0.85269356 0.26160049 -0.024610519 0
0.92486906 0.34972954 0.025683403 0
0.89527035 0.4367218 0.041091919 0
0.84589529 0.47248459 0.049473286 0
0.48801947 0.3919754 -0.31570959 0
0.48226213 0.49482727 -0.30333614 0
0.66807032 0.061712265 -0.29427719 0
0.76659346 0.24427223 -0.23035574 0
0.61374664 0.16700935 -0.29426193 0
0.67818403 0.25590897 -0.26569414 0
0.75039053 0.38436317 -0.21113586 0
0.44216442 0.090501785 -0.34681416 0
0.58476257 0.31905937 -0.28961325 0
0.64823627 0.41189194 -0.24620342 0
0.46155834 0.25273705 -0.33013582 0
0.58254862 0.47034454 -0.26975632 0
0.98224211 -0.27407074 -0.28467274 0
0.96780777 -0.16304016 -0.26756191 0
0.97521687 -0.058389664 -0.24641991 0
0.99313545 -0.030824661 -0.20492697 0
0.81567478 -0.024251938 -0.27308846 0
0.93338013 0.058523178 -0.20538712 0
0.80732155 0.050483704 -0.25982904 0
0.79136658 0.12166023 -0.2485404 0
0.88158703 0.15603256 -0.18923521 0
0.54844093 -0.19005013 -0.31982374 0
0.84705067 0.24184608 -0.17405701 0
0.83779049 0.33090782 -0.13731194 0
0.35295534 -0.32606506 -0.3567152 0
0.49559975 -0.077020645 -0.33385611 0
0.81304407 0.45809555 -0.11720037 0
0.99012375 -0.025981903 -0.13947582 0
0.9401412 0.043838501 -0.13689756 0
0.93932104 0.084569931 -0.05702734 0
0.55628681 -0.39267921 -0.31223822 0
0.87403154 0.11326218 -0.1357851 0
0.87375307 0.17993355 -0.082412243 0
0.88252735 0.21111679 -0.033201218 0
0.40430593 -0.47084427 -0.34780788 0
0.85679388 0.23476791 -0.11583996 0
0.85080767 0.30649948 -0.036335945 0
0.81043577 0.4294796 -0.02182579 0
0.84357977 0.48321533 0.045714378 0
0.98686218 0.14927292 -0.010398388 0
0.97484589 0.2191143 0.005405426 0
0.92677975 0.28821373 0.019935608 0
0.91354704 0.37112617 0.036738396 0
0.59872723 0.20684814 -0.28833199 0
0.60690975 0.27944756 -0.27782583 0
0.60644245 0.3997612 -0.26164484 0
0.71137714 0.49848175 -0.20704794 0
0.48605204 0.28074074 -0.31076574 0
0.51641178 0.39590836 -0.29697323 0
0.9191494 -0.095685959 -0.25933027 0
0.92403507 -0.028081894 -0.24634409 0
0.60774899 -0.20712662 -0.30030155 0
0.73859119 0.015071869 -0.27425289 0
0.87715864 0.10625267 -0.22773027 0
0.86834669 0.19481087 -0.1918993 0
0.70455217 0.16910934 -0.25442553 0
0.83682489 0.29007149 -0.17644978 0
0.53228855 -0.040685654 -0.31552315 0
0.70848274 0.27824211 -0.23842382 0
0.81374788 0.39708138 -0.15992308 0
0.70351696 0.38950157 -0.22298765 0
0.99273205 -0.018041611 -0.16871738 0
0.95045805 0.025417328 -0.15757465 0
0.92020082 0.090824127 -0.14781284 0
0.86085272 0.17506218 -0.11131525 0
0.36902666 -0.38483047 -0.34984446 0
0.8539567 0.28057861 -0.093304634 0
0.83757257 0.36086845 -0.10192585 0
0.8336401 0.36544037 -0.054757595 0
0.80904388 0.49302483 -0.081485271 0
0.96455622 0.037715912 -0.071764469 0
0.98295259 0.14856339 -0.0081210136 0
0.90958929 0.13973618 -0.051287174 0
0.93572903 0.19774246 0.0032777786 0
0.86968565 0.26349449 -0.027545452 0
0.86882114 0.34340286 0.0151968 0
0.82109737 0.4899292 0.033717155 0
0.63426018 0.30077362 -0.27420807 0
0.62945223 0.43832207 -0.25503922 0
0.9362359 -0.09828186 -0.26059484 0
0.92977905 -0.0026893616 -0.24411678 0
0.63987303 -0.1595211 -0.29750919 0
0.73811722 0.053924561 -0.27064896 0
0.8966403 0.15042686 -0.21838379 0
0.35620785 -0.33487129 -0.34923553 0
0.59464502 0.044002533 -0.30924273 0
0.72921562 0.1756897 -0.25305986 0
0.84754133 0.28878975 -0.19545794 0
0.63028288 0.20486259 -0.28825998 0
0.73536682 0.28694534 -0.23590755 0
0.83958817 0.3969059 -0.17768908 0
0.71924114 0.43220711 -0.21580267 0
0.94937706 0.059984207 -0.16413927 0
0.90988445 0.15179253 -0.17448139 0
0.86334324 0.2025547 -0.12462282 0
0.85305977 0.29940796 -0.12816095 0
0.83322668 0.39040184 -0.089236736 0
0.96279716 0.052988052 -0.075986385 0
0.91560078 0.097419739 -0.096995354 0
0.90502787 0.18327141 -0.035597801 0
0.87651825 0.20937157 -0.077840328 0
0.86809826 0.2803669 -0.040463924 0
0.82996416 0.40502548 0.0034584999 0
0.86247587 0.075151443 -0.25358057 0
0.45284224 -0.29532623 -0.33913994 0
0.68857622 0.070472717 -0.2963829 0
0.83539391 0.17824936 -0.23803282 0
0.67372036 0.19350815 -0.28011799 0
0.80174208 0.28982353 -0.22190332 0
0.68106174 0.31252098 -0.26268911 0
0.77791548 0.43211937 -0.20199871 0
0.67927408 0.42475891 -0.24702501 0
0.99395275 -0.011899948 -0.20170307 0
0.87780952 -0.014940262 -0.26851082 0
0.92309332 0.091609955 -0.1837039 0
0.85952425 0.18874931 -0.14249992 0
0.8392005 0.30501938 -0.15769386 0
0.8194356 0.43568993 -0.12793112 0
0.99477243 -0.0059719086 -0.10265779 0
0.91440201 0.085924149 -0.11913252 0
0.89321661 0.18488693 -0.054359913 0
0.84888983 0.30002594 -0.066942692 0
0.8149991 0.43975067 -0.034178734 0
0.96286631 0.2620182 0.0068135262 0
0.90256405 0.40138435 0.031859398 0
