# .PCD v0.7 - Point Cloud Data file format
VERSION 0.7
FIELDS x y z intensity
SIZE 4 4 4 4
TYPE F F F F
COUNT 1 1 1 1
WIDTH 1290
HEIGHT 1
VIEWPOINT 0 0 0 1 0 0 0
POINTS 1290
DATA ascii
0.48154068 -0.054538727 -0.37439227 0
0.34848881 -0.06319046 -0.39526486 0
0.39960861 0.00043678284 -0.38873434 0
0.20648098 -0.069223404 -0.36809051 0
0.30755138 0.019989014 -0.40207839 0
0.3136425 0.042097092 -0.40886617 0
0.071760178 -0.050832748 -0.33138871 0
0.13143635 -0.062984467 -0.35446429 0
-0.072977066 -0.032617569 -0.31726968 0
-0.016400337 -0.039028168 -0.3267374 0
-0.16285706 -0.024011612 -0.30953789 0
-0.2898674 -0.015054703 -0.28740644 0
-0.21913719 0.0040187836 -0.27418292 0
-0.43243313 0.0053806305 -0.27526069 0
-0.37498474 0.0042133331 -0.27018321 0
-0.58063316 -0.0018539429 -0.26284647 0
-0.51527596 0.017999649 -0.2580905 0
-0.64888763 0.025384903 -0.24227333 0
-0.57289124 0.066677094 -0.22830927 0
-0.53730297 0.1972332 -0.31546307 0
-0.46300888 0.27363968 -0.38929152 0
-0.4481554 0.29076767 -0.39321113 0
-0.78036308 0.0317173 -0.2257483 0
-0.72150803 0.053361893 -0.21509302 0
-0.56519318 0.22336769 -0.32869554 0
-0.56203938 0.29173279 -0.37195718 0
-0.85421467 0.06807518 -0.21655226 0
-0.95104408 0.10759354 -0.2232331 0
0.9495554 -0.23137665 -0.29574251 0
0.84534168 -0.22468758 -0.31616712 0
0.8637991 -0.1691246 -0.30086946 0
0.73541641 -0.15614128 -0.32258391 0
0.78916073 -0.11651993 -0.31200862 0
0.65405941 -0.11722374 -0.33795929 0
0.7023735 -0.049715042 -0.32834911 0
0.59147453 -0.053949356 -0.3504566 0
0.62861252 0.020893097 -0.34556723 0
0.50494862 -0.00050544739 -0.36517429 0
0.5379076 0.068195343 -0.3594718 0
0.42912769 0.049577713 -0.38517785 0
0.47152996 0.13022614 -0.37770545 0
0.34459877 0.098827362 -0.3986218 0
0.38857555 0.19086456 -0.40576744 0
0.072656631 0.0059642792 -0.28796256 0
0.098956108 0.043258667 -0.28056121 0
0.31372643 0.16568375 -0.40308475 0
0.2968359 0.23541641 -0.42438424 0
-0.074437141 0.0055961609 -0.27488792 0
0.010469437 0.030960083 -0.2761488 0
0.18097305 0.26433754 -0.45607257 0
0.22121048 0.28599167 -0.44129992 0
-0.12688637 0.033494949 -0.26224971 0
-0.074082375 0.065193176 -0.26046681 0
0.10303593 0.31834984 -0.46710181 0
0.13956261 0.33659172 -0.45886385 0
-0.27780437 0.036716461 -0.25261855 0
-0.21332645 0.069246292 -0.24875331 0
0.028191566 0.37591934 -0.47752035 0
0.070975304 0.38471413 -0.46624589 0
-0.35636139 0.079795837 -0.23691678 0
-0.2938776 0.14094162 -0.2435348 0
-0.041526794 0.41993332 -0.4664005 0
-0.47908401 0.076673508 -0.23076808 0
-0.43265915 0.14286232 -0.24179256 0
-0.39434528 0.20057297 -0.24503374 0
-0.14904118 0.46086121 -0.46080685 0
-0.6470499 0.092094421 -0.21641231 0
-0.57452202 0.099948883 -0.22999382 0
-0.49458981 0.19761467 -0.26788843 0
-0.47288895 0.24828339 -0.28478503 0
-0.44668007 0.31279564 -0.39333808 0
-0.24936485 0.49723053 -0.44597363 0
-0.21481323 0.48985863 -0.44800401 0
-0.78026009 0.089639664 -0.19231904 0
-0.70084667 0.11591911 -0.20915246 0
-0.58276939 0.30990028 -0.28506184 0
-0.54172802 0.3110981 -0.32444215 0
-0.46842384 0.30456924 -0.38871825 0
-0.83922005 0.12130547 -0.18015218 0
-0.78824806 0.16281128 -0.19734597 0
-0.60862064 0.33253479 -0.27908111 0
-0.61120415 0.37454605 -0.34858191 0
-0.92706108 0.16454124 -0.17238069 0
-0.86071396 0.22462463 -0.19194293 0
-0.67595959 0.44058418 -0.3746922 0
-0.67813015 0.45091629 -0.42032707 0
-0.95632553 0.27475357 -0.18052506 0
0.90727234 -0.10816383 -0.28699422 0
0.90045071 -0.072584152 -0.29760098 0
0.77625751 -0.035135269 -0.30125785 0
0.84375191 -0.0057888031 -0.30912495 0
0.91214275 0.074829102 -0.32085443 0
0.74238777 0.0051498413 -0.32038057 0
0.78430939 0.065422058 -0.31721449 0
0.87438011 0.11785889 -0.32833433 0
0.66730309 0.056224823 -0.33542061 0
0.70711708 0.10095406 -0.31792045 0
0.59018517 0.12319374 -0.34742832 0
0.60686111 0.17143822 -0.33206701 0
0.49090195 0.18488884 -0.37172425 0
0.54653168 0.23045731 -0.36719537 0
0.40490818 0.23697281 -0.39098907 0
0.46695423 0.28429794 -0.38382053 0
0.33595848 0.30142593 -0.41036534 0
0.38192272 0.33302689 -0.40107501 0
0.25837231 0.33901024 -0.4266963 0
0.30008125 0.40595627 -0.40993035 0
0.18863297 0.39705849 -0.43490589 0
0.20945168 0.46459198 -0.42807102 0
0.085180283 0.45503044 -0.44204915 0
-0.064878464 0.4770565 -0.45198536 0
-0.44021797 0.28560829 -0.26164639 0
-0.5174427 0.3417511 -0.27600777 0
-0.59912205 0.41456032 -0.29856408 0
-0.67620373 0.4907074 -0.31812763 0
0.97403336 0.13207054 -0.33418632 0
0.77023697 0.12521935 -0.25041628 0
0.70528507 0.16633606 -0.25963473 0
0.63201332 0.23204994 -0.26703572 0
0.57864571 0.28292084 -0.32055807 0
0.61459732 0.35594177 -0.34165561 0
0.67337227 0.41022682 -0.35548282 0
0.49332142 0.35163689 -0.36611974 0
0.52810478 0.39855003 -0.35229492 0
0.41366482 0.40019035 -0.37895513 0
0.44133663 0.45539093 -0.36517668 0
0.33200264 0.45090675 -0.3890183 0
0.92386436 0.33145142 -0.29522634 0
0.7008543 0.2342968 -0.21914315 0
0.6723175 0.27839661 -0.2197001 0
0.65750217 0.33298874 -0.25679862 0
0.80897331 0.49461746 -0.37872612 0
0.60715485 0.30338478 -0.25397205 0
0.66349983 0.38560104 -0.29749656 0
0.68735504 0.47849274 -0.36428189 0
0.5338192 0.47945213 -0.35209274 0
0.63101387 -0.48536873 -0.40784764 0
0.54634571 -0.44673157 -0.41546762 0
0.54551697 -0.38287354 -0.40854084 0
0.44660378 -0.43453217 -0.41270733 0
0.45089722 -0.36305618 -0.41115475 0
0.355793 -0.40507507 -0.40327775 0
0.37966728 -0.32831192 -0.40462327 0
0.24134922 -0.46903801 -0.37782013 0
0.25076485 -0.36092949 -0.39140177 0
0.2525444 -0.30285835 -0.39124906 0
0.15295029 -0.41305923 -0.38158 0
0.15479946 -0.34682274 -0.38123965 0
0.080543518 -0.37704086 -0.37284625 0
0.071954727 -0.31129837 -0.3726753 0
-0.03123188 -0.27097702 -0.36617863 0
-0.037532806 -0.21346474 -0.3776716 0
-0.11404514 -0.22679901 -0.37530291 0
-0.13519001 -0.17462921 -0.3858844 0
-0.20342731 -0.19353104 -0.37684667 0
-0.21539593 -0.1571331 -0.38798845 0
-0.29741096 -0.11200523 -0.39325869 0
-0.35828018 -0.094314575 -0.38239312 0
0.95738316 -0.45239067 -0.32645464 0
0.83554268 -0.49876976 -0.35839844 0
0.8546505 -0.43338394 -0.34548974 0
0.75971317 -0.46855927 -0.37311482 0
0.77319431 -0.39748383 -0.36035192 0
0.66557884 -0.35890579 -0.37237477 0
0.58334446 -0.32474518 -0.38319993 0
0.57375622 -0.248703 -0.36753607 0
0.48474121 -0.29405594 -0.39084184 0
0.48713017 -0.23234558 -0.3848207 0
0.39379883 -0.27103424 -0.40416741 0
0.4087162 -0.19732094 -0.39289784 0
0.30298805 -0.25212479 -0.39703059 0
0.31231403 -0.1667614 -0.39499569 0
0.19790745 -0.23604202 -0.38564754 0
0.22187996 -0.13320923 -0.38793969 0
0.10291004 -0.26760483 -0.37295794 0
0.099672318 -0.20333672 -0.3789171 0
0.1287241 -0.10750961 -0.38564515 0
0.027551651 -0.24217606 -0.36981881 0
0.0016927719 -0.16520309 -0.38256621 0
0.021688461 -0.084947586 -0.37721515 0
-0.084586143 -0.12273979 -0.38303268 0
-0.04822731 -0.079046249 -0.36563396 0
-0.17963314 -0.088098526 -0.37569261 0
-0.17359829 -0.036130905 -0.3496083 0
-0.27587605 -0.063943863 -0.35787499 0
-0.38037109 -0.064727783 -0.33747816 0
-0.50871372 -0.060642242 -0.33342826 0
-0.47850513 -0.040719986 -0.31154776 0
-0.58108521 -0.028209686 -0.30231762 0
-0.55210304 -0.023366928 -0.30368996 0
-0.68222523 -0.01112175 -0.28076601 0
-0.77475643 -0.002532959 -0.2567209 0
-0.87753963 0.023723602 -0.25376308 0
-0.97102356 0.07147789 -0.26262343 0
0.97851658 -0.40139961 -0.3072505 0
0.98287201 -0.32505226 -0.28952539 0
0.89919853 -0.35673904 -0.31783772 0
0.91153049 -0.30149078 -0.30747771 0
0.8065424 -0.332304 -0.33613038 0
0.80384731 -0.25874138 -0.32205546 0
0.70454121 -0.29577637 -0.35105205 0
0.71362305 -0.2410202 -0.33847165 0
0.62283611 -0.19403839 -0.34495234 0
0.52370739 -0.16634369 -0.35457492 0
0.52933502 -0.098367691 -0.34881115 0
0.43971729 -0.139925 -0.36567903 0
0.45339394 -0.061559677 -0.36301708 0
0.33677673 -0.10827827 -0.38082826 0
0.3613596 -0.02530098 -0.37598741 0
0.3675251 0.044971466 -0.38705754 0
0.21923351 -0.077947617 -0.3683908 0
0.3007803 -0.01200676 -0.38959265 0
0.29176998 0.074411392 -0.39415717 0
0.1253376 -0.060979843 -0.32205069 0
0.043391228 -0.046390533 -0.3105557 0
-0.097038269 -0.033288956 -0.29661548 0
-0.052822113 -0.033191681 -0.30261815 0
-0.17456818 -0.023792267 -0.28523827 0
-0.11847019 -0.047552109 -0.34049439 0
-0.25768948 -0.011037827 -0.26587653 0
-0.35994816 -0.00068473816 -0.2599442 0
-0.50565434 -0.014410019 -0.26361656 0
-0.45709896 0.020959854 -0.24608445 0
-0.4313097 0.28367424 -0.3847506 0
-0.58111477 0.0041656494 -0.24473 0
-0.5563488 0.050128937 -0.22376466 0
-0.54234505 0.15801811 -0.26513398 0
-0.5056982 0.28176498 -0.36812639 0
-0.48881721 0.30458069 -0.37355995 0
-0.67123127 0.027427673 -0.22050965 0
-0.65198326 0.090946198 -0.20492649 0
-0.5689764 0.28408241 -0.34724236 0
-0.57894421 0.33075333 -0.36520731 0
-0.77368546 0.046819687 -0.20253968 0
-0.73887348 0.10694313 -0.19254923 0
-0.65198421 0.36798286 -0.37184918 0
-0.86001396 0.067064285 -0.20017421 0
-0.72054672 0.41971779 -0.38644743 0
-0.9522419 0.10762405 -0.20177126 0
0.92479992 -0.23359489 -0.28805172 0
0.93893147 -0.16716766 -0.27531123 0
0.84437466 -0.19717789 -0.29423881 0
0.83584309 -0.11446762 -0.29082513 0
0.75270081 -0.16843605 -0.30921745 0
0.75210381 -0.086200714 -0.30507374 0
0.65872669 -0.076938629 -0.32012844 0
0.67060566 0.0086555481 -0.32279468 0
0.56197548 -0.039575577 -0.33952546 0
0.59737015 0.042396545 -0.34007668 0
0.47687912 -0.0026073456 -0.35534024 0
0.49720383 0.076089859 -0.35533285 0
0.51620102 0.13620949 -0.35566223 0
0.41861629 0.022525787 -0.36574435 0
0.39968586 0.090187073 -0.37648582 0
0.43467999 0.17610168 -0.37716484 0
0.31752014 0.13122559 -0.39715314 0
0.33205891 0.22398567 -0.39996672 0
0.30240154 0.27828407 -0.41446912 0
0.13089848 0.046855927 -0.27173209 0
0.23912239 0.2623539 -0.42994428 0
0.23964214 0.31553459 -0.42177641 0
0.057434082 0.021238327 -0.26796424 0
0.14303493 0.29406929 -0.44604802 0
0.15287685 0.36063385 -0.44182873 0
-0.033708572 0.039442062 -0.25554025 0
0.060239792 0.40159798 -0.44892192 0
-0.17814445 0.021577835 -0.24795878 0
-0.13644695 0.050701141 -0.24287379 0
-0.024554253 0.41184044 -0.45518506 0
-0.24997234 0.048128128 -0.23431885 0
-0.21426296 0.091787338 -0.23522246 0
-0.12208843 0.45703888 -0.44774485 0
-0.342103 0.067070007 -0.22558677 0
-0.31609249 0.11685944 -0.22437966 0
-0.20281792 0.48891449 -0.43901157 0
-0.43715096 0.085704803 -0.21909189 0
-0.41662979 0.17374039 -0.23474777 0
-0.41062641 0.2265873 -0.26593411 0
-0.51362705 0.10264587 -0.22446454 0
-0.48819828 0.16633224 -0.25213742 0
-0.48822021 0.26752281 -0.27236187 0
-0.68283463 0.11579895 -0.20201933 0
-0.56546402 0.32554054 -0.28941 0
-0.57446766 0.37581253 -0.30071902 0
-0.74123287 0.14573097 -0.19534957 0
-0.63267708 0.36047554 -0.31218338 0
-0.65485954 0.42263031 -0.33825266 0
-0.67574883 0.49790382 -0.33126581 0
-0.84628105 0.12896919 -0.1639955 0
-0.82064915 0.17338943 -0.18035698 0
-0.72443199 0.48638725 -0.34385765 0
-0.93828487 0.15735626 -0.15473294 0
-0.93412876 0.22095299 -0.16085553 0
0.97499847 -0.10860825 -0.27962089 0
0.98449993 -0.03040123 -0.29620171 0
0.87955189 -0.093547821 -0.27992845 0
0.88454151 -0.0097560883 -0.29354441 0
0.91245747 0.087438583 -0.31167984 0
0.79519844 -0.050455093 -0.28470123 0
0.79506111 0.010972977 -0.30060363 0
0.83966255 0.088403702 -0.30936861 0
0.71214867 0.079248428 -0.30069399 0
0.62841225 0.11336708 -0.31252372 0
0.61224556 0.15112114 -0.31053472 0
0.55238628 0.19830704 -0.33755755 0
0.54185581 0.28726578 -0.34804666 0
0.44784641 0.24304008 -0.37201834 0
0.45399761 0.30839157 -0.36757159 0
0.36276722 0.3459816 -0.38568211 0
0.28207588 0.38116074 -0.4030087 0
0.27274323 0.44325066 -0.39197314 0
0.18468285 0.41453362 -0.41907763 0
0.18187618 0.47961998 -0.40682554 0
0.039560318 0.46356583 -0.42198122 0
-0.050331116 0.47841644 -0.43227708 0
-0.64502525 0.46664429 -0.29410934 0
0.93056774 0.20655251 -0.3005842 0
0.77313995 0.11666679 -0.24165583 0
0.74147224 0.12815857 -0.2472856 0
0.73310089 0.16921234 -0.22416353 0
0.765172 0.44295883 -0.35650647 0
0.65280628 0.20304298 -0.24967718 0
0.63673401 0.31496048 -0.28398263 0
0.6485939 0.38766289 -0.32387781 0
0.6894455 0.45820427 -0.35052788 0
0.59392548 0.26046944 -0.25421739 0
0.58431911 0.30989456 -0.31775904 0
0.61195278 0.41594124 -0.34135389 0
0.48894787 0.37136459 -0.34613943 0
0.50117779 0.45211983 -0.34305429 0
0.42290306 0.3926487 -0.356619 0
0.39782238 0.47336388 -0.35531044 0
0.31723213 0.4979744 -0.37210369 0
0.89320183 0.29583168 -0.26928103 0
0.76063061 0.39114571 -0.30314803 0
0.79618359 0.49671364 -0.36270523 0
0.65314388 0.26335526 -0.20563495 0
0.59636784 -0.46519279 -0.41519499 0
0.51708794 -0.40341377 -0.42270279 0
0.46120834 -0.43541145 -0.41839838 0
0.37050438 -0.39584732 -0.408476 0
0.38208008 -0.49518394 -0.39885497 0
0.3039484 -0.43005943 -0.39979422 0
0.2494688 -0.36408806 -0.39467776 0
0.23664951 -0.48721123 -0.376665 0
0.17945385 -0.40948677 -0.38650465 0
0.11908817 -0.35580254 -0.381863 0
0.10668659 -0.47567368 -0.35899615 0
0.044708252 -0.40063667 -0.37129807 0
-0.042734146 -0.32622528 -0.36577415 0
-0.10664177 -0.27137756 -0.3752203 0
-0.17875671 -0.22569847 -0.38267279 0
-0.10912514 -0.34454536 -0.36188877 0
-0.16331863 -0.28454208 -0.3710742 0
-0.23224831 -0.23960114 -0.37931776 0
-0.30095291 -0.18605804 -0.38474786 0
-0.37207031 -0.19442177 -0.369609 0
-0.42609692 -0.15980339 -0.37071824 0
-0.55105591 -0.13105965 -0.35598791 0
0.87887383 -0.4630928 -0.35801089 0
0.79926395 -0.49282837 -0.37202072 0
0.7375021 -0.42600441 -0.3740201 0
0.68795395 -0.39135361 -0.38339782 0
0.68814659 -0.46198082 -0.39102602 0
0.61812115 -0.39055824 -0.39076269 0
0.53960705 -0.35132599 -0.40013051 0
0.47284603 -0.27926064 -0.39979291 0
0.41378021 -0.22066879 -0.39993572 0
0.39843941 -0.335989 -0.40960991 0
0.33982849 -0.24700546 -0.40294099 0
0.25694466 -0.1883564 -0.39473963 0
0.24672318 -0.30893326 -0.39446139 0
0.20116997 -0.24839211 -0.3892622 0
0.13734245 -0.16962051 -0.38594413 0
0.050086975 -0.12216187 -0.38910794 0
0.11150265 -0.2994957 -0.37952065 0
0.048165321 -0.24452972 -0.37632418 0
-0.015299797 -0.15201187 -0.38825929 0
-0.09191227 -0.1042099 -0.3845824 0
-0.037124634 -0.2641964 -0.37716699 0
-0.075835228 -0.2215786 -0.38045406 0
-0.15571594 -0.15894127 -0.39027715 0
-0.23073959 -0.089611053 -0.37720323 0
-0.21989346 -0.19904137 -0.38188648 0
-0.29446602 -0.12254143 -0.38543129 0
-0.3633976 -0.090108871 -0.36078179 0
-0.44154263 -0.092241287 -0.35193872 0
-0.51327801 -0.070978165 -0.33666432 0
-0.57969284 -0.083610535 -0.34273934 0
-0.64565372 -0.052326202 -0.31959665 0
-0.70968628 -0.069156647 -0.32711208 0
-0.78671932 -0.032024384 -0.30342662 0
-0.86611176 -0.0016441345 -0.29818642 0
-0.83756638 -0.014616013 -0.24817109 0
-0.91456699 -0.00086593628 -0.29726326 0
-0.99488926 0.048650742 -0.29019177 0
0.96884632 -0.3495369 -0.31144404 0
0.96867943 -0.43857193 -0.31712174 0
0.90565872 -0.4032917 -0.33199906 0
0.84044075 -0.33589745 -0.33451843 0
0.74955559 -0.26164627 -0.33683014 0
0.70534801 -0.21837807 -0.34125161 0
0.84451389 -0.40343475 -0.33738089 0
0.76584625 -0.35014534 -0.34608078 0
0.68764019 -0.30703926 -0.35927343 0
0.62341309 -0.22773552 -0.35378861 0
0.54187012 -0.18229485 -0.36033273 0
0.4783659 -0.11672783 -0.36270618 0
0.56257343 -0.26543236 -0.37447071 0
0.48041153 -0.20718002 -0.37452912 0
0.41908169 -0.15692139 -0.38133037 0
0.35017681 -0.087846756 -0.38598537 0
0.29270649 -0.0066375732 -0.39179659 0
0.26390934 -0.12615585 -0.39327478 0
0.21018219 -0.090724945 -0.37979794 0
0.16096878 -0.080741882 -0.33486736 0
0.070663452 -0.07926178 -0.34884703 0
-0.0036916733 -0.0689888 -0.37979591 0
0.0062332153 -0.065980911 -0.33109236 0
-0.078415871 -0.054836273 -0.32314062 0
-0.13447952 -0.050951004 -0.36207438 0
-0.13679504 -0.058588028 -0.32426333 0
-0.21166611 -0.040332794 -0.29629529 0
-0.27588844 -0.036409378 -0.27673864 0
-0.35474873 -0.027700424 -0.27983654 0
-0.41251564 -0.035190582 -0.28481328 0
-0.47601223 -0.0089893341 -0.26333141 0
-0.55606174 0.031904221 -0.22756946 0
-0.56471062 -0.021799088 -0.26168644 0
-0.61978626 0.0050621033 -0.23902917 0
-0.68256092 0.04605484 -0.20024669 0
-0.69748974 -0.011667252 -0.24339259 0
-0.76175213 0.01722908 -0.21905148 0
-0.8292284 0.052854538 -0.20097733 0
-0.84987164 -0.0054321289 -0.2355417 0
-0.87896538 0.048505783 -0.21508372 0
-0.97217274 0.094924927 -0.21966195 0
0.98725986 -0.27853584 -0.28209746 0
0.90747261 -0.2134304 -0.29153967 0
0.83468056 -0.15671349 -0.29814696 0
0.93165016 -0.31211662 -0.29957199 0
0.86213589 -0.26627159 -0.30944109 0
0.79668808 -0.19893074 -0.31329632 0
0.72849751 -0.13118553 -0.3153975 0
0.6487236 -0.079528809 -0.33112621 0
0.56642437 -0.0020198822 -0.34387076 0
0.49923038 0.066797256 -0.36015677 0
0.42385292 0.13137817 -0.3849268 0
0.35513401 0.20293617 -0.40655243 0
0.2952528 0.25036049 -0.42247593 0
0.70343685 -0.21535683 -0.31999326 0
0.65693665 -0.17608261 -0.33109915 0
0.58019733 -0.12679863 -0.34053349 0
0.51101017 -0.060087204 -0.35354972 0
0.43141365 0.011024475 -0.36883044 0
0.36273479 0.078357697 -0.39298964 0
0.3171587 0.15100479 -0.40398073 0
0.24494934 0.24291611 -0.42758417 0
0.16730022 0.31702614 -0.44299293 0
0.067134857 0.35790253 -0.45843279 0
0.31422615 0.025308609 -0.38790655 0
-0.035942078 0.39579964 -0.46007967 0
-0.10585213 0.4400444 -0.45437849 0
-0.18179131 0.44180107 -0.45085013 0
-0.20942307 0.47290993 -0.44359672 0
0.14628601 -0.049221039 -0.30182123 0
0.077445984 -0.007818222 -0.28044808 0
0.0054826736 0.04696846 -0.26208949 0
0.017017365 -0.037729263 -0.28732252 0
-0.056501389 -0.0080299377 -0.26793528 0
-0.11007881 0.04583931 -0.24987674 0
-0.13163376 -0.018959045 -0.27227449 0
-0.19414425 0.024272919 -0.24875045 0
-0.25537395 0.072563171 -0.23483086 0
-0.33382034 0.14437103 -0.2304219 0
-0.44481468 0.21474648 -0.28398228 0
-0.48838615 0.28893471 -0.34708619 0
-0.55196381 0.31994438 -0.34865987 0
-0.6270895 0.39552116 -0.36532712 0
-0.69390011 0.47053909 -0.40415943 0
-0.33373928 0.034809113 -0.23727965 0
-0.39688587 0.094608307 -0.22710371 0
-0.45323181 0.17220116 -0.24471855 0
-0.51900387 0.25510025 -0.28808069 0
-0.58485317 0.31966972 -0.32276273 0
-0.65188599 0.3872776 -0.34674263 0
-0.71843529 0.4598484 -0.3671509 0
-0.46600628 0.057056427 -0.22492504 0
-0.53328228 0.071750641 -0.22472346 0
-0.60457325 0.060367584 -0.21477199 0
-0.679883 0.095607758 -0.20473456 0
-0.75899124 0.14510345 -0.19701385 0
-0.76369095 0.081430435 -0.18646336 0
-0.82236862 0.12056732 -0.17829728 0
-0.88145828 0.19643593 -0.17319369 0
-0.95114899 0.23696518 -0.16658378 0
-0.90171146 0.10788918 -0.17110324 0
-0.95058346 0.14936638 -0.16412377 0
0.9532423 -0.025737762 -0.30117869 0
0.85417747 0.050348282 -0.30788803 0
0.78633022 0.076730728 -0.30906057 0
0.94569874 -0.17302513 -0.27703309 0
0.85625076 -0.10876465 -0.28856897 0
0.79804611 -0.037021637 -0.30457973 0
0.7143259 0.036895752 -0.31487262 0
0.65000439 0.10047913 -0.32150424 0
0.5836544 0.16635323 -0.34099197 0
0.50881481 0.24698639 -0.35774684 0
0.43531132 0.31035233 -0.37694585 0
0.38886356 0.34031105 -0.3854779 0
0.64765644 -0.0081977844 -0.3192122 0
0.60306072 0.051511765 -0.33977187 0
0.53281116 0.12326813 -0.35722232 0
0.46528053 0.18220139 -0.37062311 0
0.39363098 0.25514793 -0.39086437 0
0.3101368 0.3248024 -0.40858722 0
0.24070072 0.38801575 -0.41256952 0
0.15482807 0.4423027 -0.42378664 0
0.23950481 0.30425644 -0.41945827 0
0.1908102 0.34851837 -0.43729746 0
0.12176037 0.41303444 -0.43788326 0
0.034835815 0.4722805 -0.42826033 0
-0.0353508 0.45387459 -0.43976665 0
-0.093496323 0.49769974 -0.43216193 0
-0.37139988 0.19017601 -0.22795188 0
-0.43144035 0.23785973 -0.24590266 0
-0.4777689 0.29817963 -0.25699663 0
-0.55221558 0.35677147 -0.27939951 0
-0.62316704 0.45751381 -0.30970454 0
-0.43660069 0.225914 -0.23544943 0
-0.49856377 0.28884697 -0.25413275 0
-0.56763649 0.35686493 -0.27455211 0
-0.63040543 0.40539932 -0.29266238 0
0.95808792 0.12659836 -0.32574248 0
0.93303299 0.19573784 -0.28492272 0
0.88684559 0.088989258 -0.31443644 0
0.60308647 0.36859894 -0.34067702 0
0.53333855 0.39522743 -0.34126353 0
0.46073723 0.46427727 -0.35914373 0
0.75896549 0.10740662 -0.25573075 0
0.68090439 0.15372086 -0.26485634 0
0.60065174 0.2187252 -0.2833364 0
0.55237389 0.29121399 -0.34000731 0
0.4770422 0.36495781 -0.35767674 0
0.39225101 0.42399406 -0.36822462 0
0.31640148 0.48917007 -0.37833953 0
0.37029362 0.36808014 -0.37551904 0
0.28295135 0.432827 -0.39807892 0
0.82046127 0.46800613 -0.37078953 0
0.87094116 0.2263031 -0.26538706 0
0.85775471 0.27110863 -0.26264715 0
0.69633484 0.45019722 -0.35377061 0
0.6795845 0.35590172 -0.28089285 0
0.55630398 0.46870232 -0.3427639 0
0.68502712 0.20014763 -0.20981562 0
0.63614273 0.25698853 -0.22220302 0
0.63738823 -0.48507309 -0.41448236 0
0.55667114 -0.42546082 -0.42532325 0
0.51032257 -0.46168709 -0.41914225 0
0.43263817 -0.43317032 -0.41430783 0
0.3753767 -0.36854744 -0.40771747 0
0.36471653 -0.48406792 -0.39712834 0
0.29722309 -0.41452789 -0.39874339 0
0.21605206 -0.36153793 -0.39061117 0
0.1099596 -0.31998825 -0.3787874 0
0.22325134 -0.49344444 -0.37211525 0
0.15362453 -0.43225861 -0.3795414 0
0.076324463 -0.36422539 -0.37577891 0
-0.0065126419 -0.30492401 -0.37111568 0
-0.082318306 -0.25157738 -0.37906671 0
-0.17577744 -0.18933296 -0.38732576 0
-0.23826313 -0.14855003 -0.39757943 0
-0.30688095 -0.11699104 -0.4003278 0
0.021677017 -0.4471035 -0.35559773 0
-0.049609184 -0.3669529 -0.3633728 0
-0.13392925 -0.30177689 -0.36959004 0
-0.21000671 -0.24184608 -0.37768161 0
-0.28706932 -0.18741798 -0.38481891 0
-0.37804794 -0.13447189 -0.38348162 0
-0.46841145 -0.10539818 -0.3697983 0
-0.50653839 -0.10462379 -0.36415064 0
-0.57763577 -0.082683563 -0.34801865 0
0.85864258 -0.4728508 -0.36183059 0
0.80534363 -0.43470573 -0.36638474 0
0.73901272 -0.38041306 -0.36375451 0
0.74076653 -0.4807415 -0.38699102 0
0.66836739 -0.40859985 -0.38750839 0
0.58613014 -0.36847878 -0.39704084 0
0.50161266 -0.30776215 -0.4013989 0
0.42264557 -0.25024986 -0.40288389 0
0.33534813 -0.18669319 -0.39940906 0
0.25903511 -0.13196182 -0.40003562 0
0.48398972 -0.3784523 -0.41550326 0
0.36867332 -0.31082344 -0.40695512 0
0.26751614 -0.26411247 -0.39529359 0
0.20676517 -0.19308472 -0.38930297 0
0.12170315 -0.13714218 -0.39061475 0
0.044792175 -0.092084885 -0.38412964 0
0.23348618 -0.31787491 -0.3919816 0
0.15103436 -0.27289009 -0.38290024 0
0.065576553 -0.21728134 -0.38178539 0
-0.026290894 -0.15662384 -0.38804114 0
-0.09681797 -0.099777222 -0.38122106 0
0.019181252 -0.26562119 -0.37367988 0
-0.073179245 -0.19997025 -0.38705099 0
-0.14424515 -0.15096092 -0.39439666 0
-0.21595573 -0.084711075 -0.37357092 0
-0.30149937 -0.075242996 -0.3523469 0
-0.36924458 -0.077568054 -0.3394624 0
-0.44911671 -0.059244156 -0.32286954 0
-0.51047325 -0.039726257 -0.30625784 0
-0.51041698 -0.076925278 -0.34108257 0
-0.57626724 -0.044851303 -0.30845714 0
-0.66004848 -0.033737183 -0.30062306 0
-0.71706772 -0.024564743 -0.27602577 0
-0.80603313 -0.0094032288 -0.26563346 0
-0.89904213 0.031064987 -0.26956475 0
-0.94472408 0.060836792 -0.26514781 0
-0.85995483 0.00019264221 -0.22744918 0
-0.91404343 0.034673691 -0.2452507 0
-0.99331093 0.075252533 -0.2679553 0
0.94997978 -0.36900139 -0.32275867 0
0.85415745 -0.29691887 -0.32647991 0
0.77955055 -0.25378799 -0.32874537 0
0.97298431 -0.48075867 -0.32840312 0
0.89356899 -0.42398262 -0.33801138 0
0.82466125 -0.36083412 -0.34387589 0
0.74135113 -0.31225967 -0.35212255 0
0.64803123 -0.24853516 -0.35375166 0
0.57046604 -0.19919586 -0.36356497 0
0.48632336 -0.13276672 -0.36658096 0
0.42008495 -0.063192368 -0.37696803 0
0.34808922 0.00091743469 -0.39357567 0
0.61929798 -0.30109024 -0.36851597 0
0.50343132 -0.21376038 -0.36892259 0
0.45468903 -0.19734573 -0.3852663 0
0.37433815 -0.13598251 -0.3922379 0
0.29021835 -0.088817596 -0.39576864 0
0.22132587 -0.066394806 -0.3592149 0
0.14430523 -0.080247879 -0.33991659 0
0.070289612 -0.067235947 -0.32576168 0
-0.41445446 0.28743172 -0.38904727 0
0.0013313293 -0.058866501 -0.32008195 0
-0.077446938 -0.045438766 -0.30569279 0
-0.1404562 -0.023674011 -0.28654742 0
-0.48732662 0.28907204 -0.37325048 0
-0.56240845 0.31240654 -0.35673571 0
-0.63808441 0.37684441 -0.37276149 0
-0.69753361 0.45044708 -0.3982023 0
-0.21354008 -0.032821655 -0.28143525 0
-0.28991699 -0.013195038 -0.26419783 0
-0.34592724 0.037332535 -0.23317564 0
-0.4340353 0.1797142 -0.30366135 0
-0.34357643 -0.028533936 -0.26919973 0
-0.4241333 0.0072612762 -0.25065088 0
-0.50296307 0.050811768 -0.23461556 0
-0.56492615 0.077905655 -0.21859777 0
-0.48970604 -0.030399323 -0.26593995 0
-0.55401039 0.0022678375 -0.24332678 0
-0.64253616 0.040019989 -0.21829796 0
-0.72133255 0.10747719 -0.19626617 0
-0.7130661 0.0069904327 -0.22445917 0
-0.78081417 0.046169281 -0.20241988 0
-0.87572765 0.08849144 -0.1924845 0
-0.94820213 0.12015343 -0.19730461 0
-0.93761158 0.075885773 -0.20829821 0
-0.98322582 0.12540054 -0.19549084 0
0.96308708 -0.204319 -0.28407347 0
0.87077332 -0.13607979 -0.29839957 0
0.7820816 -0.090559006 -0.32583189 0
0.53259277 0.098665237 -0.3683567 0
0.46159458 0.15433502 -0.38206673 0
0.38296223 0.21151733 -0.39483428 0
0.29892063 0.27377701 -0.42321444 0
0.21050453 0.33506203 -0.4336288 0
0.13503742 0.39206123 -0.44749129 0
0.076046944 0.41581535 -0.44571471 0
0.97300529 -0.30942917 -0.29435384 0
0.90971947 -0.24522972 -0.30177164 0
0.81398201 -0.19367599 -0.30859864 0
0.72794533 -0.13696098 -0.31921673 0
0.64168835 -0.063404083 -0.33272648 0
0.57939339 -0.031208038 -0.351318 0
0.50209904 0.032117844 -0.3641932 0
0.41230679 0.095617294 -0.38400662 0
0.33981991 0.15906143 -0.4030062 0
0.28351307 0.23628044 -0.42846239 0
0.18687725 0.30024719 -0.44403267 0
0.10259724 0.34391403 -0.46138239 0
0.019035339 0.40173721 -0.45662487 0
-0.068037033 0.44635201 -0.44932139 0
-0.14431095 0.49938393 -0.4368434 0
0.79888916 -0.25827217 -0.30901742 0
0.68593597 -0.19568253 -0.32820916 0
0.6057291 -0.12950516 -0.34136295 0
0.50281429 -0.071149826 -0.35153496 0
0.45536804 -0.017299652 -0.36161876 0
0.36309528 0.052196503 -0.38374639 0
0.27560902 0.086532593 -0.40151954 0
-0.1741848 0.47256851 -0.44550371 0
-0.27632236 0.49562645 -0.41653776 0
0.077641487 0.0072193146 -0.27395439 0
-0.013092041 0.045164108 -0.25706339 0
0.015846252 -0.016357422 -0.27554703 0
-0.050321579 0.0070896149 -0.26128244 0
-0.13928986 0.049789429 -0.24592161 0
-0.21271038 0.079055786 -0.2344991 0
-0.29899025 0.15064621 -0.23652828 0
-0.39183235 0.22148895 -0.25481915 0
-0.48065758 0.28589058 -0.27948189 0
-0.55560112 0.34452629 -0.29759157 0
-0.62120056 0.4141655 -0.32245731 0
-0.69062996 0.48463058 -0.34778094 0
-0.18663979 0.015968323 -0.24898076 0
-0.27399921 0.056692123 -0.23251343 0
-0.35409451 0.098688126 -0.2278378 0
-0.41759872 0.16894913 -0.24863768 0
-0.48370552 0.24291039 -0.27194953 0
-0.57210255 0.31576538 -0.28448987 0
-0.41003895 0.059577942 -0.22592926 0
-0.44656944 0.095727921 -0.23060274 0
-0.73837471 0.14167595 -0.19667888 0
-0.78840637 0.16833878 -0.190323 0
-0.86107063 0.22691154 -0.1854465 0
-0.85695839 0.15139389 -0.16540241 0
-0.93887138 0.18358803 -0.15767884 0
-0.98219967 0.17259979 -0.15501213 0
0.94562817 -0.0037269592 -0.30335236 0
0.86131668 0.050832748 -0.30973053 0
0.77712345 0.066360474 -0.3158474 0
0.5927124 0.20667648 -0.35117722 0
0.5460434 0.25835037 -0.36205256 0
0.45588017 0.32561493 -0.37604237 0
0.36830616 0.38900375 -0.38626385 0
0.27570438 0.45446587 -0.3999939 0
0.21555519 0.49817848 -0.40269339 0
0.96109867 -0.15528297 -0.27905822 0
0.88768387 -0.086391449 -0.29521298 0
0.80646324 -0.053991318 -0.31063414 0
0.73348522 0.024629593 -0.31592202 0
0.65445328 0.088006973 -0.32439041 0
0.5855093 0.14412498 -0.34151542 0
0.47555733 0.20932198 -0.37825334 0
0.41773605 0.26577377 -0.38934159 0
0.33475685 0.32146454 -0.40074658 0
0.25067329 0.39230347 -0.41113234 0
0.17480946 0.44825172 -0.42291963 0
0.72606754 0.42806053 -0.35176468 0
0.91663551 0.10264015 -0.31805956 0
0.92520332 0.23004341 -0.2829814 0
0.68482685 0.33717346 -0.32050788 0
0.62914944 0.41560173 -0.34597445 0
0.52636147 0.45335579 -0.34611917 0
0.47473145 0.49582863 -0.35229063 0
0.83824062 0.075380325 -0.28735328 0
0.7737627 0.12456894 -0.24834013 0
0.68546963 0.20308304 -0.24837327 0
0.6214819 0.24911118 -0.2966671 0
0.57251835 0.32389259 -0.33325362 0
0.49440098 0.38639259 -0.35722983 0
0.40972996 0.44203377 -0.36532438 0
0.33863544 0.49451065 -0.37689495 0
0.77566528 0.099386215 -0.25067556 0
0.69710922 0.16090775 -0.25445056 0
0.61822796 0.21051216 -0.26172078 0
0.90615368 0.27005768 -0.27496934 0
0.72001266 0.34061432 -0.2799201 0
0.69796276 0.22925758 -0.20857573 0
0.6681242 0.27094078 -0.22112501 0
0.59957314 -0.4444828 -0.39746964 0
0.52825451 -0.39259911 -0.40588713 0
0.56048965 -0.49898911 -0.40930521 0
0.47890759 -0.4295063 -0.40784943 0
0.39995575 -0.3780632 -0.40102875 0
0.33533859 -0.31713676 -0.39371479 0
0.34505653 -0.44952965 -0.39389873 0
0.25726032 -0.37610626 -0.38528979 0
0.18586063 -0.30621147 -0.37641335 0
0.090470314 -0.25919151 -0.36688948 0
0.20472622 -0.44971657 -0.37421715 0
0.11355305 -0.3811264 -0.3694737 0
0.058287621 -0.32342911 -0.36386061 0
-0.020401955 -0.25228691 -0.36620963 0
-0.10684109 -0.18753242 -0.37935781 0
-0.19613361 -0.12379837 -0.38810384 0
-0.25418568 -0.10527039 -0.3837235 0
0.06627655 -0.46179581 -0.34824824 0
-0.01663208 -0.39401054 -0.35310555 0
-0.086129189 -0.33405876 -0.35465181 0
-0.16700459 -0.27204323 -0.36454248 0
-0.23347092 -0.19692612 -0.37584352 0
-0.32215595 -0.1270256 -0.37912309 0
-0.38408852 -0.10991478 -0.37172949 0
-0.033658981 -0.46755219 -0.32882667 0
-0.14353466 -0.36336517 -0.34745026 0
-0.18986225 -0.31728935 -0.35155118 0
-0.27005672 -0.24822044 -0.36137009 0
-0.36340523 -0.18473434 -0.36326408 0
-0.45354939 -0.10752296 -0.35469532 0
-0.54094982 -0.081968307 -0.33550251 0
-0.59824753 -0.058790207 -0.31924534 0
-0.64447594 -0.058549881 -0.31537545 0
0.85513496 -0.45606422 -0.34456229 0
0.77156353 -0.37857819 -0.34299684 0
0.7029705 -0.33884048 -0.35696816 0
0.54918385 -0.22613716 -0.36595237 0
0.71944523 -0.43612099 -0.36771512 0
0.64611244 -0.38598633 -0.37852347 0
0.58130455 -0.31952286 -0.37419963 0
0.49533939 -0.27249527 -0.38425696 0
0.41098404 -0.20976067 -0.38390696 0
0.33018589 -0.14757538 -0.38459229 0
0.24636078 -0.10118294 -0.38791895 0
0.45772743 -0.3373909 -0.39407611 0
0.34618378 -0.27474594 -0.39427102 0
0.27005863 -0.22133827 -0.38635576 0
0.19217396 -0.14036369 -0.37962842 0
0.10701752 -0.10102654 -0.36773455 0
0.20934868 -0.24898911 -0.38008714 0
0.13337231 -0.21922112 -0.37331057 0
0.056051254 -0.16085243 -0.3782841 0
-0.022590637 -0.09167099 -0.36304343 0
-0.093297005 -0.069948196 -0.33708072 0
0.033512115 -0.22438622 -0.36626017 0
-0.083185196 -0.14451218 -0.3786428 0
-0.15288544 -0.080394745 -0.35489023 0
-0.2404604 -0.067798615 -0.34102416 0
-0.29821205 -0.065681458 -0.32557523 0
-0.39271641 -0.047796249 -0.29782903 0
-0.43936253 -0.060342789 -0.30738485 0
-0.51640701 -0.043674469 -0.29388344 0
-0.58603191 -0.026742935 -0.27548802 0
-0.65280247 -0.019163132 -0.25929284 0
-0.73392391 -0.01584053 -0.2639637 0
-0.78742027 -0.00092124939 -0.21974242 0
-0.8637495 0.019695282 -0.22770429 0
-0.95075798 0.066148758 -0.23925769 0
0.91352272 -0.32966614 -0.3018502 0
0.83480167 -0.28779411 -0.31008029 0
0.73027897 -0.2046032 -0.31487584 0
0.71147251 -0.17970657 -0.32186723 0
0.52107334 -0.03367424 -0.34741116 0
0.11697865 0.30848122 -0.45188284 0
0.021992683 0.35189629 -0.45101213 0
0.0073003769 0.37040138 -0.45653701 0
0.96552086 -0.45387268 -0.31728411 0
0.87483215 -0.38479233 -0.32222176 0
0.7978487 -0.34384346 -0.3284539 0
0.72834778 -0.2783165 -0.33020282 0
0.63607121 -0.22122574 -0.33761764 0
0.57621479 -0.15352058 -0.33995306 0
0.48146248 -0.10864258 -0.35204554 0
0.41344166 -0.032077789 -0.3633126 0
0.33683681 0.029867172 -0.37864733 0
0.26035118 0.077312469 -0.38302505 0
0.48951435 -0.17530823 -0.35299265 0
0.44358349 -0.14326477 -0.36227167 0
0.36911774 -0.092721939 -0.37241483 0
0.29257679 -0.060590744 -0.36550725 0
0.20506287 -0.086120605 -0.34347391 0
0.11924648 -0.064025879 -0.30396974 0
0.052214622 -0.00043106079 -0.26217508 0
0.0032968521 -0.04255867 -0.2884202 0
-0.097244263 0.0019435883 -0.25104058 0
-0.41133308 0.25940514 -0.37985134 0
-0.46463203 0.29794312 -0.37040234 0
-0.65433311 0.42364311 -0.36511385 0
-0.71009731 0.47307205 -0.38293886 0
-0.13421249 -0.028560638 -0.27306366 0
-0.22513676 -0.00029373169 -0.24537706 0
-0.28100395 0.057868958 -0.22120166 0
-0.46814823 0.21071053 -0.27947748 0
-0.52658939 0.27054596 -0.3096683 0
-0.59554577 0.33637047 -0.33141649 0
-0.67091274 0.41381836 -0.35117853 0
-0.72183323 0.47126579 -0.35794353 0
-0.29177475 -0.031856537 -0.26031899 0
-0.36632442 0.01823616 -0.23373473 0
-0.44552994 0.073539734 -0.22326934 0
-0.49543095 0.13843727 -0.23777401 0
-0.49903488 0.01392746 -0.23028624 0
-0.57749939 0.051015854 -0.2131809 0
-0.67591667 0.11330223 -0.19631934 0
-0.74233437 0.17381096 -0.19213033 0
-0.64562607 0.026590347 -0.20849657 0
-0.72037125 0.053369522 -0.19172299 0
-0.77625275 0.11196709 -0.17634487 0
-0.85043144 0.17581367 -0.16518712 0
-0.78642368 0.029695511 -0.19760633 0
-0.84360981 0.070421219 -0.17964888 0
-0.92117882 0.11641121 -0.17014933 0
0.94177914 -0.17406845 -0.27355349 0
0.86723614 -0.10437775 -0.27855754 0
0.7710762 -0.030488968 -0.3007977 0
0.66647911 0.020576477 -0.32101655 0
0.60382748 0.091047287 -0.32823706 0
0.53172779 0.14844704 -0.34825635 0
0.43642616 0.21984291 -0.37189913 0
0.38838863 0.25273323 -0.39624929 0
0.31694221 0.30620384 -0.39727724 0
0.22740555 0.37035179 -0.41010523 0
0.14380646 0.4333477 -0.42405427 0
0.087522507 0.46675301 -0.42031908 0
0.95591831 -0.27118301 -0.28476369 0
0.86489964 -0.20868683 -0.28546119 0
0.795784 -0.16695786 -0.29691839 0
0.71620941 -0.10170555 -0.31115079 0
0.63420105 -0.045097351 -0.32619023 0
0.56204319 0.011646271 -0.34236729 0
0.47196484 0.079360962 -0.35712504 0
0.39743614 0.13684273 -0.37532938 0
0.33653545 0.20262146 -0.39311707 0
0.26524448 0.26141357 -0.41763592 0
0.17907524 0.32149315 -0.42832482 0
0.10838985 0.3832016 -0.43705201 0
0.020343781 0.43040657 -0.43556082 0
-0.046807289 0.49243355 -0.42279804 0
0.67172432 -0.15477371 -0.30071807 0
0.49482822 -0.053722382 -0.33030057 0
0.37239933 0.070610046 -0.36449683 0
-0.1033802 0.45372772 -0.43736899 0
-0.18848801 0.49852943 -0.41554117 0
0.10479546 0.01279068 -0.26450038 0
0.057499886 0.043691635 -0.25389528 0
0.011006355 0.020116806 -0.25242865 0
-0.078534126 0.053848267 -0.24045241 0
-0.13954449 0.10235023 -0.24149716 0
-0.5407486 0.3818512 -0.27562273 0
-0.64533138 0.46606255 -0.3169589 0
-0.18870926 0.058631897 -0.22802854 0
-0.29806137 0.095285416 -0.21784592 0
-0.37834549 0.15618515 -0.22066462 0
-0.45027924 0.22545624 -0.24106658 0
-0.51980972 0.30286217 -0.26053798 0
-0.58856964 0.36863136 -0.2823807 0
-0.64690399 0.42752647 -0.3040874 0
-0.36245728 0.083921432 -0.21041524 0
-0.42185497 0.13777924 -0.22697306 0
-0.45668983 0.16515923 -0.2338593 0
-0.88899803 0.20210457 -0.15997577 0
-0.94947338 0.24772644 -0.1598537 0
-0.92764759 0.19813728 -0.14937186 0
-0.99448586 0.2282486 -0.14565253 0
0.9386673 0.1265583 -0.31235003 0
0.90271282 0.028909683 -0.29389524 0
0.86245728 0.049871445 -0.30085063 0
0.78663063 0.076726913 -0.29294658 0
0.59610081 0.26306343 -0.31845152 0
0.53072071 0.30784798 -0.34470046 0
0.45382977 0.35935974 -0.35019481 0
0.39407921 0.4213562 -0.36215425 0
0.30767918 0.48173523 -0.37522829 0
0.94761372 -0.10676193 -0.27346683 0
0.87398624 -0.050384521 -0.28570509 0
0.80745697 0.011011124 -0.30270553 0
0.71461964 0.089988708 -0.28477919 0
0.6373291 0.13931084 -0.28890204 0
0.57452202 0.19661903 -0.31958032 0
0.49364281 0.24576187 -0.35697794 0
0.40110779 0.30231667 -0.3682394 0
0.34232807 0.3666954 -0.38182962 0
0.26620007 0.42113495 -0.3965373 0
0.17610073 0.49690437 -0.39570522 0
0.8020668 0.47570038 -0.35833669 0
0.75705719 0.4217968 -0.35170841 0
0.69754505 0.499403 -0.34942365 0
0.69968891 0.37426186 -0.29877651 0
0.63204002 0.41884995 -0.33677745 0
0.53564072 0.49720383 -0.33582878 0
0.80138683 0.2208519 -0.2268486 0
0.69798565 0.23456192 -0.19153285 0
0.62879658 0.28660202 -0.27323294 0
0.57176113 0.33697128 -0.32032466 0
0.49054146 0.41758347 -0.33231473 0
0.42338943 0.4815979 -0.34388745 0
0.75257492 0.13161087 -0.22878075 0
0.66866684 0.19158936 -0.22967505 0
0.60669994 0.24910164 -0.22828245 0
0.72956181 -0.45302582 -0.38156235 0
0.64770031 -0.48970032 -0.39778757 0
0.58363533 -0.41472435 -0.4026978 0
0.52130508 -0.44357491 -0.41930354 0
0.44946289 -0.36253548 -0.41232181 0
0.40011787 -0.30803108 -0.41061687 0
0.3565712 -0.42892265 -0.40752447 0
0.34717083 -0.34576225 -0.40720665 0
0.28026867 -0.45803452 -0.39532542 0
0.24905872 -0.38354874 -0.39685535 0
0.20936108 -0.30481911 -0.39243197 0
0.15341091 -0.41546059 -0.38499379 0
0.11849213 -0.33390617 -0.38238573 0
0.042480469 -0.28568077 -0.3747555 0
0.036783218 -0.35872841 -0.37394798 0
-0.014960289 -0.29578209 -0.37236619 0
-0.096535683 -0.22657204 -0.38450205 0
-0.091334343 -0.3064537 -0.36750746 0
-0.15377522 -0.2509613 -0.37789392 0
-0.22290897 -0.1995945 -0.38902199 0
-0.30004787 -0.16341591 -0.39660597 0
-0.33063412 -0.16903877 -0.38614833 0
0.9699173 -0.40809631 -0.31959534 0
0.86985779 -0.43638229 -0.34020185 0
0.82090092 -0.37743378 -0.33706021 0
0.81461525 -0.46987724 -0.36314702 0
0.75333118 -0.38871002 -0.36250317 0
0.69605446 -0.32456589 -0.35946441 0
0.62502384 -0.36265755 -0.38021016 0
0.55415916 -0.27798843 -0.37771964 0
0.49804878 -0.23748398 -0.37306678 0
0.49030113 -0.32971764 -0.40409553 0
0.42424488 -0.24217987 -0.39350748 0
0.35224056 -0.16809464 -0.39282954 0
0.33668137 -0.25913429 -0.40598893 0
0.29094315 -0.22033882 -0.39997256 0
0.2231245 -0.13488007 -0.39417458 0
0.19982243 -0.26700974 -0.39111173 0
0.1552372 -0.18369293 -0.38794732 0
0.11983013 -0.11203003 -0.39381826 0
0.051216125 -0.23236465 -0.37793851 0
0.027766228 -0.13693047 -0.39044607 0
-0.039948463 -0.090051651 -0.38112271 0
-0.008398056 -0.2328434 -0.37836492 0
-0.07771492 -0.17698097 -0.39019203 0
-0.14133358 -0.10492516 -0.38187385 0
-0.12635803 -0.22092438 -0.37979245 0
-0.20834446 -0.15088272 -0.39303017 0
-0.25007248 -0.085783005 -0.3732549 0
-0.2776289 -0.15223503 -0.39481008 0
-0.3509388 -0.094552994 -0.36622202 0
-0.41318035 -0.10865402 -0.37068594 0
-0.47146702 -0.078924179 -0.34092605 0
-0.55388165 -0.070732117 -0.33667839 0
-0.60266972 -0.052326202 -0.32444894 0
-0.68618298 -0.044977188 -0.31569791 0
-0.75248528 -0.019033432 -0.3016144 0
-0.83483505 -0.019340515 -0.30186069 0
-0.95966911 0.018218994 -0.29981685 0
0.9835043 -0.32628632 -0.2932725 0
0.9200592 -0.26727676 -0.30002105 0
0.89014435 -0.21538544 -0.30265951 0
0.90610027 -0.3643856 -0.31141281 0
0.84091282 -0.30630112 -0.32362175 0
0.79823017 -0.24184227 -0.32223868 0
0.72896671 -0.17338943 -0.32285082 0
0.72543907 -0.26670647 -0.34223497 0
0.64329529 -0.20433235 -0.34311938 0
0.61398315 -0.11436081 -0.33624434 0
0.51173973 -0.15062523 -0.35349536 0
0.48177338 -0.071298599 -0.36028969 0
0.40833187 0.0042877197 -0.37453485 0
0.346735 0.068216324 -0.39364362 0
0.4092474 -0.12060165 -0.37325108 0
0.34052467 -0.044223785 -0.38460445 0
0.29644108 0.059793472 -0.39982438 0
0.23189163 -0.086109161 -0.3699398 0
0.17415142 -0.093431473 -0.37881923 0
0.10348606 -0.066865921 -0.32910872 0
0.022312164 -0.063739777 -0.32103348 0
-0.040503502 -0.054189682 -0.31554282 0
-0.11582279 -0.044157028 -0.30299318 0
-0.17580414 -0.051057816 -0.29943335 0
-0.24161243 -0.034225464 -0.28474581 0
-0.43110466 0.26440811 -0.38881779 0
-0.44728565 0.269804 -0.387254 0
-0.3362236 -0.034923553 -0.28680408 0
-0.39515018 -0.012252808 -0.26150644 0
-0.45811844 -0.018476486 -0.27301502 0
-0.53149509 -0.017772675 -0.26228583 0
-0.60424423 -0.0076599121 -0.25764859 0
-0.69695663 -0.006061554 -0.2435143 0
-0.74185944 0.026889801 -0.21015465 0
-0.82388496 0.0072193146 -0.23541141 0
-0.89828968 0.044843674 -0.25474453 0
-0.89256287 0.010204315 -0.23823762 0
-0.95192909 0.061260223 -0.24421322 0
0.95829201 -0.10252571 -0.28931201 0
0.99134064 -0.27492714 -0.26549792 0
0.95532703 -0.22063637 -0.28013575 0
0.87017155 -0.16288185 -0.28400636 0
0.85259628 -0.058340073 -0.29629529 0
0.78510475 -0.0076255798 -0.30740011 0
0.80682659 -0.16770363 -0.30154479 0
0.76119232 -0.098646164 -0.3098352 0
0.70200062 -0.034193039 -0.31821847 0
0.65927696 0.056646347 -0.33244467 0
0.57405663 0.10700607 -0.34403288 0
0.64902973 -0.056587219 -0.32642746 0
0.56483459 -0.0065937042 -0.34437156 0
0.50940037 0.082832336 -0.36080766 0
0.47274208 0.17187881 -0.37312269 0
0.39570618 0.2268219 -0.39326406 0
0.46236134 0.031560898 -0.37402344 0
0.37443352 0.11637878 -0.38381243 0
0.31621361 0.19363594 -0.40426171 0
0.28110027 0.26897812 -0.41848457 0
0.21875286 0.34167099 -0.42741656 0
0.18818378 0.27144241 -0.43636 0
0.15231133 0.32126427 -0.44001484 0
0.079070091 0.39925766 -0.44310284 0
0.014911652 0.37048531 -0.46161926 0
-0.03488636 0.42995453 -0.45041871 0
0.073266029 0.0073070526 -0.2741673 0
0.059267998 0.036863327 -0.26698351 0
-0.12375259 0.443367 -0.45585084 0
-0.1633482 0.47099113 -0.44595003 0
0.03966713 -0.018295288 -0.28074527 0
-0.028075218 0.022844315 -0.26219153 0
-0.29789734 0.49026489 -0.42299509 0
-0.10931206 0.0035438538 -0.25920904 0
-0.14952087 0.061552048 -0.24707699 0
-0.19413376 0.11429977 -0.25397801 0
-0.24339485 0.036342621 -0.24065471 0
-0.29259777 0.10845375 -0.23449278 0
-0.4864912 0.30523682 -0.38054657 0
-0.31435108 0.015535355 -0.24638021 0
-0.35694313 0.064558029 -0.22922075 0
-0.41518593 0.15150833 -0.2358011 0
-0.48824406 0.22618675 -0.2759285 0
-0.54647064 0.29052353 -0.32495761 0
-0.59626389 0.34114075 -0.33902192 0
-0.67266941 0.44636536 -0.39022541 0
-0.46517849 0.03660202 -0.23045266 0
-0.49953079 0.084632874 -0.23125005 0
-0.58460903 0.30638885 -0.28646076 0
-0.63151455 0.36434746 -0.33914828 0
-0.68586445 0.43071365 -0.36033261 0
-0.59533978 0.051465988 -0.21929049 0
-0.68619251 0.051925659 -0.20564485 0
-0.7312479 0.091480255 -0.1993432 0
-0.78283787 0.1618042 -0.19751835 0
-0.81850624 0.070215225 -0.1876682 0
-0.8732357 0.12903786 -0.17295909 0
-0.90504456 0.21497726 -0.17537379 0
-0.94010639 0.11512184 -0.17718935 0
0.93449879 0.13764 -0.32593775 0
0.95435333 -0.0079250336 -0.30486059 0
0.91261578 0.079650879 -0.31869519 0
0.78885078 0.069120407 -0.27928662 0
0.73475361 0.097585678 -0.28230965 0
0.59757996 0.32131195 -0.34784436 0
0.66709137 0.11886787 -0.29050171 0
0.59907341 0.16646576 -0.30585313 0
0.56011868 0.24782753 -0.33925867 0
0.49440861 0.33496857 -0.35397398 0
0.44726658 0.37924767 -0.3490063 0
0.49948025 0.22168922 -0.36358404 0
0.43895149 0.28482628 -0.37817836 0
0.37180805 0.36689758 -0.37761879 0
0.33136654 0.43319511 -0.3836726 0
0.29561996 0.34121323 -0.40362883 0
0.25090218 0.40977859 -0.40646827 0
0.18929768 0.47004318 -0.4094038 0
0.067046165 0.45450211 -0.42669034 0
-0.048923492 0.48850441 -0.43093479 0
-0.45172882 0.25074959 -0.24595833 0
-0.52906513 0.31892967 -0.26751113 0
-0.5748415 0.36478806 -0.27608824 0
-0.65194511 0.48037148 -0.31679177 0
-0.58366394 0.33805275 -0.27712321 0
-0.62141418 0.3870163 -0.29502273 0
-0.67268181 0.46367073 -0.3113625 0
-0.95689964 0.25029755 -0.1730206 0
0.90650082 0.4916935 -0.38130605 0
0.69754505 0.47205925 -0.35424018 0
0.792593 0.125103 -0.2378124 0
0.72492313 0.15116501 -0.22621894 0
0.68200016 0.25656891 -0.20862293 0
0.6618576 0.37385941 -0.33210444 0
0.60697746 0.41096497 -0.34534502 0
0.69745731 0.16680145 -0.24643052 0
0.62964153 0.22402573 -0.22832894 0
0.59724808 0.29052734 -0.27889919 0
0.50305271 0.38426971 -0.33825469 0
0.46129704 0.44363976 -0.34836555 0
0.73069096 -0.49429131 -0.37842667 0
0.68496418 -0.44962883 -0.39310515 0
0.59363556 -0.44653702 -0.40249908 0
0.55739212 -0.37983704 -0.40052176 0
0.52506447 -0.48353386 -0.418908 0
0.47511864 -0.40126038 -0.41253412 0
0.43080521 -0.33116913 -0.4098506 0
0.38714314 -0.46243095 -0.40731478 0
0.35383415 -0.36672401 -0.40399575 0
0.28042316 -0.29362679 -0.39554882 0
0.26513004 -0.41785812 -0.39494586 0
0.2034626 -0.32775688 -0.3877461 0
0.13923073 -0.25940704 -0.37962365 0
0.18094826 -0.44561195 -0.3821162 0
0.1223793 -0.36310768 -0.37861323 0
0.062034607 -0.26980782 -0.37572646 0
0.018342018 -0.21353912 -0.38457489 0
0.030144691 -0.37578773 -0.36758804 0
-0.0064792633 -0.31706238 -0.36690617 0
-0.07394886 -0.23504448 -0.37857008 0
-0.12078857 -0.1770668 -0.38672495 0
-0.14865685 -0.26439857 -0.37080801 0
-0.1930685 -0.18770409 -0.38676023 0
-0.23467445 -0.13902855 -0.39526606 0
-0.26134491 -0.20070839 -0.37956893 0
-0.32268429 -0.13194847 -0.38807583 0
-0.39190197 -0.12142181 -0.38746226 0
-0.44611835 -0.11353493 -0.37005341 0
0.98477077 -0.4624939 -0.31131089 0
0.9040308 -0.48753738 -0.33699965 0
0.83410263 -0.41510582 -0.33975863 0
0.77914715 -0.34227943 -0.34200025 0
0.82628155 -0.49524879 -0.35131478 0
0.75732803 -0.44741058 -0.35943484 0
0.71152592 -0.36945152 -0.3599577 0
0.64740753 -0.2851181 -0.35391402 0
0.64155197 -0.40172005 -0.38077116 0
0.58426476 -0.31043053 -0.37219465 0
0.52125168 -0.25251579 -0.3735261 0
0.46113396 -0.20019722 -0.37531471 0
0.48535824 -0.33633232 -0.39273381 0
0.45030117 -0.27981949 -0.3931551 0
0.39083767 -0.20471382 -0.38728285 0
0.32212067 -0.12485504 -0.38602948 0
0.32137299 -0.24615097 -0.39986956 0
0.24995708 -0.1626091 -0.38868272 0
0.19104481 -0.10918808 -0.37918985 0
0.23430252 -0.25701141 -0.39144683 0
0.15851879 -0.20368767 -0.38348293 0
0.12329388 -0.12198067 -0.37912893 0
0.086985588 -0.2267971 -0.37933064 0
0.039796829 -0.14747047 -0.38482416 0
-0.028798103 -0.094964981 -0.36624968 0
-0.041911125 -0.1878624 -0.38286662 0
-0.099811554 -0.10967445 -0.37002337 0
-0.15851307 -0.081110001 -0.35482144 0
-0.23279285 -0.08454895 -0.35762167 0
-0.3176918 -0.08307457 -0.33922672 0
-0.37855816 -0.079652786 -0.33180964 0
-0.46295738 -0.072277069 -0.31843042 0
-0.53879452 -0.086143494 -0.33466959 0
-0.59572506 -0.051319122 -0.30324292 0
-0.68282413 -0.048404694 -0.29851377 0
-0.73719883 -0.033815384 -0.28537929 0
-0.80647469 -0.027601242 -0.26947355 0
-0.88400078 -0.0096073151 -0.28744781 0
-0.88331032 -0.0085144043 -0.23900259 0
-0.94128323 0.021738052 -0.27213156 0
0.93776798 -0.32514 -0.29813755 0
0.90730286 -0.2516861 -0.29043031 0
0.89432716 -0.37623405 -0.31771696 0
0.80386829 -0.2694149 -0.31661928 0
0.73776627 -0.18564224 -0.31267416 0
0.72009945 -0.28910065 -0.34055603 0
0.67329597 -0.23135757 -0.33408523 0
0.6125412 -0.15446663 -0.33403826 0
0.56079102 -0.053039551 -0.33765984 0
0.49453259 0.007101059 -0.35312343 0
0.49577999 -0.13033485 -0.35386848 0
0.44757843 -0.036722183 -0.3615278 0
0.39338589 0.049203873 -0.38077998 0
0.32103348 0.13445091 -0.40054071 0
0.40599918 -0.13098335 -0.36310494 0
0.36269283 -0.070224762 -0.37404311 0
0.30787563 0.0054397583 -0.39185214 0
0.276124 0.085050583 -0.40212679 0
0.11529541 0.2884655 -0.44085538 0
0.094878197 0.31592369 -0.45301974 0
0.20764256 -0.089204788 -0.34949756 0
0.044722557 0.34923363 -0.46092021 0
-0.046848297 0.3812294 -0.45714211 0
0.12081337 -0.079677582 -0.32189465 0
0.077768326 -0.021974564 -0.2775625 0
-0.00091552734 -0.045473099 -0.28674757 0
-0.085379601 -0.051876068 -0.291816 0
-0.11925316 -0.029315948 -0.27182126 0
-0.21479321 -0.027774811 -0.26533222 0
-0.27391434 0.011116028 -0.23888099 0
-0.46191597 0.2908535 -0.38136435 0
-0.30559826 -0.038154602 -0.26555848 0
-0.35494423 -0.0047607422 -0.24633276 0
-0.42086506 0.049848557 -0.22215617 0
-0.49732113 0.21280289 -0.2934792 0
-0.51962566 0.25163269 -0.34408283 0
-0.57660675 0.30655289 -0.36175847 0
-0.44426632 -0.015838623 -0.2552762 0
-0.49039841 0.038805008 -0.23027182 0
-0.60721779 0.31495476 -0.33639705 0
-0.67746735 0.39188576 -0.36472654 0
-0.73931408 0.46567726 -0.38869107 0
-0.51729965 -0.04741478 -0.26366949 0
-0.58425522 0.010576248 -0.23016536 0
-0.61889935 0.077136993 -0.21265984 0
-0.66872692 -0.011592865 -0.23411918 0
-0.71200085 0.034765244 -0.20500016 0
-0.79477024 0.015993118 -0.20737922 0
