# .PCD v0.7 - Point Cloud Data file format
VERSION 0.7
FIELDS x y z intensity
SIZE 4 4 4 4
TYPE F F F F
COUNT 1 1 1 1
WIDTH 1278
HEIGHT 1
VIEWPOINT 0 0 0 1 0 0 0
POINTS 1278
DATA ascii
-0.13633347 0.38695598 0.011464834 0
-0.074363708 0.37880707 0.055153847 0
-0.016395569 0.37229633 0.061791897 0
-0.24829483 0.49859011 0.012318611 0
-0.15593719 0.46361482 0.045332193 0
-0.084634781 0.428339 0.064432859 0
-0.010620117 0.40724397 0.10383368 0
-0.1607666 0.4829309 0.13044286 0
-0.08861351 0.45269006 0.15063167 0
-0.10255241 0.48685837 0.23463845 0
0.35652924 -0.45912051 -0.33620143 0
0.41204453 -0.45740211 -0.33134246 0
0.49808884 -0.45331925 -0.32152963 0
0.6002388 -0.48962307 -0.30034566 0
0.48194313 -0.35918295 -0.33793569 0
0.5331192 -0.36123061 -0.33256984 0
0.62743378 -0.38297987 -0.31577229 0
0.71632576 -0.36989683 -0.30469513 0
0.57704926 -0.29250568 -0.33936787 0
0.65954208 -0.29199159 -0.32837009 0
0.66847992 -0.22123671 -0.34244227 0
0.3550663 -0.082473338 -0.23188877 0
0.29926682 0.03311944 -0.22711158 0
0.34763527 0.024648309 -0.2301352 0
-0.001657486 -0.25127888 -0.22454691 0
-0.025234222 -0.14398849 -0.24228263 0
0.014175415 -0.17417043 -0.23615885 0
-0.032987595 -0.062987506 -0.25478411 0
0.014593124 -0.093848825 -0.23103404 0
-0.026664734 0.03395164 -0.25004435 0
0.27710915 -0.026690781 -0.20611072 0
0.32663727 -0.018816948 -0.20893693 0
-0.0682621 0.16673756 -0.25983477 0
-0.036746979 0.13168854 -0.23591328 0
0.29015732 0.083208621 -0.20637751 0
-0.15662575 0.26797563 -0.22023273 0
-0.087850571 0.25063664 -0.24193907 0
-0.035600662 0.22720593 -0.21327043 0
0.25671005 0.14291006 -0.16824961 0
-0.13134575 0.34529012 -0.24214554 0
-0.10960007 0.31231874 -0.24907899 0
-0.1443367 0.30115068 -0.20703769 0
-0.076541901 0.24682671 -0.16725326 0
-0.037410736 0.22032708 -0.16578174 0
0.10119057 0.25030631 -0.08338666 0
0.1903286 0.21991813 -0.12365413 0
-0.35151291 0.40629679 -0.22019696 0
-0.27942848 0.39176589 -0.18890715 0
-0.18263054 0.36339974 -0.164994 0
-0.081890106 0.32321221 -0.14891315 0
-0.029289246 0.28889793 -0.12433338 0
0.16305923 0.26644719 -0.064748764 0
-0.34183693 0.49354029 -0.21223521 0
-0.31738281 0.48223817 -0.15889168 0
-0.10801125 0.40640563 -0.1214211 0
-0.27934837 0.40310085 -0.13638282 0
-0.19023132 0.39770681 -0.090801716 0
-0.084293365 0.36532378 -0.059012413 0
-0.036735535 0.33106852 -0.058414698 0
0.056138992 0.32336396 -0.029963255 0
-0.29372215 0.4869917 -0.10297537 0
-0.20983505 0.44686526 -0.073435783 0
-0.097854614 0.41640502 -0.040232897 0
-0.015195847 0.38672501 -0.021043062 0
-0.19434738 0.40097779 -0.023805141 0
-0.047967911 0.35995448 0.028029442 0
-0.21024323 0.48148805 0.021537781 0
-0.10796165 0.43770105 0.047063589 0
-0.037670135 0.40430093 0.068288326 0
0.044988632 0.36671305 0.056115866 0
-0.21584511 0.49901456 0.092423201 0
-0.12086868 0.46295613 0.11986494 0
-0.059064865 0.43566269 0.15635943 0
-0.076095581 0.48583829 0.19106936 0
-0.12717056 0.47314239 0.24931765 0
0.73766708 -0.29360718 -0.31102514 0
0.5673027 -0.152309 -0.34679151 0
0.67185783 -0.23613268 -0.33169842 0
0.7304821 -0.18484241 -0.33359408 0
-0.10428047 -0.43991071 -0.36199832 0
-0.032827377 -0.43193358 -0.36388135 0
-0.14027023 -0.31870109 -0.3667767 0
0.080034256 -0.41768658 -0.35987401 0
0.17774773 -0.42503601 -0.35140991 0
0.27469444 -0.4304027 -0.34200692 0
0.38369751 -0.45734107 -0.32755589 0
0.49189949 -0.4786135 -0.31141829 0
0.56590652 -0.47619456 -0.30193782 0
0.67061806 -0.49693954 -0.28261018 0
-0.11822701 -0.26886016 -0.36389375 0
0.13467216 -0.32192081 -0.36868405 0
0.23295212 -0.34320593 -0.35751843 0
0.30826378 -0.34465116 -0.35034251 0
0.38527107 -0.34272653 -0.34371066 0
0.50393105 -0.37738067 -0.32820582 0
0.63082123 -0.37190938 -0.31096077 0
0.69049072 -0.43314511 -0.29229856 0
0.7895565 -0.46945989 -0.27056813 0
-0.088975906 -0.16384828 -0.35947323 0
0.23203468 -0.21632802 -0.36942029 0
0.33824158 -0.23599678 -0.35870671 0
0.45310783 -0.27754414 -0.34523153 0
0.49007988 -0.23938572 -0.34528279 0
0.59779739 -0.2961818 -0.32991862 0
0.72217178 -0.29148597 -0.31185675 0
0.7978363 -0.33576834 -0.29329324 0
-0.19345856 0.011585534 -0.37656665 0
0.27634048 -0.16160148 -0.36991453 0
0.41312981 -0.14213055 -0.36027908 0
0.51671791 -0.20810491 -0.34560513 0
-0.19561577 0.022068202 -0.37624526 0
-0.17506218 0.043934941 -0.37728691 0
-0.097820282 0.12221146 -0.36511707 0
-0.52311134 -0.4899509 -0.37960505 0
-0.45898628 -0.49675274 -0.3643415 0
-0.47889137 -0.41452795 -0.38297367 0
-0.42229843 -0.39616716 -0.3712883 0
-0.32825851 -0.42583126 -0.36248803 0
-0.17413139 -0.46882021 -0.35993242 0
-0.38196564 -0.30502152 -0.3750906 0
-0.34290504 -0.28986281 -0.36284518 0
-0.21528244 -0.36728108 -0.36620283 0
-0.30251503 -0.19998294 -0.36832905 0
-0.25535774 -0.12912816 -0.36629272 0
-0.10087776 -0.12231135 -0.35546875 0
0.021936417 -0.1882214 -0.24047065 0
-0.24018669 -0.066504538 -0.37524247 0
-0.16275787 -0.036132395 -0.35766053 0
-0.060371399 -0.03535974 -0.29835629 0
0.012136459 -0.069732606 -0.25526237 0
-0.48963165 0.12358791 -0.33930421 0
-0.46973038 0.160734 -0.34063077 0
-0.10852242 0.060098588 -0.34094691 0
-0.046121597 0.031724095 -0.29883957 0
0.0092773438 0.0031380653 -0.27168894 0
0.34206009 -0.010021091 -0.20247841 0
-0.43650436 0.22410864 -0.33437514 0
-0.087001801 0.15611225 -0.32049012 0
-0.030054092 0.12682313 -0.27698827 0
0.33094978 0.083784699 -0.20239949 0
-0.40177917 0.30571306 -0.33100319 0
-0.16186142 0.23427141 -0.31642818 0
-0.090362549 0.25462604 -0.28073668 0
-0.35822678 0.40325773 -0.33339643 0
-0.31249237 0.44376248 -0.36180496 0
0.038234711 -0.25044048 -0.22402406 0
0.026849747 -0.18421215 -0.22178102 0
-0.019039154 -0.019025207 -0.2341125 0
0.012325287 -0.093159497 -0.21895361 0
-0.022298813 0.049809277 -0.22787714 0
0.0096111298 0.016606212 -0.21987581 0
-0.4152565 0.24072421 -0.30282545 0
-0.033090591 0.14271253 -0.21174455 0
0.31709099 0.076996863 -0.18258142 0
-0.3825016 0.32442886 -0.26901031 0
-0.091436386 0.26102108 -0.23316741 0
-0.03499794 0.23423088 -0.19621706 0
-0.3591938 0.40978009 -0.26657891 0
-0.32009315 0.3981303 -0.21280909 0
-0.21417618 0.38756949 -0.18896985 0
-0.10738373 0.32608169 -0.20969367 0
-0.051008224 0.32061201 -0.16414928 0
-0.3308506 0.49858469 -0.25052071 0
-0.042013168 0.24784446 -0.12856627 0
-0.30903625 0.41893584 -0.17196202 0
-0.20212936 0.38659161 -0.1434381 0
-0.11120224 0.36778957 -0.11750603 0
-0.041435242 0.33814251 -0.091503382 0
0.17007065 0.26217031 -0.087755442 0
-0.30929375 0.4921301 -0.14561939 0
-0.20906067 0.43666929 -0.10964561 0
-0.098777771 0.42743444 -0.06827116 0
-0.098041534 0.3783322 -0.0064702034 0
-0.04916954 0.362086 -0.0081694126 0
0.040933609 0.34209943 0.02173686 0
-0.21266937 0.47229457 -0.031514168 0
-0.12458611 0.44460028 -0.0080635548 0
-0.053771973 0.44102329 0.024299145 0
0.0010166168 0.37141371 0.061395645 0
-0.12230873 0.4735918 0.085120201 0
-0.054920197 0.43485451 0.10284138 0
0.031764984 0.42487347 0.10506988 0
-0.11626625 0.48412031 0.16976643 0
-0.057422638 0.47605604 0.20203066 0
-0.90237617 -0.46514243 -0.50493097 0
-0.85062027 -0.4851771 -0.4896946 0
-0.77965355 -0.49002475 -0.46726346 0
-0.80458832 -0.3994661 -0.49269891 0
-0.72039032 -0.41503453 -0.46525764 0
-0.74221611 -0.30801207 -0.49584627 0
-0.68395042 -0.32909888 -0.47335815 0
-0.60557556 -0.34200662 -0.44513464 0
-0.70340538 -0.25320703 -0.49687862 0
-0.64225006 -0.2351495 -0.48096013 0
-0.56409645 -0.25920552 -0.45069599 0
-0.60237885 -0.15274268 -0.48672891 0
-0.509758 -0.18389827 -0.45048761 0
-0.44718361 -0.19190437 -0.42876124 0
0.064134598 -0.36331964 -0.37113953 0
-0.73105049 -0.026555657 -0.46360779 0
-0.6684761 -0.0071094036 -0.45092225 0
-0.54424858 -0.053877234 -0.49091339 0
-0.48340988 -0.073503375 -0.4672904 0
-0.37924767 -0.11392438 -0.42291355 0
0.14305115 -0.31593567 -0.37193894 0
0.23064041 -0.37939847 -0.35753274 0
0.33321762 -0.40790915 -0.34261203 0
0.44447899 -0.42110932 -0.33084393 0
0.51662064 -0.41547358 -0.32451367 0
-0.5171051 0.033856153 -0.47948241 0
-0.45258904 0.024031103 -0.47888637 0
-0.31721497 -0.059412479 -0.41155124 0
-0.31230164 -0.05557394 -0.41287088 0
0.23509026 -0.22117984 -0.37216926 0
0.32640076 -0.29014629 -0.35856032 0
0.37906265 -0.29492098 -0.35237432 0
0.48356438 -0.32208306 -0.34194589 0
0.59029579 -0.3571462 -0.32413626 0
0.67321587 -0.38999927 -0.30576205 0
-0.48855591 0.13283837 -0.45365763 0
-0.41274261 0.11899275 -0.48351383 0
0.29678154 -0.15793306 -0.3721621 0
0.42241096 -0.20274192 -0.35742855 0
0.55505562 -0.24959809 -0.34214115 0
0.68112183 -0.29106283 -0.32346272 0
0.75265121 -0.34356219 -0.30379486 0
0.83612442 -0.39911526 -0.28082418 0
-0.44617844 0.22122067 -0.46049452 0
-0.40092278 0.20435083 -0.48424792 0
0.6640892 -0.21936607 -0.34455156 0
-0.41037941 0.31279367 -0.4516561 0
-0.37672997 0.32413042 -0.46432471 0
-0.39487648 0.4249956 -0.46864772 0
-0.33467865 0.39798456 -0.43048 0
-0.26607895 0.48815095 -0.41192436 0
-0.69479179 -0.45314437 -0.44856381 0
-0.6347332 -0.46064121 -0.42729735 0
-0.53430176 -0.49472398 -0.38759518 0
-0.56100655 -0.3641873 -0.42587972 0
-0.49380684 -0.40795779 -0.39432335 0
-0.41419983 -0.40374422 -0.37306237 0
-0.28794289 -0.46201962 -0.36263108 0
-0.23636055 -0.4744969 -0.36321402 0
-0.51385307 -0.28739029 -0.42806339 0
-0.47452545 -0.31799823 -0.40865111 0
-0.38080406 -0.32320154 -0.3773911 0
-0.31406021 -0.36694384 -0.36725664 0
-0.1689415 -0.4356972 -0.36527562 0
-0.088586807 -0.40996355 -0.36733532 0
0.033046722 -0.4794386 -0.3595438 0
-0.74584389 -0.056021869 -0.44167018 0
-0.69513512 -0.057860732 -0.41383147 0
-0.40651321 -0.2204473 -0.4077723 0
-0.34013176 -0.23109531 -0.38168287 0
-0.24159622 -0.26749188 -0.36405444 0
-0.011075974 -0.38802612 -0.36935329 0
0.12951088 -0.44078875 -0.35773182 0
0.2333622 -0.47728604 -0.34252357 0
-0.66485405 -0.014750898 -0.41810513 0
-0.3010273 -0.1460306 -0.38507795 0
-0.19021797 -0.17275721 -0.36082959 0
0.58675003 -0.44148505 -0.30797815 0
-0.60956573 0.036646008 -0.4142592 0
-0.55625153 0.06782198 -0.38693094 0
-0.24331856 -0.066719532 -0.38170314 0
-0.18203545 -0.10475713 -0.35487461 0
-0.010671616 -0.10268515 -0.27121925 0
0.75534058 -0.45346504 -0.28248668 0
-0.49808884 0.13244879 -0.37763166 0
-0.45384216 0.14627379 -0.33857703 0
-0.14648628 0.0073754191 -0.3631556 0
-0.051107407 -0.018267095 -0.31436229 0
-0.44369507 0.22642279 -0.38429356 0
-0.41414642 0.23328853 -0.33384132 0
-0.08272171 0.086634636 -0.32565975 0
-0.01307106 0.037809074 -0.28988481 0
-0.40396309 0.30863911 -0.37170696 0
-0.38904381 0.31493044 -0.33891582 0
-0.13921928 0.2383551 -0.30828691 0
-0.081150055 0.17868447 -0.3039422 0
-0.021377563 0.13656867 -0.28023076 0
-0.34290504 0.39900672 -0.35443354 0
-0.046649933 0.288275 -0.29397035 0
-0.28970528 0.49071652 -0.35110474 0
0.051261902 -0.23797435 -0.24003291 0
0.014558792 -0.17265314 -0.22695398 0
-0.02015686 -0.0317325 -0.24480081 0
0.010019302 -0.079396784 -0.23751616 0
-0.0061702728 0.063189387 -0.24204493 0
0.36177635 -0.029750764 -0.21128869 0
-0.37946701 0.32302767 -0.27980137 0
-0.075284958 0.21770692 -0.25218725 0
-0.020605087 0.16158211 -0.22203302 0
0.34553719 0.027102768 -0.21011901 0
-0.35089493 0.39587182 -0.25278163 0
-0.25981522 0.3510775 -0.21563482 0
-0.11341858 0.31684572 -0.21444011 0
-0.056072235 0.25966001 -0.21241641 0
-0.32164001 0.49089938 -0.24727654 0
-0.040330887 0.2067284 -0.16620445 0
-0.02696228 0.18934286 -0.1568923 0
-0.31030464 0.42430723 -0.17103577 0
-0.23024368 0.37985307 -0.15696526 0
-0.12414169 0.31846911 -0.14611125 0
-0.043228149 0.29222757 -0.12978578 0
-0.0048713684 0.27126563 -0.11105275 0
-0.30944061 0.48099053 -0.15497518 0
-0.23426628 0.42740148 -0.10757494 0
-0.13628387 0.38457376 -0.11865258 0
-0.050945282 0.35005343 -0.078942776 0
0.16868782 0.27581996 -0.061433315 0
-0.28460121 0.48875678 -0.06037879 0
-0.20859337 0.45261639 -0.044515848 0
-0.11156273 0.41681623 -0.02177453 0
-0.052022934 0.37296146 -0.021859884 0
0.035884857 0.33866435 -0.0053167343 0
-0.097724915 0.45171094 -0.0050914288 0
-0.20235062 0.4639405 0.031523943 0
-0.10893631 0.43268263 0.061525345 0
-0.052453995 0.39711392 0.070323706 0
0.028297424 0.38191056 0.074362516 0
-0.12013435 0.47499013 0.090146065 0
-0.048570633 0.44496101 0.110605 0
-0.12099075 0.42495656 0.12563753 0
-0.11821365 0.4903276 0.16987967 0
-0.04454422 0.47366643 0.18591881 0
-0.97682762 -0.41892362 -0.53622532 0
-0.94151878 -0.33654034 -0.53266525 0
-0.86471748 -0.31554383 -0.52010727 0
-0.98672104 -0.21198988 -0.54873586 0
-0.90969467 -0.25512898 -0.52984762 0
-0.80563164 -0.26843005 -0.51733494 0
-0.94894409 -0.12973654 -0.54514885 0
-0.85160065 -0.16290438 -0.5292356 0
-0.77129936 -0.18615764 -0.51885486 0
-0.71998024 -0.22906178 -0.51141644 0
-0.92020226 -0.022938788 -0.54550624 0
-0.82551765 -0.06596905 -0.53296018 0
-0.73902702 -0.095081389 -0.52220011 0
-0.6403389 -0.14858425 -0.50670075 0
-0.85551834 0.067440808 -0.54398394 0
-0.7922039 0.0524562 -0.53712773 0
-0.70195007 -0.0045282245 -0.52470851 0
-0.61679077 -0.029833972 -0.51480174 0
-0.53412247 -0.050491333 -0.49831271 0
-0.83020401 0.14954925 -0.54316139 0
-0.73005295 0.12354285 -0.53280544 0
-0.66370583 0.089499652 -0.52754307 0
-0.56160927 0.052863061 -0.51483226 0
-0.47032356 0.03263694 -0.49694371 0
-0.80602264 0.24370664 -0.5435431 0
-0.71069527 0.20736128 -0.53252959 0
-0.63262939 0.17825407 -0.52605081 0
-0.54114723 0.14875925 -0.51642823 0
-0.4229641 0.10975963 -0.497015 0
-0.77977943 0.33122313 -0.54284239 0
-0.68320084 0.30574268 -0.53159881 0
-0.57966042 0.28672785 -0.52211905 0
-0.4928875 0.23265612 -0.51300049 0
-0.4071846 0.20496082 -0.49728441 0
-0.81597137 0.45647502 -0.53947687 0
-0.731493 0.42963153 -0.54045558 0
-0.65761375 0.40236944 -0.53068638 0
-0.55742836 0.3571136 -0.52078676 0
-0.44923019 0.34373891 -0.51015925 0
-0.38143349 0.32655358 -0.49483132 0
-0.61539459 0.49013734 -0.52785802 0
-0.52509689 0.43887615 -0.51924849 0
-0.41862297 0.41554272 -0.49899125 0
-0.37124443 0.37236583 -0.49551773 0
-0.9390316 -0.42680269 -0.52424335 0
-0.87402725 -0.47643846 -0.5084269 0
-0.89664459 -0.35403419 -0.52010417 0
-0.8401413 -0.37890095 -0.51238084 0
-0.74904633 -0.40107507 -0.48775506 0
-0.6585865 -0.43491483 -0.4508574 0
-0.56980515 -0.47463435 -0.41373038 0
-0.50107002 -0.46046782 -0.39467216 0
-0.78262138 -0.30524403 -0.51264572 0
-0.70593452 -0.32621741 -0.49050498 0
-0.61903191 -0.35245693 -0.45737147 0
-0.52745438 -0.38768625 -0.41982961 0
-0.44683456 -0.38851362 -0.39511561 0
-0.65995979 -0.23657727 -0.49622989 0
-0.58538246 -0.26244044 -0.46670079 0
-0.5006752 -0.29104483 -0.43312716 0
-0.41934204 -0.32853603 -0.39784622 0
-0.33021355 -0.3545571 -0.3806951 0
-0.0094547272 -0.45477903 -0.37678742 0
-0.75004578 -0.056321979 -0.46007371 0
-0.54918098 -0.18724084 -0.47219491 0
-0.45079041 -0.20226324 -0.43743324 0
-0.36328506 -0.22678238 -0.40034986 0
-0.29493904 -0.2708748 -0.37619185 0
0.10091209 -0.39984697 -0.37771678 0
0.18938255 -0.45384508 -0.36082006 0
0.2810936 -0.47218043 -0.35064077 0
-0.66339684 0.0039697289 -0.44509912 0
-0.42762184 -0.13913 -0.4433763 0
-0.31609344 -0.14487875 -0.40199995 0
-0.25382423 -0.17266816 -0.37283039 0
0.18590736 -0.31270111 -0.37994742 0
0.20682907 -0.30589581 -0.37908506 0
0.32188606 -0.37104815 -0.36078382 0
0.42007637 -0.43289155 -0.34194756 0
0.50417519 -0.49918729 -0.32171035 0
0.56549263 -0.46320146 -0.32023215 0
-0.58625984 0.058731735 -0.42519379 0
-0.40903854 0.036254168 -0.47763848 0
-0.29329109 -0.075231969 -0.4081018 0
-0.22163773 -0.094057918 -0.37717676 0
0.25261307 -0.26185036 -0.37877393 0
0.38258934 -0.31990576 -0.36167288 0
0.43069458 -0.28320777 -0.36171079 0
0.55365562 -0.34389758 -0.34191561 0
0.6342392 -0.3987757 -0.32075524 0
0.73057365 -0.46493226 -0.29501724 0
-0.50171852 0.14612842 -0.43095708 0
-0.48082924 0.14855075 -0.39534545 0
-0.16514969 -0.0088176131 -0.37608695 0
0.33295822 -0.17420197 -0.37942243 0
0.49083328 -0.2216177 -0.36178422 0
0.61158752 -0.30938774 -0.34108186 0
0.67349243 -0.31661117 -0.33080149 0
0.74610329 -0.31050336 -0.32029724 0
0.84199715 -0.3812995 -0.29382658 0
-0.47435951 0.20924252 -0.43515015 0
-0.44269753 0.22874027 -0.42462111 0
-0.11592102 0.049054503 -0.37100601 0
0.72457695 -0.23510581 -0.34153533 0
0.78664207 -0.28505343 -0.31964231 0
-0.40367889 0.3128044 -0.42699957 0
-0.40284729 0.44265288 -0.46327901 0
-0.34568214 0.39335144 -0.42822981 0
-0.2955246 0.48113483 -0.4063704 0
-0.48567963 -0.49734241 -0.38145423 0
-0.4251709 -0.42936307 -0.37910008 0
-0.58367729 0.049954891 -0.38691306 0
0.014408112 -0.14440823 -0.25459099 0
0.032314301 -0.2288025 -0.25648808 0
-0.5106144 0.12395787 -0.37745786 0
-0.4802227 0.14415842 -0.36423826 0
-0.063684464 -0.0067490339 -0.32608914 0
-0.0097789764 -0.038275182 -0.26936316 0
-0.43582535 0.22889888 -0.36062956 0
-0.094860077 0.10752273 -0.34142661 0
-0.044057846 0.044329166 -0.30149746 0
-0.39454269 0.31215388 -0.33509994 0
-0.079963684 0.18005466 -0.31201982 0
-0.016767502 0.1493358 -0.27612591 0
-0.35936737 0.39250112 -0.31609321 0
-0.061330795 0.26375109 -0.28307247 0
-0.31496811 0.48581487 -0.31210065 0
0.038249969 -0.18744004 -0.23412681 0
0.0072021484 -0.074864805 -0.23130703 0
0.025037766 0.034054577 -0.22918177 0
-0.36170197 0.31947887 -0.26021004 0
-0.043392181 0.21296632 -0.24609017 0
-0.02312088 0.17309302 -0.22202969 0
0.037872314 0.10453629 -0.22796512 0
-0.33507919 0.40534204 -0.23504162 0
-0.12900925 0.3432644 -0.21530032 0
-0.061416626 0.29243624 -0.20183706 0
-0.030313492 0.22429776 -0.18592882 0
-0.32493973 0.48400837 -0.2208941 0
-0.24089432 0.40027374 -0.18865275 0
-0.15398979 0.37183964 -0.17739391 0
-0.30849648 0.41801637 -0.17056727 0
-0.17027092 0.36283457 -0.14678836 0
-0.058532715 0.31091642 -0.12318039 0
-0.0048122406 0.28745037 -0.13481736 0
-0.30829811 0.49438965 -0.13500333 0
-0.244133 0.46556246 -0.10868335 0
-0.14655495 0.41912687 -0.10250449 0
-0.040037155 0.35480845 -0.09608674 0
-0.19413757 0.45075792 -0.036062241 0
-0.15266228 0.44154191 -0.023110867 0
-0.038549423 0.3934353 -0.0031151772 0
0.074512482 0.34326541 -0.01378727 0
-0.13772774 0.4816016 0.0051436424 0
-0.064386368 0.44678843 -0.0068731308 0
-0.046113968 0.41054779 0.07996273 0
-0.11832237 0.47727519 0.091755867 0
-0.054182053 0.43759203 0.10806513 0
-0.061630249 0.47361064 0.20032811 0
-0.62942123 0.015497386 -0.50938511 0
-0.58582115 -0.050007701 -0.49989748 0
-0.6369381 0.087038279 -0.51368546 0
-0.53991508 0.048084378 -0.50212693 0
-0.46748924 0.054687023 -0.49002886 0
-0.50376129 0.1421349 -0.50416279 0
-0.42118263 0.146815 -0.49363112 0
-0.49457169 0.21453828 -0.50448298 0
-0.41250038 0.21875972 -0.49427676 0
-0.95434761 -0.43500757 -0.51990557 0
-0.86210632 -0.44347847 -0.50027323 0
-0.77305412 -0.49295688 -0.46327543 0
-0.99208069 -0.305794 -0.53469586 0
-0.94968033 -0.34520352 -0.52230763 0
-0.83316803 -0.35936046 -0.50328255 0
-0.74064445 -0.40192199 -0.47403502 0
-0.64347839 -0.43958265 -0.43434525 0
-0.54399681 -0.47044033 -0.39547467 0
-0.95940971 -0.21033347 -0.53182149 0
-0.89348221 -0.24432582 -0.51867914 0
-0.79059029 -0.28050858 -0.50436449 0
-0.6939106 -0.29256427 -0.48410797 0
-0.602808 -0.34320295 -0.44318104 0
-0.5369873 -0.38568765 -0.4124434 0
-0.44340134 -0.42421448 -0.37605095 0
-0.33222771 -0.40316349 -0.36907363 0
-0.92166138 -0.098029912 -0.53131533 0
-0.83679962 -0.15553677 -0.51780367 0
-0.74476433 -0.18589288 -0.50570393 0
-0.65774345 -0.21418566 -0.48969913 0
-0.58917236 -0.26087761 -0.45728064 0
-0.47388077 -0.28769183 -0.4146843 0
-0.39169121 -0.31603086 -0.38062668 0
-0.35778618 -0.38534909 -0.36888313 0
0.060665131 -0.45678061 -0.3610425 0
-0.89146805 -0.035236895 -0.5310142 0
-0.81701279 -0.064100623 -0.52202463 0
-0.72085762 -0.072770894 -0.4898324 0
-0.60984993 -0.13944179 -0.49084568 0
-0.5377636 -0.18777806 -0.45732665 0
-0.45193291 -0.19832915 -0.42738008 0
-0.35568237 -0.22583568 -0.38773274 0
-0.2900219 -0.20690316 -0.36747193 0
0.13996315 -0.39663923 -0.36255002 0
0.21971321 -0.49973851 -0.33988905 0
0.28565598 -0.45239145 -0.34078407 0
-0.84712601 0.05902946 -0.53231001 0
-0.77801132 0.036869466 -0.52494788 0
-0.68758774 -0.0024890304 -0.47158122 0
-0.61081505 -0.017219245 -0.46809411 0
-0.52740669 -0.046287537 -0.4861002 0
-0.4056015 -0.11761338 -0.43090105 0
-0.32217407 -0.14960718 -0.39268637 0
-0.25760269 -0.14612502 -0.36808729 0
0.2085743 -0.34510678 -0.36400485 0
0.37336159 -0.3878215 -0.34236717 0
0.51724434 -0.45213646 -0.31748939 0
0.62498474 -0.49854088 -0.29293036 0
-0.82020187 0.17285007 -0.5320735 0
-0.74682808 0.13111931 -0.52570939 0
-0.66378784 0.15713018 -0.51870203 0
-0.57039452 0.075732112 -0.42382669 0
-0.45460892 0.028133869 -0.4799068 0
-0.26383781 -0.076020181 -0.38664961 0
-0.216465 -0.072234452 -0.36956143 0
0.28110504 -0.25079948 -0.36665273 0
0.47070885 -0.30003977 -0.34517097 0
0.59516525 -0.37917274 -0.3191371 0
0.67101097 -0.4616937 -0.29331803 0
0.72845268 -0.4064737 -0.29447651 0
0.85524559 -0.48064274 -0.26239991 0
-0.79066849 0.28289706 -0.53132868 0
-0.70385933 0.22594494 -0.52169132 0
-0.61262894 0.17674088 -0.5127039 0
-0.50242233 0.14813858 -0.43122411 0
-0.39411736 0.10646141 -0.47666335 0
-0.18604279 -0.019285619 -0.3709538 0
0.32179832 -0.19120067 -0.36811137 0
0.53076172 -0.22557724 -0.34725904 0
0.66858673 -0.3082419 -0.32107973 0
0.77377319 -0.36858469 -0.29516149 0
0.9279232 -0.42141974 -0.26296663 0
-0.8552475 0.37443304 -0.52801728 0
-0.76022148 0.34527111 -0.52932167 0
-0.6543541 0.3194797 -0.51913643 0
-0.58700752 0.27629495 -0.5114162 0
-0.47200966 0.24086833 -0.44914889 0
-0.41670609 0.23616964 -0.44585896 0
0.36432076 -0.12550253 -0.36999393 0
0.73478889 -0.25212008 -0.32284403 0
0.83158112 -0.31129843 -0.2966373 0
-0.79837608 0.48509753 -0.53392816 0
-0.70883369 0.44005448 -0.52664423 0
-0.62985229 0.41604769 -0.5187757 0
-0.52455521 0.38882667 -0.50894189 0
-0.42492485 0.31981283 -0.4804616 0
-0.39192963 0.31867582 -0.45367551 0
-0.52274132 0.47091079 -0.5091517 0
-0.40134621 0.44793791 -0.47095275 0
-0.3371067 0.40281498 -0.43001246 0
-0.28082657 0.4819659 -0.40334892 0
-0.67168045 -0.034952521 -0.39956117 0
-0.62991524 0.021769464 -0.40163684 0
0.043970108 -0.23921567 -0.23676944 0
-0.56544685 0.075137734 -0.38037848 0
0.0053977966 -0.12080204 -0.23810196 0
0.026338577 -0.18965214 -0.23720455 0
-0.51522827 0.12607479 -0.38421226 0
-0.47223854 0.15451258 -0.35374093 0
-0.041376114 -0.0055533648 -0.28578663 0
-0.004901886 -0.042274714 -0.2634511 0
-0.45744705 0.21218807 -0.37609625 0
-0.43349457 0.23196799 -0.3548615 0
-0.087488174 0.10462159 -0.31951618 0
-0.029010773 0.071596086 -0.28268528 0
0.012231827 0.019681692 -0.3095355 0
0.35765457 -0.025713027 -0.2121706 0
-0.39278984 0.32514101 -0.34122443 0
-0.077354431 0.1922757 -0.28883982 0
-0.033557892 0.16165727 -0.26129532 0
-0.35273361 0.40380484 -0.34817004 0
-0.047260284 0.24429971 -0.29217982 0
-0.30228233 0.48283398 -0.33027792 0
0.021390915 -0.14889336 -0.21369171 0
0.011226654 -0.038754821 -0.21605754 0
0.0064620972 0.071960688 -0.21806026 0
-0.37799835 0.32866287 -0.27279758 0
-0.084737778 0.25082904 -0.20313931 0
-0.030078888 0.18749422 -0.1968081 0
-0.34357452 0.41243488 -0.2403729 0
-0.1227169 0.33945292 -0.19715595 0
-0.056259155 0.29596925 -0.19969797 0
-0.016374588 0.24453956 -0.19464159 0
-0.17737961 0.4035086 -0.16909432 0
-0.31567192 0.43772769 -0.17506218 0
-0.15660858 0.36960399 -0.13532448 0
-0.049600601 0.31615007 -0.11243272 0
-0.014627457 0.28075194 -0.114434 0
-0.24711609 0.45511883 -0.12378645 0
-0.16671562 0.43154067 -0.086606979 0
-0.059392929 0.38304311 -0.07655549 0
-0.0046386719 0.33925831 -0.048174858 0
-0.23996735 0.49045289 -0.036415815 0
-0.16773605 0.45584089 -0.025125742 0
-0.055908203 0.404217 -0.00094175339 0
0.015642166 0.36273575 0.044233322 0
-0.15841675 0.48499823 0.035999775 0
-0.076667786 0.44246751 0.085349798 0
0.040346146 0.40670979 0.099982262 0
-0.080043793 0.48806244 0.099994898 0
-0.086730957 0.45305014 0.18247652 0
-0.037693024 0.49119228 0.20045495 0
-0.63963699 -0.10290939 -0.51171899 0
0.10433006 -0.41155326 -0.37609601 0
0.27699089 -0.49275959 -0.34963584 0
-0.69644928 0.03800118 -0.52932858 0
-0.60477066 -0.035223126 -0.51345587 0
0.22401237 -0.32694244 -0.37688231 0
0.39806747 -0.38295907 -0.35170722 0
0.53011131 -0.4787938 -0.32214642 0
-0.6658783 0.10903358 -0.53013945 0
-0.57590866 0.068275034 -0.51837015 0
-0.48908234 0.021654308 -0.4968729 0
0.29834175 -0.25056756 -0.37752128 0
0.46230316 -0.35410035 -0.35119367 0
0.62369347 -0.3966856 -0.32273054 0
0.73234558 -0.47906023 -0.29286957 0
-0.65013313 0.17791533 -0.53007078 0
-0.54048347 0.16805542 -0.51963496 0
-0.43157768 0.095694959 -0.49436879 0
0.58930969 -0.25763983 -0.35313272 0
0.71352196 -0.31728572 -0.3235333 0
0.74593163 -0.30796146 -0.32252955 0
0.83594322 -0.38873005 -0.29337716 0
-0.55454254 0.28452158 -0.51891875 0
-0.47583771 0.22983879 -0.51121593 0
-0.43054771 0.17357945 -0.50792408 0
0.40699196 -0.10970169 -0.3804431 0
-0.5281353 0.37815362 -0.52086973 0
-0.45150185 0.33090669 -0.51151228 0
-0.43423271 0.44028074 -0.50979066 0
-0.36258698 0.39027828 -0.49369025 0
-0.94980812 -0.42673045 -0.53042483 0
-0.85686111 -0.48852873 -0.4995575 0
-0.77736855 -0.49455649 -0.47271776 0
-0.92573738 -0.35378653 -0.52786112 0
-0.84247971 -0.38017076 -0.51267815 0
-0.73452377 -0.39755446 -0.48079944 0
-0.63610649 -0.42692888 -0.44314647 0
-0.57711411 -0.47886431 -0.41260386 0
-0.50650406 -0.46674812 -0.39257383 0
-0.88421822 -0.24214101 -0.52877426 0
-0.78841591 -0.27302796 -0.51666069 0
-0.7273159 -0.32069665 -0.49568176 0
-0.61323547 -0.32813221 -0.45785999 0
-0.52324295 -0.37794721 -0.41823125 0
-0.45507812 -0.40279418 -0.39056921 0
-0.1392498 -0.48515427 -0.37577391 0
-0.81387329 -0.15062886 -0.52777195 0
-0.72714615 -0.19246989 -0.51637769 0
-0.66610718 -0.23770481 -0.49572492 0
-0.58129883 -0.24839532 -0.46621394 0
-0.50096703 -0.30269015 -0.42772317 0
-0.41487122 -0.32203209 -0.39545274 0
-0.7634182 -0.065096974 -0.4921422 0
-0.61258698 -0.13718927 -0.5016396 0
-0.54756355 -0.16716057 -0.47429967 0
-0.46178436 -0.20601809 -0.43756342 0
-0.3647747 -0.22997648 -0.39768839 0
-0.69555473 -0.010660291 -0.46993947 0
-0.40974426 -0.1414966 -0.4343977 0
-0.30600357 -0.13392383 -0.397609 0
-0.63971519 0.041242123 -0.43178582 0
-0.58735847 0.068204701 -0.43844628 0
-0.46940422 -0.0043209791 -0.48619723 0
-0.25675392 -0.090366602 -0.3877902 0
-0.67884445 0.16642123 -0.5283339 0
-0.64455605 0.24119478 -0.5299015 0
-0.5290699 0.13867927 -0.43757629 0
-0.070960999 0.0013779402 -0.34218168 0
-0.01351738 -0.038025081 -0.3173871 0
-0.64506912 0.30180985 -0.52996135 0
-0.4711132 0.22730005 -0.43485403 0
-0.43599701 0.23601836 -0.45590186 0
-0.10085297 0.0981493 -0.34207201 0
-0.088037491 0.06217891 -0.34217525 0
-0.63937187 0.40955758 -0.53119874 0
-0.53704834 0.41751653 -0.52121353 0
-0.44047356 0.30122328 -0.44352317 0
-0.40628052 0.3295778 -0.44193673 0
-0.086957932 0.16315085 -0.34331226 0
-0.51286888 0.47555441 -0.5181973 0
-0.40240097 0.45145577 -0.47078061 0
-0.35173035 0.40602624 -0.43481016 0
-0.29678726 0.48984849 -0.40668607 0
-0.65968323 -0.002453208 -0.41128039 0
-0.58407593 0.074299812 -0.39402318 0
-0.021690369 -0.14552152 -0.24706531 0
-0.51642799 0.13327396 -0.38392639 0
-0.48953247 0.15735149 -0.36761308 0
-0.038103104 -0.0099923015 -0.2816906 0
-0.024616241 -0.062549293 -0.28121018 0
-0.44703102 0.23847055 -0.36499858 0
-0.1107254 0.070552826 -0.31726408 0
-0.031621933 0.085742772 -0.26613617 0
-0.0093212128 0.031003594 -0.2439692 0
-0.40555382 0.33410722 -0.3439281 0
-0.093448639 0.20342088 -0.30169344 0
-0.045391083 0.17230481 -0.26201987 0
0.017871857 0.11656129 -0.24541092 0
-0.37083244 0.41247672 -0.33749962 0
-0.087701797 0.27157182 -0.24996066 0
-0.043848038 0.24517971 -0.22429562 0
-0.390131 0.31602603 -0.27687025 0
-0.045339584 0.21530002 -0.17562842 0
-0.36325073 0.40695196 -0.25828838 0
-0.30003929 0.41311324 -0.19273281 0
-0.13612556 0.33472365 -0.21828008 0
-0.077234268 0.30222714 -0.18346834 0
-0.043169022 0.26885396 -0.1654768 0
-0.18187714 0.40755904 -0.16473746 0
-0.33298302 0.43585926 -0.17244673 0
-0.064996719 0.32759023 -0.10794425 0
-0.046361923 0.27803546 -0.07983613 0
-0.26430321 0.47930288 -0.11505055 0
-0.15827179 0.41034681 -0.11035037 0
-0.082138062 0.37230927 -0.062514544 0
-0.16544342 0.45800608 -0.040891171 0
-0.077468872 0.41933179 0.015580654 0
0.024703979 0.35814458 0.046918869 0
-0.071687698 0.44539237 0.088598728 0
-0.1128788 0.48923951 0.12973499 0
-0.085607529 0.48499614 0.19410729 0
-0.98963547 -0.42431337 -0.53799462 0
-0.98565102 -0.32092583 -0.54003263 0
-0.96731567 -0.094615996 -0.54752803 0
-0.71595383 -0.17749244 -0.51280141 0
-0.92358208 0.0096148252 -0.54685116 0
-0.85344887 -0.043272078 -0.53559971 0
-0.76783752 -0.08254689 -0.52386642 0
-0.68223381 -0.11847937 -0.51257515 0
-0.98858833 0.11927491 -0.56117988 0
-0.8991642 0.080845237 -0.54640913 0
-0.80911827 0.03744173 -0.53669381 0
-0.72519112 -0.0030670762 -0.52479434 0
-0.62016487 -0.011217773 -0.51440954 0
-0.53307724 -0.031711757 -0.49770856 0
-0.96202278 0.22956711 -0.56347513 0
-0.77056503 0.15293705 -0.53721642 0
-0.67156219 0.11098289 -0.52675295 0
-0.57865715 0.069550455 -0.51604366 0
-0.47546768 0.061628819 -0.5003581 0
-0.92227745 0.28373784 -0.55869102 0
-0.77057076 0.20750397 -0.53648114 0
-0.65723419 0.20740032 -0.52668357 0
-0.54740715 0.17732954 -0.51715255 0
-0.4329586 0.15114021 -0.50270438 0
0.52659225 -0.24560583 -0.3546505 0
-0.99282837 0.40482157 -0.5747273 0
-0.64061928 0.34301215 -0.52759218 0
-0.57536697 0.30901539 -0.52079821 0
-0.56168747 0.2291463 -0.51628733 0
-0.42831612 0.23039395 -0.50304961 0
-0.88079643 0.47421467 -0.56260276 0
-0.54707146 0.37837929 -0.51796579 0
-0.4267807 0.36193299 -0.50404286 0
-0.42568207 0.30053341 -0.50349164 0
-0.43229675 0.42836499 -0.50476551 0
-0.94418526 -0.39655268 -0.5285244 0
-0.8632164 -0.45902383 -0.50252938 0
-0.80008125 -0.49644333 -0.47780967 0
-0.98568916 -0.29728824 -0.53704882 0
-0.92898369 -0.343898 -0.52505422 0
-0.84826279 -0.36356586 -0.51386619 0
-0.76500893 -0.39701492 -0.4891119 0
-0.6472187 -0.42421335 -0.44553781 0
-0.56919861 -0.4933362 -0.40463853 0
-0.96535492 -0.2499882 -0.53603482 0
-0.90114784 -0.23805439 -0.52739143 0
-0.77150345 -0.25948215 -0.51278305 0
-0.6958828 -0.30287331 -0.48873234 0
-0.64380074 -0.33056927 -0.46540308 0
-0.54718018 -0.36880243 -0.4260571 0
-0.47733688 -0.41961265 -0.39191604 0
-0.25852394 -0.46709436 -0.37234282 0
-0.17621803 -0.48625505 -0.37241173 0
-0.90809441 -0.1313563 -0.53476739 0
-0.82752228 -0.17931467 -0.52323008 0
-0.65886116 -0.22191536 -0.49482298 0
-0.59135628 -0.25709641 -0.46543169 0
-0.51175308 -0.30379641 -0.42920041 0
-0.42596817 -0.31527311 -0.39945412 0
-0.035600662 -0.47171193 -0.37389898 0
-0.93178177 0.0081935525 -0.54572678 0
-0.74466324 -0.031748712 -0.46156025 0
-0.60814285 -0.14769423 -0.49563813 0
-0.55530548 -0.16008419 -0.47607541 0
-0.46974754 -0.18885416 -0.44190073 0
-0.36965752 -0.22032636 -0.40122724 0
0.090499878 -0.40343845 -0.37521625 0
0.21090698 -0.4737547 -0.35221529 0
0.25861549 -0.46383327 -0.35102725 0
-0.97139549 0.15344644 -0.55660033 0
-0.88784027 0.13109845 -0.54602122 0
-0.68642426 -0.0039195418 -0.4438951 0
-0.66440582 0.0032908916 -0.42475986 0
-0.32888031 -0.1443792 -0.40083718 0
0.15977097 -0.35908818 -0.37569427 0
0.20092201 -0.31559837 -0.37641001 0
0.34636497 -0.4019081 -0.35168242 0
0.50654221 -0.49457508 -0.31931758 0
-0.87389374 0.19511092 -0.54614449 0
-0.57666397 0.074456573 -0.44296503 0
-0.44664001 0.0090190768 -0.47911525 0
-0.19947433 -0.076375961 -0.36879945 0
0.43410683 -0.33588868 -0.3527925 0
0.5915451 -0.42416489 -0.31968307 0
0.7632637 -0.48194009 -0.28413987 0
-0.99697876 0.28519243 -0.56749272 0
-0.91518402 0.33758527 -0.55932999 0
-0.84106827 0.29596823 -0.54778767 0
-0.73315811 0.21671665 -0.53045607 0
-0.51123619 0.15508145 -0.43032789 0
-0.47883606 0.18129629 -0.40967131 0
-0.39750862 0.097773373 -0.48145485 0
-0.087434769 0.0072252154 -0.34801054 0
0.66827393 -0.35037577 -0.32090831 0
0.71850014 -0.31671971 -0.32076955 0
0.8618412 -0.39922208 -0.28453088 0
-0.96902847 0.41478556 -0.56993437 0
-0.87643623 0.39789069 -0.55414343 0
-0.7876873 0.32882321 -0.54058552 0
-0.7487278 0.2986486 -0.5372889 0
-0.4761219 0.22747093 -0.43347573 0
-0.44444466 0.23826128 -0.44663215 0
0.77630997 -0.26323867 -0.32169294 0
-0.82217789 0.48177588 -0.55026102 0
-0.74302864 0.45253527 -0.53864288 0
-0.63965607 0.42045188 -0.52835631 0
-0.40459251 0.31122994 -0.45360398 0
-0.53974533 0.47245842 -0.51954961 0
-0.40782738 0.45145023 -0.47522259 0
-0.34726715 0.40547049 -0.43873453 0
-0.64151001 0.009601295 -0.40324116 0
-0.58361244 0.073476911 -0.3941679 0
-0.52490807 0.089973688 -0.3624506 0
0.02256012 -0.18322003 -0.23837233 0
-0.52604675 0.13769543 -0.38526964 0
-0.48399925 0.15751392 -0.36450458 0
-0.091213226 0.0063031316 -0.32015896 0
-0.0044803619 -0.060357153 -0.26111627 0
-0.44416809 0.22782898 -0.36610413 0
-0.061941147 0.060292363 -0.30756211 0
-0.0069789886 0.053123415 -0.26344132 0
-0.39326286 0.33466554 -0.3486762 0
-0.087802887 0.23580682 -0.27222395 0
-0.030000687 0.16714311 -0.27859592 0
-0.36645699 0.40233123 -0.33915162 0
-0.30724716 0.49780864 -0.3401475 0
-0.0072822571 0.088261306 -0.2156899 0
-0.36704254 0.34415817 -0.27826023 0
-0.082698822 0.22523397 -0.24830842 0
-0.034727097 0.19891614 -0.20002317 0
-0.34963226 0.41926837 -0.25566292 0
-0.28835487 0.43288189 -0.18679714 0
-0.10246849 0.30579436 -0.21199942 0
-0.040445328 0.2698226 -0.18721843 0
-0.23601723 0.39052075 -0.16000175 0
-0.19232559 0.36450338 -0.13070273 0
-0.075054169 0.31065166 -0.11311412 0
-0.041280746 0.26800656 -0.11831784 0
-0.28380394 0.45909035 -0.12929797 0
-0.19176102 0.46890968 -0.087065458 0
-0.059818268 0.36634284 -0.11554718 0
-0.015619278 0.35024977 -0.068018913 0
-0.1883049 0.45729452 -0.050657988 0
-0.072713852 0.40098387 -0.0080795288 0
0.04199791 0.34410274 0.046091557 0
0.049530029 0.30696523 -0.034541607 0
-0.091333389 0.43428475 0.075329542 0
-0.024591446 0.394925 0.058397532 0
-0.9285965 -0.48653102 -0.51371455 0
-0.99321938 -0.34600246 -0.53656149 0
-0.86896896 -0.38254386 -0.51089501 0
-0.96153259 -0.24634016 -0.53486514 0
-0.79761314 -0.29118562 -0.5092473 0
-0.95043755 -0.12059361 -0.53734422 0
-0.86858559 -0.18449754 -0.523489 0
-0.73340416 -0.21038276 -0.50805068 0
-0.9811573 -0.03117907 -0.55036378 0
-0.89983749 -0.039019704 -0.53851867 0
-0.79251289 -0.080110312 -0.52308035 0
-0.68225288 -0.14136612 -0.50758815 0
-0.5759449 -0.12603527 -0.48825169 0
-0.95125961 0.066217124 -0.54808378 0
-0.85162735 0.043452919 -0.5374217 0
-0.7518692 -0.019807756 -0.52284622 0
-0.62241173 -0.054399908 -0.50803566 0
-0.53091049 -0.06244415 -0.48856306 0
-0.92145348 0.13775694 -0.5477736 0
-0.82666397 0.12156957 -0.53608632 0
-0.70172691 0.06470257 -0.52335668 0
-0.53385353 0.0071842074 -0.49791455 0
-0.96241188 0.29062414 -0.55948591 0
-0.88229752 0.25789809 -0.54714584 0
-0.79353905 0.21835977 -0.53594804 0
-0.66500473 0.17113525 -0.52291203 0
-0.52756691 0.11234039 -0.50844431 0
-0.43455315 0.084291875 -0.48910069 0
-0.99136543 0.43309242 -0.57348537 0
-0.92502785 0.39814031 -0.56047392 0
-0.8506279 0.36520642 -0.54753613 0
-0.76540375 0.32223922 -0.53579044 0
-0.65142441 0.26461929 -0.52185583 0
-0.52300644 0.1966545 -0.5068171 0
-0.50790405 0.1884582 -0.50816321 0
-0.39286804 0.17491645 -0.48968315 0
-0.90838242 0.47838998 -0.56116629 0
-0.81710625 0.46744716 -0.54134965 0
-0.74097824 0.40448749 -0.53636599 0
-0.62760353 0.39719111 -0.52186489 0
-0.48745346 0.32296336 -0.50763965 0
-0.39071274 0.29810506 -0.48857737 0
-0.60805893 0.49185604 -0.52257991 0
-0.48178482 0.43306035 -0.50733924 0
-0.37312317 0.4175207 -0.48895121 0
-0.88546181 -0.39879888 -0.50969863 0
-0.79061317 -0.41124874 -0.49252367 0
-0.72171211 -0.45198524 -0.46046662 0
-0.62405777 -0.49724662 -0.41910338 0
-0.73379135 -0.33963037 -0.49005485 0
-0.66083908 -0.348526 -0.46489859 0
-0.58987808 -0.37944025 -0.43516898 0
-0.50712967 -0.45463067 -0.39184141 0
-0.44208145 -0.43644184 -0.37468982 0
-0.64895058 -0.25391132 -0.48267627 0
-0.54514503 -0.32106936 -0.43414927 0
-0.44266891 -0.3402366 -0.39723063 0
-0.37332153 -0.3424232 -0.37444925 0
-0.6141777 -0.20735776 -0.48167562 0
-0.5116291 -0.19995874 -0.45093846 0
-0.42803383 -0.24099666 -0.4143889 0
-0.33243752 -0.2526924 -0.3781414 0
-0.73837852 -0.034222782 -0.45864582 0
-0.68881607 -0.018079162 -0.43507242 0
-0.38267708 -0.14623207 -0.41997004 0
-0.30563736 -0.16642809 -0.38636398 0
0.31990051 -0.46148413 -0.34199548 0
-0.61842728 0.038366914 -0.43199325 0
-0.44419289 -0.023036063 -0.46790767 0
-0.22603035 -0.10961032 -0.37044835 0
0.41736221 -0.40851438 -0.34066272 0
0.47738647 -0.39266843 -0.33870602 0
0.65506363 -0.44212425 -0.30386567 0
-0.51753044 0.12829125 -0.42914772 0
-0.39556503 0.057582438 -0.46857381 0
-0.071487427 -0.016875684 -0.34140348 0
0.58337212 -0.30089873 -0.33983517 0
0.76525307 -0.36403787 -0.30206966 0
0.90419006 -0.47524899 -0.26257992 0
-0.46680069 0.19732189 -0.42308593 0
0.84626198 -0.30181485 -0.30127335 0
-0.41722107 0.29088163 -0.43095231 0
-0.37068176 0.37445164 -0.42645121 0
-0.32493782 0.4100942 -0.40353036 0
-0.36849976 0.48388708 -0.45828629 0
-0.29787064 0.46459121 -0.40876937 0
-0.60075951 0.040217459 -0.38818455 0
-0.56143951 0.064495265 -0.36672831 0
-0.512146 0.11316353 -0.36565995 0
-0.011705399 -0.032758474 -0.256598 0
0.029071808 -0.10866827 -0.26405692 0
-0.45087242 0.18962008 -0.35457754 0
-0.087730408 0.066923678 -0.31172585 0
-0.018213272 0.022751153 -0.27750158 0
-0.41710091 0.27509844 -0.34888029 0
-0.37770081 0.29401129 -0.30401087 0
-0.050045013 0.14490753 -0.27861238 0
-0.37246704 0.38012612 -0.32791185 0
-0.084421158 0.24477863 -0.25970292 0
-0.32953453 0.46264124 -0.31065035 0
-0.29387856 0.47860235 -0.36028862 0
0.035612106 -0.18719888 -0.22347498 0
-0.00013542175 -0.052470148 -0.22584033 0
0.0037708282 -0.12898636 -0.22439027 0
0.010787964 0.028065503 -0.22571254 0
-0.048898697 0.15338486 -0.21337819 0
-0.027244568 0.099577248 -0.22673416 0
-0.36994743 0.38291836 -0.26834607 0
-0.3492794 0.39126337 -0.256284 0
-0.085313797 0.31276578 -0.23269844 0
-0.034475327 0.25781 -0.18748021 0
-0.3374691 0.47678983 -0.2348547 0
-0.32430458 0.43135589 -0.20854831 0
-0.1224041 0.3653124 -0.16703391 0
-0.036205292 0.31337166 -0.14884257 0
-0.33778191 0.40404266 -0.16626596 0
-0.028514862 0.29350322 -0.11885595 0
-0.32778358 0.49412268 -0.1554544 0
-0.27686119 0.45805508 -0.12639976 0
-0.19439507 0.3971287 -0.10373259 0
-0.079177856 0.37343425 -0.095460176 0
-0.056474686 0.31932795 -0.076703072 0
-0.074327469 0.39880401 -0.013484716 0
-0.02775383 0.35760474 -0.037497997 0
-0.19618607 0.48856354 -0.030403614 0
-0.088615417 0.46599132 0.038195372 0
-0.031368256 0.40643489 0.047118187 0
-0.053670883 0.39538133 0.072528601 0
-0.079906464 0.47724766 0.10612988 0
-0.076389313 0.48806059 0.18591452 0
-0.11450386 0.49960494 0.25751042 0
-0.94719505 -0.45875746 -0.51622963 0
-0.84324074 -0.49244082 -0.48446608 0
-0.9284935 -0.3423537 -0.5181973 0
-0.80565071 -0.39881462 -0.4937067 0
-0.73339462 -0.4376601 -0.46178412 0
-0.97776413 -0.23979509 -0.53672171 0
-0.88877106 -0.28112233 -0.51573348 0
-0.75367355 -0.30822003 -0.49778247 0
-0.66296387 -0.35579455 -0.45795488 0
-0.92749023 -0.11570978 -0.53297949 0
-0.82934189 -0.20601106 -0.5156033 0
-0.70768356 -0.24786615 -0.49684072 0
-0.65074539 -0.27276903 -0.47251058 0
-0.58820343 -0.28207654 -0.45070553 0
-0.029005051 -0.475034 -0.36791277 0
-0.97356224 -0.00067234039 -0.54582834 0
-0.89461136 -0.064971387 -0.53141999 0
-0.75434303 -0.10741436 -0.51516509 0
-0.62829018 -0.17552859 -0.48771071 0
-0.54111481 -0.22012532 -0.44961333 0
-0.45825577 -0.22348523 -0.42270732 0
0.066108704 -0.42289388 -0.3670764 0
-0.94086075 0.078364491 -0.5447793 0
-0.83613205 0.018509448 -0.53235507 0
-0.73674965 -0.02326256 -0.4636209 0
-0.67054367 -0.00260216 -0.49012756 0
-0.58019829 -0.07460469 -0.49581385 0
-0.48189926 -0.139727 -0.44964957 0
-0.41711235 -0.16204786 -0.42058301 0
0.14834213 -0.39127696 -0.36488581 0
0.23533058 -0.36044151 -0.36247206 0
0.34760857 -0.47690624 -0.33355665 0
0.62949562 -0.49924737 -0.29213428 0
-0.97628403 0.22287005 -0.56010485 0
-0.89964104 0.18303376 -0.54412699 0
-0.78748703 0.11580926 -0.53179598 0
-0.65078926 0.041656077 -0.5152812 0
-0.53271294 -0.007811904 -0.49503565 0
-0.45122147 0.00010234118 -0.47135282 0
0.48461342 -0.39115423 -0.33193612 0
-0.96586037 0.29193139 -0.55862498 0
-0.86352539 0.28564155 -0.54396892 0
-0.76449776 0.21552551 -0.53047442 0
-0.59878731 0.13671607 -0.51585221 0
-0.50154686 0.11566216 -0.46484971 0
-0.4146595 0.061784029 -0.47109437 0
0.59641075 -0.33561939 -0.32834625 0
0.78105545 -0.40233117 -0.28808975 0
-0.93881035 0.38505262 -0.55876613 0
-0.84761429 0.38044524 -0.5434804 0
-0.74174309 0.3266924 -0.52994275 0
-0.57557297 0.25318867 -0.51485157 0
-0.45064735 0.19720995 -0.47411084 0
0.87100792 -0.33473873 -0.2867496 0
0.9337101 -0.29941803 -0.28474116 0
-0.88940239 0.48587543 -0.55577803 0
-0.80632019 0.46181488 -0.54550076 0
-0.73173332 0.41636556 -0.52963352 0
-0.56977081 0.35104853 -0.51390004 0
-0.4193573 0.29180908 -0.46957111 0
-0.55118942 0.45449799 -0.51446867 0
-0.41214561 0.45764685 -0.46861267 0
-0.3875103 0.39315283 -0.4747448 0
-0.64228058 -0.4869597 -0.42151451 0
-0.57397842 -0.37345976 -0.42562389 0
-0.51228142 -0.4061659 -0.39854765 0
-0.44904518 -0.47502255 -0.37130165 0
-0.51911545 -0.30431879 -0.42325974 0
-0.46644402 -0.34905159 -0.39654851 0
-0.22269249 -0.44726294 -0.36909127 0
-0.40788841 -0.23942065 -0.40158772 0
-0.71653175 -0.01368767 -0.44129348 0
-0.67129326 0.0085334778 -0.42845058 0
-0.32994461 -0.14924079 -0.39388394 0
-0.60867119 0.06482619 -0.40941572 0
-0.26405144 -0.10518235 -0.37830257 0
-0.57694244 0.09644556 -0.41586852 0
-0.51432419 0.14804685 -0.3846364 0
-0.14042473 -0.027063668 -0.34919024 0
-0.46450615 0.2201938 -0.38157392 0
-0.11423111 0.078376234 -0.30373931 0
-0.012004852 0.040709972 -0.30360174 0
-0.42417908 0.30018544 -0.37753892 0
-0.053539276 0.18725008 -0.30556154 0
-0.38727951 0.37138999 -0.37200212 0
-0.32382965 0.46356899 -0.38088942 0
-0.29537582 0.49769706 -0.36504483 0
0.020112991 -0.2151981 -0.23806357 0
-0.024835587 -0.038808107 -0.25637603 0
-0.015703201 -0.12500852 -0.23898959 0
-0.026903152 0.043853104 -0.25166941 0
-0.39975929 0.32079756 -0.3117919 0
-0.022233963 0.17221653 -0.24463248 0
-0.0091171265 0.11738819 -0.27343369 0
-0.38191414 0.38970655 -0.28487635 0
-0.096235275 0.28067935 -0.23304486 0
-0.057979584 0.21872562 -0.24539137 0
-0.33687592 0.48425353 -0.27103138 0
-0.33529282 0.42938185 -0.23421216 0
-0.042629242 0.26648456 -0.16402292 0
-0.3156395 0.47019029 -0.17776704 0
-0.2025528 0.40727895 -0.12643909 0
-0.08436203 0.34926385 -0.1758945 0
-0.054353714 0.34154564 -0.1151123 0
-0.068059921 0.29070419 -0.067863941 0
-0.25452614 0.48089117 -0.077311993 0
-0.19683266 0.46801579 -0.028552771 0
-0.088056564 0.3900606 -0.059163332 0
-0.041290283 0.41540605 -0.012617826 0
-0.19140625 0.45621008 -0.00067090988 0
-0.21575546 0.49892414 0.083359718 0
-0.084199905 0.47169483 0.068929434 0
-0.042139053 0.42966449 0.013852596 0
-0.07286644 0.47430915 0.1279242 0
-0.040130615 0.47236657 0.16314101 0
-0.95043373 -0.44098079 -0.52118826 0
-0.85734749 -0.47142571 -0.49704838 0
-0.93076324 -0.34248018 -0.520895 0
-0.81740379 -0.41223043 -0.49756742 0
-0.77159882 -0.42429566 -0.47977972 0
-0.68997955 -0.45797068 -0.44648743 0
-0.89680099 -0.24004447 -0.5218842 0
-0.7213459 -0.32672399 -0.48617482 0
-0.64791679 -0.39273214 -0.44749737 0
-0.55678749 -0.39653456 -0.41807532 0
-0.49228668 -0.44273984 -0.38672256 0
-0.9853363 -0.1226297 -0.54449463 0
-0.88102341 -0.19622666 -0.5223999 0
-0.71564293 -0.25330144 -0.50093651 0
-0.59934998 -0.27080339 -0.46022725 0
-0.50904274 -0.31949866 -0.41958618 0
-0.419384 -0.3297531 -0.38925028 0
-0.95760345 -0.011481345 -0.5459733 0
-0.8283577 -0.088880301 -0.52529311 0
-0.76300621 -0.04891324 -0.45021844 0
-0.66364098 -0.1691013 -0.50346899 0
-0.55805206 -0.17094558 -0.46955895 0
-0.44628525 -0.21954387 -0.42243648 0
-0.36735153 -0.23534298 -0.39174223 0
-0.9791832 0.097175419 -0.55330038 0
-0.77431488 0.050426066 -0.52942348 0
-0.6760788 0.020979285 -0.45362282 0
-0.6240406 -0.077324152 -0.50611639 0
-0.54219627 -0.10009956 -0.48004699 0
-0.31388092 -0.13718247 -0.39475441 0
0.22328377 -0.44014615 -0.35238576 0
0.26851845 -0.41055936 -0.35307384 0
-0.91021538 0.16195649 -0.54971313 0
-0.76356506 0.1084348 -0.53069139 0
-0.58480453 0.049074054 -0.46484733 0
-0.48352814 -0.0047370195 -0.48372865 0
-0.42836571 -0.02245605 -0.45893359 0
0.35361862 -0.32838774 -0.35567951 0
0.54791832 -0.44451284 -0.31596494 0
0.5573597 -0.45460218 -0.31519794 0
0.82878876 -0.4787094 -0.26906204 0
-0.91490936 0.26457065 -0.5521059 0
-0.76900482 0.27617812 -0.53413582 0
-0.77334213 0.20862722 -0.53252053 0
-0.53282356 0.13387364 -0.47608781 0
-0.43083382 0.09352845 -0.48800731 0
0.66964149 -0.34196341 -0.31856656 0
0.86277008 -0.46347243 -0.26880097 0
-0.96228981 0.3969391 -0.56385398 0
-0.88998222 0.39699525 -0.5564146 0
-0.76109123 0.34350508 -0.53602171 0
-0.56682587 0.25284445 -0.51578903 0
-0.48335075 0.21277303 -0.4348011 0
-0.42996597 0.1904546 -0.47846365 0
0.93162346 -0.4006654 -0.27026916 0
-0.8328743 0.4503997 -0.53665733 0
-0.75100136 0.40280694 -0.5381701 0
-0.62621117 0.40334803 -0.51974487 0
-0.58583641 0.35664797 -0.5185442 0
-0.4435463 0.28776532 -0.43843818 0
-0.39698982 0.30143672 -0.47815418 0
-0.63872337 0.45250344 -0.52132583 0
-0.43795586 0.39787912 -0.49932599 0
-0.36061859 0.3894527 -0.45961571 0
-0.38690758 0.49399275 -0.46818638 0
-0.69115257 -0.019146264 -0.42392826 0
-0.64849472 0.034494638 -0.42597532 0
-0.59740257 0.059337974 -0.38970208 0
-0.22493172 -0.10854125 -0.36446524 0
-0.53339958 0.12836856 -0.39251113 0
-0.4781971 0.15150213 -0.34866071 0
-0.034040451 -0.011736929 -0.27077341 0
-0.014331818 -0.080177009 -0.26701975 0
-0.44931221 0.22603363 -0.37855148 0
-0.05317688 0.077692091 -0.29206634 0
-0.0071372986 0.0048602819 -0.30462027 0
-0.41861343 0.30224365 -0.3698566 0
-0.090755463 0.16226953 -0.29719472 0
-0.022510529 0.13614613 -0.27783799 0
-0.36116409 0.40554047 -0.36308718 0
-0.30715561 0.48317182 -0.37886214 0
0.0080394745 -0.16240203 -0.2285254 0
-0.015153885 -0.04858017 -0.23497272 0
-0.026563644 0.047920585 -0.2402339 0
-0.38509369 0.32239455 -0.28179598 0
-0.017473221 0.13451356 -0.22983313 0
-0.36704445 0.40397263 -0.2792964 0
-0.064783096 0.27949852 -0.20873332 0
-0.028688431 0.21770799 -0.21892071 0
-0.33782578 0.48632753 -0.27127814 0
-0.32673454 0.41481894 -0.19878221 0
-0.29323959 0.42036229 -0.15160441 0
-0.073465347 0.3209843 -0.13128042 0
-0.047506332 0.25613528 -0.15725541 0
-0.32517433 0.49266428 -0.18327498 0
-0.2518158 0.46055877 -0.12475085 0
-0.20389557 0.4900192 -0.029749155 0
-0.1603241 0.4312858 -0.084132433 0
-0.059024811 0.37321568 -0.038570166 0
-0.22871399 0.48692626 -0.0036382675 0
-0.17420578 0.48487484 0.065924406 0
-0.045780182 0.42416042 0.036716461 0
-0.079751968 0.48657924 0.15649819 0
-0.96942139 -0.45246178 -0.5382123 0
-0.96252823 -0.36308688 -0.54127812 0
-0.84785461 -0.47909677 -0.50321484 0
-0.97189331 -0.32337409 -0.54270864 0
-0.85036469 -0.38601381 -0.51721883 0
-0.73536491 -0.42076337 -0.48097777 0
-0.61541176 -0.47037488 -0.43153596 0
-0.93729782 -0.1894232 -0.54763699 0
-0.81980705 -0.26519465 -0.52294755 0
-0.82670593 -0.31016684 -0.52066946 0
-0.66747093 -0.34503174 -0.47704077 0
-0.55545807 -0.35448372 -0.43884134 0
-0.96382713 -0.14412642 -0.54958415 0
-0.79669571 -0.16944867 -0.52760649 0
-0.63694572 -0.23296523 -0.49269199 0
-0.54859924 -0.2577728 -0.45932341 0
-0.93956184 -0.0019766688 -0.55531263 0
-0.93939972 -0.058332443 -0.5529139 0
-0.77175522 -0.066052139 -0.53274798 0
-0.61745644 -0.13884336 -0.50757694 0
-0.52251625 -0.19789809 -0.46394706 0
-0.93195534 0.087465227 -0.55913782 0
-0.75748253 0.018207312 -0.53722215 0
