# .PCD v0.7 - Point Cloud Data file format
VERSION 0.7
FIELDS x y z intensity
SIZE 4 4 4 4
TYPE F F F F
COUNT 1 1 1 1
WIDTH 1290
HEIGHT 1
VIEWPOINT 0 0 0 1 0 0 0
POINTS 1290
DATA ascii
-0.20223045 -0.091433406 -0.34404129 0
-0.095932007 -0.15723604 -0.3777945 0
-0.018112183 -0.20709068 -0.36707163 0
0.072435379 -0.21892893 -0.36105669 0
0.17538643 -0.24822038 -0.34941542 0
0.2442379 -0.23016155 -0.34572732 0
0.65895462 -0.41720563 -0.46378207 0
0.80475616 -0.47329199 -0.48388934 0
-0.33387375 0.041943848 -0.34431124 0
-0.26543045 0.019798577 -0.35644609 0
-0.16467667 -0.022197962 -0.3307907 0
-0.089765549 -0.036643386 -0.34819233 0
-0.014146805 -0.064043581 -0.38890147 0
0.11707878 -0.13786668 -0.3715421 0
0.20722771 -0.17162788 -0.35823524 0
0.27599525 -0.16926217 -0.35102117 0
0.72536087 -0.36526155 -0.47981334 0
0.88970184 -0.40821028 -0.50419384 0
-0.30667686 0.15569919 -0.34414202 0
-0.23457146 0.11410743 -0.35952932 0
-0.15229416 0.14014876 -0.37268597 0
-0.038349152 0.053670108 -0.31033629 0
0.058511734 0.010303736 -0.39725381 0
0.26586723 -0.098192334 -0.36304647 0
0.316082 -0.095169246 -0.35860354 0
0.79566956 -0.27052659 -0.49541193 0
0.98387909 -0.3198269 -0.5267626 0
-0.27686501 0.26567328 -0.34438676 0
-0.19108772 0.20877087 -0.36102009 0
-0.10113144 0.15966874 -0.37895364 0
0.02611351 0.12680876 -0.33066374 0
0.11855698 0.088654935 -0.40502816 0
0.34563255 -0.042049348 -0.36460465 0
0.83519173 -0.21070194 -0.50373262 0
-0.33747292 0.35643768 -0.31892556 0
-0.24631691 0.3279928 -0.34654593 0
-0.14167976 0.30227536 -0.36569172 0
-0.075057983 0.25911248 -0.37830049 0
0.051773071 0.22064632 -0.35018533 0
0.10599518 0.21609378 -0.36161196 0
0.87643051 -0.14475256 -0.51256442 0
-0.28297043 0.46760279 -0.33262479 0
-0.19504356 0.42274767 -0.35151106 0
-0.11695862 0.39878857 -0.36582363 0
-0.012979507 0.37166202 -0.38524681 0
0.08993721 0.30164605 -0.38776523 0
0.12872696 0.29907393 -0.37055188 0
-0.085084915 0.48687577 -0.36680418 0
-0.010465622 0.45361495 -0.38093603 0
0.11644363 0.4290911 -0.37692338 0
0.18863487 0.38194144 -0.35682064 0
0.25068092 0.45965528 -0.34087706 0
-0.13100052 -0.05891031 -0.26744938 0
-0.0906353 -0.0019128323 -0.27681577 0
0.60033607 -0.26836663 -0.30812752 0
-0.02233696 0.050447941 -0.26976764 0
0.56390953 -0.15033185 -0.29224157 0
0.58368301 -0.21897835 -0.30097532 0
0.025684357 0.1018309 -0.28336823 0
0.075376511 0.12861323 -0.2633934 0
0.50753784 -0.032669365 -0.31910932 0
0.54818344 -0.07046479 -0.30924606 0
0.084453583 0.1876384 -0.28527176 0
0.11327744 0.20622808 -0.26979876 0
0.45536613 0.079078794 -0.33300292 0
0.52105141 0.044219732 -0.31463671 0
0.55342674 -0.0057002306 -0.35434586 0
0.91180992 -0.054852307 -0.35263646 0
0.15704918 0.29863924 -0.26153111 0
0.47396278 0.16475159 -0.30073237 0
0.52308846 0.13277352 -0.28737295 0
0.19472313 0.37782454 -0.27381825 0
0.50268555 0.21706581 -0.3085835 0
0.24887276 0.45591813 -0.26483035 0
0.58539009 -0.179766 -0.27455401 0
0.57605743 -0.069753528 -0.26751864 0
0.57203674 0.040845752 -0.26149511 0
0.18907356 0.29805714 -0.19918084 0
0.48958206 0.21790355 -0.21265042 0
0.54338646 0.15463603 -0.22453725 0
0.23154259 0.37989676 -0.17174649 0
0.45532417 0.3057608 -0.19167376 0
0.5184288 0.26292211 -0.21396339 0
0.55774879 0.21152461 -0.22253263 0
0.25290108 0.4753381 -0.16785789 0
0.41042328 0.36764288 -0.14658654 0
0.27563858 0.40131515 -0.11447108 0
0.43888474 0.33186275 -0.12146521 0
0.54763603 0.27776444 -0.13033569 0
0.58054352 0.24277014 -0.14346504 0
0.28947067 0.47927004 -0.081110835 0
0.35529709 0.41595519 -0.081727862 0
0.44233894 0.39063841 -0.068124652 0
0.54812241 0.34227514 -0.089154601 0
0.60791588 0.29717153 -0.078623652 0
0.3407917 0.48746395 0.014481425 0
0.38515282 0.4459185 0.0027941465 0
0.45749855 0.41112357 -0.0071166754 0
0.57126045 0.35880238 -0.015878916 0
0.65164375 0.31507301 0.0066354275 0
0.43741989 0.46296734 0.095986843 0
0.48260498 0.4365418 0.051167369 0
0.57390976 0.39157176 0.075003147 0
0.69036484 0.35570312 0.056654692 0
0.57489014 0.43616343 0.092762709 0
0.58942032 0.3961283 0.17188203 0
0.54416847 0.47570348 0.20183647 0
0.64181328 0.43339807 0.17883861 0
0.63177681 0.47655272 0.27543247 0
-0.12974167 -0.11967772 -0.38798988 0
0.62088585 -0.43148077 -0.46852446 0
-0.18777275 0.021695852 -0.38170868 0
-0.095840454 -0.051799715 -0.39457893 0
0.73712349 -0.34624881 -0.49512053 0
0.91119766 -0.40263414 -0.51929718 0
-0.15774727 0.092830539 -0.38609105 0
-0.06820488 0.05197984 -0.40050387 0
0.020759583 0.004663527 -0.4050808 0
0.80951118 -0.26952428 -0.51033622 0
0.97366524 -0.37346792 -0.53367496 0
-0.14183617 0.16167426 -0.3859185 0
-0.033321381 0.15186584 -0.40483457 0
0.07768631 0.078763068 -0.41305554 0
-0.045558929 0.26798159 -0.39343584 0
0.031909943 0.21341288 -0.40969807 0
0.075948715 0.15733612 -0.42166167 0
0.9151001 -0.12808061 -0.53272128 0
-0.019628525 0.36171728 -0.39646691 0
0.056344986 0.31445664 -0.41014695 0
0.074556351 0.42362404 -0.40631771 0
0.14742851 0.37316972 -0.41237426 0
-0.4373951 -0.44364071 -0.34540612 0
-0.41275597 -0.37084436 -0.34473646 0
-0.32867241 -0.39759785 -0.35324794 0
-0.21632004 -0.41623843 -0.35151172 0
-0.11181068 -0.44725901 -0.34246695 0
0.026062012 -0.48930424 -0.32967323 0
-0.3717804 -0.25910008 -0.34958428 0
-0.27641487 -0.29008305 -0.36457616 0
-0.21244431 -0.33857131 -0.36305887 0
-0.092544556 -0.34760875 -0.35657281 0
0.0041351318 -0.39920366 -0.34468436 0
0.076887131 -0.42527896 -0.3371678 0
-0.3026638 -0.1673916 -0.36126906 0
-0.21636009 -0.20931959 -0.37526995 0
-0.1525116 -0.25535905 -0.37390262 0
-0.063066483 -0.26731604 -0.36805147 0
0.023944855 -0.32337165 -0.35503173 0
0.11526299 -0.34412462 -0.34737855 0
-0.24386024 -0.083893359 -0.33478761 0
-0.10134697 -0.15434396 -0.38735485 0
-0.031763077 -0.1855334 -0.37964642 0
0.060207367 -0.22604054 -0.36879057 0
0.16398811 -0.25179958 -0.35691124 0
-0.17202759 -0.030502856 -0.32764208 0
0.11193275 -0.16151607 -0.37529004 0
0.22173119 -0.15557379 -0.36621428 0
-0.10770416 0.019308031 -0.30216265 0
-0.058589935 0.046947956 -0.32049656 0
0.04227066 -0.021795332 -0.40145916 0
0.27227211 -0.11239827 -0.36685014 0
-0.16923332 0.14991963 -0.37751162 0
-0.13577843 0.22485751 -0.38335681 0
-0.0013637543 0.11759293 -0.33046556 0
0.4644413 -0.022480845 -0.36539781 0
0.52595139 -0.06297493 -0.35875392 0
-0.13568687 0.28535837 -0.37960273 0
0.056203842 0.2062344 -0.33746123 0
0.084762573 0.21643943 -0.36631 0
0.43655968 0.073917329 -0.35168165 0
0.44855499 0.038099945 -0.35728192 0
-0.12943268 0.39301276 -0.3757295 0
-0.027936935 0.40097231 -0.39210206 0
0.084289551 0.28073585 -0.34926045 0
0.11800766 0.30914897 -0.3548587 0
0.45030594 0.1389569 -0.35252762 0
-0.15471077 0.49356753 -0.36450356 0
-0.1225605 0.49620426 -0.37313616 0
-0.0032215118 0.45886391 -0.39192933 0
0.11550522 0.4325853 -0.37627101 0
0.1733017 0.38535058 -0.35746616 0
0.14045906 0.49975145 -0.38041025 0
0.23448181 0.46762943 -0.33948535 0
-0.12212563 -0.025681913 -0.27987885 0
-0.043869019 0.050332785 -0.27815151 0
0.53517914 -0.17462194 -0.29537213 0
0.024673462 0.10899168 -0.28234541 0
0.055112839 0.13219011 -0.27211881 0
0.51171494 -0.037330568 -0.31627738 0
0.52434349 -0.089734912 -0.32249463 0
0.097646713 0.21325564 -0.27567351 0
0.4331646 0.044794202 -0.32688642 0
0.52294922 0.05731082 -0.29714811 0
0.54968262 0.0014551878 -0.2848736 0
0.14410973 0.3076759 -0.26028979 0
0.4552021 0.1765638 -0.30828166 0
0.5115757 0.14337271 -0.28436196 0
0.57642555 0.087105751 -0.28810775 0
0.18008614 0.38571608 -0.25832164 0
0.47481346 0.24145448 -0.25576091 0
0.52354813 0.21381015 -0.24397087 0
0.2382412 0.47844982 -0.27144659 0
0.17617226 0.28561908 -0.20073378 0
0.53440285 0.18099946 -0.19848275 0
0.2078476 0.37540025 -0.18425763 0
0.28592491 0.37792468 -0.1370461 0
0.43686485 0.30225116 -0.20885491 0
0.50242805 0.26804638 -0.19250941 0
0.53965378 0.23384398 -0.18600678 0
0.23717499 0.46766907 -0.16458845 0
0.40724754 0.37139148 -0.14097655 0
0.2595768 0.39918435 -0.10758352 0
0.53403664 0.28881395 -0.12133002 0
0.55881691 0.23774689 -0.10206401 0
0.27421379 0.47273105 -0.092375636 0
0.34119606 0.43945354 -0.067389727 0
0.4441433 0.37098986 -0.09448576 0
0.52967644 0.33056289 -0.070383549 0
0.37532425 0.45965952 0.016948581 0
0.45565605 0.41426373 -0.022776604 0
0.55485535 0.37274516 0.006547451 0
0.66104698 0.31038183 0.0066007376 0
0.46572685 0.46184176 0.045659065 0
0.57958984 0.39432269 0.077023983 0
0.48715782 0.47687972 0.11171806 0
0.55088234 0.4353168 0.13000166 0
0.51058388 0.48387688 0.20359015 0
0.59383202 0.42730874 0.18474329 0
0.58448982 0.48881382 0.29165196 0
0.57517433 0.49976891 0.40272021 0
-0.87143135 -0.39570576 -0.32870132 0
-0.80132294 -0.43266422 -0.3294127 0
-0.67978287 -0.45318133 -0.33442253 0
-0.82927895 -0.31185883 -0.32651275 0
-0.74525261 -0.32607543 -0.33127177 0
-0.65295601 -0.36344171 -0.333682 0
-0.54711533 -0.40850323 -0.33802563 0
-0.47779846 -0.44100887 -0.34224927 0
-0.779953 -0.21326387 -0.32824945 0
-0.70427322 -0.23726225 -0.32904595 0
-0.61234283 -0.26408333 -0.33424902 0
-0.52438354 -0.30801481 -0.33897489 0
-0.47344971 -0.337668 -0.33896929 0
-0.75082397 -0.14437187 -0.32787973 0
-0.67176628 -0.14036548 -0.33012408 0
-0.56256485 -0.18156254 -0.33590704 0
-0.4901886 -0.21294266 -0.33754849 0
-0.7115097 -0.042232692 -0.32771248 0
-0.64233208 -0.060370862 -0.32993823 0
-0.53363609 -0.088806868 -0.33447856 0
-0.45543098 -0.11121553 -0.33720237 0
-0.2044754 -0.19452083 -0.37380987 0
-0.66688919 0.079523444 -0.32913595 0
-0.60363007 0.043753028 -0.32970923 0
-0.51255798 0.019668639 -0.33175355 0
-0.41197395 -0.0069554448 -0.34154183 0
-0.34185028 -0.060001433 -0.35205597 0
-0.25650978 -0.099395573 -0.36528563 0
-0.17126083 -0.1354267 -0.3787362 0
-0.64294624 0.15769321 -0.32451546 0
-0.56440544 0.14107478 -0.32771891 0
-0.47738457 0.10297561 -0.3318736 0
-0.38756752 0.064262271 -0.34311104 0
-0.2985096 0.020897985 -0.35968459 0
-0.21476936 -0.019748092 -0.37239254 0
-0.11071777 -0.027875721 -0.39005762 0
-0.022480011 -0.04881978 -0.39774001 0
-0.61531448 0.25126654 -0.32149333 0
-0.52610207 0.22934687 -0.32726538 0
-0.45122337 0.21336216 -0.33426714 0
-0.26025963 0.1364429 -0.36315507 0
-0.16234207 0.094534218 -0.38123733 0
-0.070243835 0.05309391 -0.39747226 0
0.033407211 0.044859052 -0.40953743 0
-0.59462929 0.3613413 -0.32268167 0
-0.50093842 0.32489359 -0.32672715 0
-0.41105652 0.26738089 -0.33665293 0
-0.25953484 0.19086128 -0.35913181 0
-0.14752579 0.1908524 -0.37902528 0
-0.039276123 0.16092801 -0.40008593 0
0.074748993 0.13460505 -0.41736799 0
-0.61781311 0.44592065 -0.31468481 0
-0.54344559 0.44581878 -0.32201546 0
-0.48214722 0.38878465 -0.3265034 0
-0.13036537 0.32636493 -0.37596947 0
-0.065919876 0.29241633 -0.38837075 0
-0.052330017 0.21250623 -0.39241141 0
0.079929352 0.21375829 -0.41409111 0
-0.40915871 0.48992532 -0.33430046 0
-0.37010765 0.45799071 -0.3395974 0
-0.037162781 0.36164898 -0.38875347 0
0.082462311 0.34511852 -0.40746075 0
0.083057404 0.28380817 -0.41094112 0
0.077610016 0.41143513 -0.40269792 0
-0.43116951 -0.41360193 -0.34319723 0
-0.34686089 -0.47704983 -0.3428843 0
-0.47248077 -0.31425792 -0.33464789 0
-0.41506767 -0.36116612 -0.3405897 0
-0.33440018 -0.38098711 -0.35188931 0
-0.24791145 -0.41537797 -0.35160267 0
-0.12313271 -0.44447023 -0.34173197 0
-0.45210648 -0.266985 -0.33606184 0
-0.38773537 -0.25520945 -0.34362173 0
-0.25894165 -0.27669668 -0.3643921 0
-0.18010902 -0.3210144 -0.36341208 0
-0.1240406 -0.34976679 -0.35608262 0
-0.020917892 -0.38974375 -0.34547901 0
0.054870605 -0.44211942 -0.33372611 0
0.2708168 -0.48936903 -0.37436903 0
-0.39529228 -0.14830464 -0.34245801 0
-0.31495857 -0.19638461 -0.35509974 0
-0.14512062 -0.23961014 -0.3739506 0
-0.072662354 -0.27610999 -0.36522335 0
0.01313591 -0.32445157 -0.35373151 0
0.10357475 -0.33720148 -0.34795386 0
0.48569298 -0.49251705 -0.43384302 0
-0.41961861 -0.008493185 -0.33842188 0
-0.21750259 -0.052365065 -0.30813551 0
-0.09560585 -0.16516912 -0.38335735 0
-0.039628983 -0.17840922 -0.37892544 0
0.051563263 -0.20869225 -0.36986911 0
0.15845299 -0.24198115 -0.35847324 0
0.60783005 -0.42351991 -0.46360391 0
0.72938538 -0.49437314 -0.47686082 0
0.77587318 -0.48425096 -0.48746008 0
-0.45925522 0.13690734 -0.3298344 0
-0.37603188 0.11446613 -0.34261721 0
-0.1564045 -0.02531302 -0.30448884 0
-0.13011742 -0.019152462 -0.29130256 0
0.19869423 -0.16595185 -0.36404061 0
0.67505836 -0.37879986 -0.47930056 0
0.71505356 -0.33509654 -0.48800051 0
0.86107635 -0.42186552 -0.50704277 0
-0.36195564 0.17845029 -0.34246016 0
-0.049367905 0.053530157 -0.32724106 0
0.066223145 -0.0087745786 -0.39971393 0
0.33265114 -0.099245667 -0.36251771 0
0.94619751 -0.35536569 -0.52681363 0
-0.48547173 0.26891387 -0.32571739 0
-0.4038353 0.32120889 -0.33583629 0
-0.32967186 0.27941829 -0.34641713 0
-0.22174454 0.19991684 -0.36244792 0
0.01789856 0.1336295 -0.3270973 0
0.054801941 0.15872896 -0.3139782 0
0.11395454 0.080256045 -0.40929687 0
0.4470787 -0.016388893 -0.36639851 0
-0.45782089 0.39858222 -0.32743776 0
-0.36446762 0.38132012 -0.33720374 0
-0.27592087 0.31209719 -0.35129482 0
-0.23773575 0.28201663 -0.36003202 0
0.05172348 0.20628983 -0.33482569 0
0.079025269 0.21805888 -0.3550517 0
-0.31022072 0.46514118 -0.34241098 0
-0.23105431 0.43572968 -0.35347015 0
-0.12886429 0.40371054 -0.37225401 0
0.11643982 0.29156017 -0.36765724 0
-0.029563904 0.4556917 -0.38646525 0
0.1091156 0.43281823 -0.37914902 0
0.17659378 0.38506347 -0.3624385 0
0.22890663 0.47942978 -0.3441627 0
-0.10236931 -0.014030933 -0.27610028 0
-0.043464661 0.049523175 -0.2784611 0
0.021608353 0.064407051 -0.26207626 0
0.57979393 -0.21250993 -0.30073249 0
0.015077591 0.11342818 -0.2808826 0
0.061262131 0.13219571 -0.27054393 0
0.45062447 -0.019037068 -0.3386271 0
0.54901505 -0.088653386 -0.30820215 0
0.10001945 0.20271951 -0.27812672 0
0.48269463 0.034258366 -0.33078134 0
0.54712677 0.024739206 -0.30290818 0
0.15475655 0.30859882 -0.26801407 0
0.46859932 0.20711923 -0.2793678 0
0.52210236 0.13932967 -0.30463815 0
0.1837883 0.3757177 -0.26166248 0
0.24167061 0.47143799 -0.27215111 0
0.55953407 0.056886315 -0.25466323 0
0.19839859 0.31392443 -0.2063421 0
0.47961235 0.19513392 -0.25827563 0
0.53817749 0.16620463 -0.22574067 0
0.22180557 0.38761598 -0.18450379 0
0.29894257 0.3973642 -0.13314784 0
0.47071075 0.27319854 -0.21326661 0
0.53667068 0.23615813 -0.20761216 0
0.24476814 0.48464304 -0.17358339 0
0.35600662 0.35376388 -0.12343335 0
0.40552711 0.32627016 -0.10807562 0
0.52281761 0.27216226 -0.12473893 0
0.55366898 0.23012322 -0.14108467 0
0.28379059 0.46395475 -0.097209215 0
0.31847 0.42003179 -0.077304602 0
0.41839981 0.4278115 -0.059816718 0
0.53745842 0.32799029 -0.12764704 0
0.59228706 0.3092894 -0.094244599 0
0.36785889 0.46232367 -0.0020161867 0
0.43104362 0.41401118 -0.026319027 0
0.55314636 0.35590929 -0.018605709 0
0.67739487 0.29652292 0.00047564507 0
0.66344452 0.26443708 -0.081459999 0
0.44694901 0.47238141 0.033723712 0
0.4230442 0.45401394 0.061476111 0
0.55706787 0.383928 0.068642735 0
0.61676407 0.34608793 0.032657623 0
0.47618294 0.46528882 0.090986967 0
0.56951332 0.47576141 0.11669374 0
0.60130882 0.46656257 0.17690194 0
0.55110359 0.49777722 0.27090383 0
0.61876297 0.47411871 0.27931023 0
0.59569168 0.47984713 0.34613109 0
-0.96584892 -0.49435711 -0.3204633 0
-0.93000793 -0.40509188 -0.32152331 0
-0.84698105 -0.42296773 -0.32432002 0
-0.7423954 -0.47332031 -0.32753617 0
-0.98395729 -0.26598167 -0.31861961 0
-0.88845062 -0.29462737 -0.32085246 0
-0.81602859 -0.32408476 -0.32591289 0
-0.70895576 -0.38871247 -0.32791138 0
-0.61756706 -0.43316066 -0.33356375 0
-0.51044273 -0.44490916 -0.33740455 0
-0.96722794 -0.16004622 -0.31618845 0
-0.8685894 -0.19282615 -0.32104421 0
-0.78420258 -0.25914258 -0.3233031 0
-0.66731262 -0.27766103 -0.33040643 0
-0.56879044 -0.31356668 -0.3319754 0
-0.48011208 -0.36295593 -0.33518678 0
-0.35381699 -0.4002378 -0.34481859 0
-0.90884972 -0.039359331 -0.31921011 0
-0.82833862 -0.10517609 -0.32245773 0
-0.72595596 -0.14576995 -0.32720339 0
-0.61477089 -0.1962831 -0.3288545 0
-0.53273392 -0.21462959 -0.33032817 0
-0.44807816 -0.26339203 -0.33570176 0
-0.28356171 -0.30871642 -0.35615158 0
-0.96911812 0.063587964 -0.31045502 0
-0.87348557 0.038357913 -0.31541818 0
-0.79352188 -0.010811448 -0.32107705 0
-0.69476509 -0.057956874 -0.32471526 0
-0.59018707 -0.086748004 -0.32894272 0
-0.48934555 -0.11598921 -0.33393067 0
-0.43675041 -0.13766384 -0.33333015 0
-0.35473824 -0.20179337 -0.34503603 0
-0.22042847 -0.22774655 -0.36671084 0
-0.92572975 0.15635377 -0.30953985 0
-0.80255318 0.11988568 -0.3163386 0
-0.71536064 0.079453588 -0.32098043 0
-0.66425323 0.032921374 -0.32620913 0
-0.55456352 0.012590349 -0.32950562 0
-0.46890259 -0.047809899 -0.33250338 0
-0.38737297 -0.055862665 -0.34260577 0
-0.28011703 -0.097163022 -0.35799336 0
-0.17021751 -0.15857553 -0.37531292 0
-0.062376022 -0.14380598 -0.38325518 0
-0.95819473 0.28583658 -0.3019498 0
-0.88079643 0.24853957 -0.30942798 0
-0.78085136 0.20319611 -0.31613392 0
-0.68932533 0.1623463 -0.31856656 0
-0.62263107 0.13749111 -0.32328832 0
-0.50789642 0.090432763 -0.32861584 0
-0.43846512 0.049445331 -0.33213097 0
-0.33969879 0.026682019 -0.34901941 0
-0.24019814 -0.036739826 -0.36462653 0
-0.11166763 -0.07137984 -0.38595247 0
-0.01832962 -0.080040276 -0.39134967 0
-0.93984985 0.38133466 -0.30068839 0
-0.84856987 0.3440693 -0.30626172 0
-0.76250076 0.29305148 -0.31273711 0
-0.66559219 0.26208866 -0.31785583 0
-0.5493145 0.2262314 -0.32306981 0
-0.49228477 0.18159533 -0.32741803 0
-0.40888977 0.12101334 -0.33520275 0
-0.31446648 0.10472196 -0.34945112 0
-0.19106102 0.047948778 -0.37296528 0
-0.02289772 -0.0099896193 -0.39537638 0
-0.90566444 0.47685158 -0.30000472 0
-0.81109238 0.42266309 -0.30498123 0
-0.71621513 0.40014148 -0.31061369 0
-0.63910103 0.35799408 -0.31684333 0
-0.54986572 0.33020133 -0.32141405 0
-0.4499588 0.27405703 -0.32661432 0
-0.36970901 0.24112839 -0.33743906 0
-0.28147316 0.20152324 -0.3520146 0
-0.15441704 0.15437782 -0.37557977 0
-0.018505096 0.095650554 -0.40077108 0
0.076063156 0.067040801 -0.40789825 0
-0.67556381 0.48183423 -0.31004268 0
-0.57416916 0.43404138 -0.3169167 0
-0.48013306 0.41693503 -0.32396829 0
-0.41303635 0.38165915 -0.33071554 0
-0.33815193 0.3484515 -0.3394978 0
-0.25322342 0.30536866 -0.35283911 0
-0.14009857 0.24770319 -0.37240154 0
-0.012842178 0.17973328 -0.39526469 0
0.0013160706 0.17172736 -0.40096825 0
0.11707497 0.15778488 -0.41374695 0
-0.47134781 0.49853712 -0.32136422 0
-0.39634132 0.46190107 -0.33081967 0
-0.30315781 0.45032525 -0.33600312 0
-0.22896194 0.38764596 -0.35472232 0
-0.11577415 0.38017052 -0.37052804 0
0.022541046 0.30607116 -0.39759153 0
0.12066841 0.28068572 -0.40576142 0
-0.096139908 0.47481954 -0.37052923 0
0.029190063 0.41597593 -0.39208657 0
0.13874817 0.40000582 -0.40342474 0
0.14968872 0.48336953 -0.4016912 0
-0.3696022 -0.41663635 -0.34038281 0
-0.27366829 -0.42953306 -0.34912902 0
-0.19922829 -0.47173208 -0.33852994 0
-0.21743202 -0.35785306 -0.35710746 0
-0.14054871 -0.36782473 -0.35227638 0
-0.064622879 -0.40006536 -0.34385806 0
0.025766373 -0.47725838 -0.32806909 0
0.093215942 -0.4597553 -0.3272655 0
-0.13272476 -0.2722283 -0.36674827 0
-0.020570755 -0.34159344 -0.35090911 0
0.087770462 -0.36235619 -0.34300303 0
0.16062737 -0.36550814 -0.33912182 0
-0.098415375 -0.22561121 -0.37195718 0
0.0086631775 -0.2194792 -0.36841661 0
0.098453522 -0.26216435 -0.35730803 0
0.20005226 -0.27547097 -0.34781516 0
-0.2107048 -0.054974377 -0.30710256 0
-0.15657425 -0.040000439 -0.29622388 0
0.14176369 -0.16695982 -0.3686744 0
0.2246685 -0.18870258 -0.35744113 0
0.83742905 -0.48208374 -0.49447173 0
-0.087226868 0.016581476 -0.30804652 0
0.0711689 -0.04144001 -0.39148891 0
0.30624771 -0.13247877 -0.35925263 0
0.9324398 -0.4286989 -0.51519513 0
0.99108124 -0.41263491 -0.5278815 0
0.011859894 0.10677952 -0.32595676 0
0.11876488 0.039364517 -0.39982176 0
0.46395302 -0.040750742 -0.36561942 0
0.063112259 0.17561895 -0.32905191 0
0.10989761 0.26978678 -0.34378743 0
0.15684891 0.35320818 -0.34642047 0
0.20731735 0.38766056 -0.3339991 0
0.15180397 0.46439809 -0.37103105 0
0.23264503 0.44254094 -0.3427462 0
-0.05880928 0.015855372 -0.2702738 0
-0.015039444 0.039014995 -0.2582916 0
0.033334732 0.087827682 -0.26706505 0
0.54347801 -0.061427772 -0.30030119 0
0.58018112 -0.13648736 -0.32265282 0
0.09614563 0.16383642 -0.26759815 0
0.45677567 0.040974081 -0.32771957 0
0.53233719 -0.0047838688 -0.31539869 0
0.13109016 0.2490111 -0.26565754 0
0.18094254 0.26538324 -0.23145115 0
0.50251579 0.11701447 -0.30081618 0
0.18066788 0.35282993 -0.25061941 0
0.47519684 0.21532857 -0.26762795 0
0.22742462 0.43439513 -0.24008143 0
0.24918175 0.45358258 -0.29619312 0
0.59621811 -0.21731311 -0.28999078 0
0.56241417 -0.082913697 -0.27484107 0
0.56580353 -0.15934974 -0.27909946 0
0.57379532 -0.0024713278 -0.27265584 0
0.52058411 0.12149006 -0.23771167 0
0.53750801 0.068734407 -0.25945663 0
0.19853973 0.35198665 -0.19367945 0
0.22170448 0.35970426 -0.1868937 0
0.48199463 0.28152865 -0.23723745 0
0.54225349 0.22422075 -0.21013951 0
0.23950577 0.4438296 -0.16410017 0
0.25857544 0.39695215 -0.14490557 0
0.46367836 0.32972974 -0.16114676 0
0.55112648 0.27730179 -0.1690706 0
0.25622368 0.36702019 -0.10231435 0
0.56611443 0.25568283 -0.14335978 0
0.26957512 0.45632917 -0.089011669 0
0.3259182 0.41886353 -0.076370835 0
0.41083145 0.35717034 -0.079559922 0
0.52402687 0.33372021 -0.10284257 0
0.55027008 0.27870756 -0.093919635 0
0.32556152 0.48201436 -0.054574966 0
0.55016708 0.35405445 -0.023531079 0
0.58853531 0.31468815 -0.061235189 0
0.42897797 0.44393307 -0.0028551817 0
0.55040359 0.41786391 0.034065604 0
0.60741615 0.35822481 0.02423656 0
0.59233856 0.34550035 0.053833842 0
0.46918297 0.46423304 0.11301208 0
0.57649994 0.42499453 0.097985983 0
0.51083946 0.47894382 0.18813598 0
0.60064507 0.43092531 0.1746453 0
0.58246613 0.43783236 0.25423002 0
-0.96595955 -0.489362 -0.31623179 0
-0.91461754 -0.37249333 -0.31865698 0
-0.87179565 -0.45050055 -0.3222754 0
-0.98744774 -0.2630102 -0.31159753 0
-0.90838623 -0.28430837 -0.31805545 0
-0.93075752 -0.16339278 -0.31833279 0
-0.86541367 -0.23106778 -0.3190276 0
-0.99931335 -0.034252167 -0.31077528 0
-0.90751266 -0.073914886 -0.31763393 0
-0.85023689 -0.12894797 -0.32049084 0
-0.94980049 0.068283796 -0.30888057 0
-0.88547325 0.03029412 -0.31499189 0
-0.81643677 -0.045211613 -0.31998271 0
-0.93237495 0.14336574 -0.30429751 0
-0.83828354 0.13164788 -0.31331533 0
-0.98237991 0.28722632 -0.29813206 0
-0.88249588 0.24546105 -0.30634451 0
-0.81146622 0.19063067 -0.3104378 0
-0.95899582 0.38938296 -0.29707408 0
-0.85228348 0.34069234 -0.30512935 0
-0.8919239 0.46182424 -0.297683 0
-0.82893181 0.42060477 -0.30448765 0
-0.8229332 -0.40609682 -0.32256579 0
-0.75429344 -0.46343541 -0.32615149 0
-0.80348206 -0.31553376 -0.32413793 0
-0.69929886 -0.37306738 -0.32607698 0
-0.60627174 -0.41420686 -0.33052456 0
-0.53256989 -0.42490804 -0.33237207 0
-0.43151665 -0.47645986 -0.33434182 0
-0.82206726 -0.20528847 -0.31907445 0
-0.76748466 -0.23766971 -0.3246699 0
-0.68300438 -0.2657783 -0.32689196 0
-0.56377602 -0.32102108 -0.33220726 0
-0.49492645 -0.33818519 -0.33331829 0
-0.41280556 -0.36004162 -0.33401281 0
-0.28837585 -0.41714197 -0.3456226 0
-0.21071053 -0.457425 -0.33590716 0
-0.80211067 -0.14880157 -0.31679296 0
-0.72747421 -0.14343101 -0.32486558 0
-0.63196182 -0.18060154 -0.3256017 0
-0.53018188 -0.22973543 -0.33066821 0
-0.46416664 -0.25684524 -0.33289415 0
-0.37318993 -0.29883355 -0.33820117 0
-0.23832321 -0.32615113 -0.35750455 0
-0.14087486 -0.37551761 -0.34547383 0
-0.77761269 -0.025848508 -0.31742978 0
-0.66148376 -0.05184412 -0.32246608 0
-0.58517456 -0.093024909 -0.32645959 0
-0.49480629 -0.12012917 -0.32821643 0
-0.41340637 -0.13291591 -0.3347652 0
-0.31500626 -0.22350848 -0.34889668 0
-0.19305992 -0.26568741 -0.36483562 0
-0.13201523 -0.29168367 -0.35762829 0
-0.066055298 -0.30192494 -0.35335875 0
0.49357986 -0.4961589 -0.42998099 0
-0.75103378 0.076139867 -0.31591254 0
-0.64561844 0.037730157 -0.32082927 0
-0.52403259 0.0077601671 -0.32775527 0
-0.46009064 -0.017592132 -0.32824463 0
-0.38074112 -0.082167566 -0.3386907 0
-0.24147224 -0.12466592 -0.36189896 0
-0.11328888 -0.19355923 -0.37219054 0
-0.019676208 -0.23986924 -0.3607322 0
0.067285538 -0.24436212 -0.35644221 0
0.58618546 -0.44358593 -0.45062572 0
-0.80483246 0.22124678 -0.30924666 0
-0.69833565 0.18674511 -0.31909978 0
-0.5994606 0.13938451 -0.31921202 0
-0.48908997 0.11621529 -0.32819438 0
-0.42744827 0.06143111 -0.33089894 0
-0.32366943 0.0015705228 -0.34965974 0
-0.21030998 -0.043720543 -0.31165457 0
-0.15301323 -0.021071196 -0.35308766 0
-0.067932129 -0.09203589 -0.38632202 0
0.038309097 -0.15925837 -0.37121153 0
0.10818481 -0.18291891 -0.36131275 0
0.66649437 -0.4116593 -0.46787673 0
0.75144958 -0.38049716 -0.48619103 0
0.86622429 -0.49782336 -0.4944436 0
-0.75218582 0.29204601 -0.31110191 0
-0.66566277 0.26812619 -0.31535697 0
-0.58450508 0.23930156 -0.32065207 0
-0.46419144 0.20638412 -0.32773387 0
-0.38642311 0.16611487 -0.33458418 0
-0.27556992 0.098949969 -0.35580385 0
-0.13999939 0.024763584 -0.37976223 0
-0.021202087 -0.025126338 -0.39380652 0
0.063714981 -0.01817745 -0.39158541 0
0.99982643 -0.41149372 -0.52313346 0
-0.80409241 0.46169704 -0.29822052 0
-0.72008896 0.39951748 -0.31020707 0
-0.61078262 0.37006372 -0.31381255 0
-0.52852058 0.29209918 -0.31999367 0
-0.45305252 0.27528799 -0.32481307 0
-0.35047722 0.26873982 -0.33755058 0
-0.25203323 0.19853729 -0.35442638 0
-0.088972092 0.11999708 -0.38800067 0
0.017938614 0.096457243 -0.36527777 0
0.099710464 0.043595433 -0.39705467 0
-0.75155067 0.4975425 -0.30176127 0
-0.66517448 0.49063128 -0.30683494 0
-0.59375 0.45351368 -0.31452715 0
-0.51067352 0.38535249 -0.31806237 0
-0.42603683 0.36840725 -0.32629716 0
-0.3340435 0.36343157 -0.3354426 0
-0.22881126 0.30960041 -0.35305506 0
-0.065134048 0.23633015 -0.38597393 0
0.065517426 0.17872918 -0.38242835 0
-0.37654305 0.46915895 -0.3300826 0
-0.29386902 0.44502366 -0.34313852 0
-0.21817207 0.39914626 -0.34990406 0
-0.058307648 0.33398211 -0.38061833 0
0.097854614 0.27306306 -0.38040763 0
-0.039480209 0.43738413 -0.37969559 0
0.10671425 0.43857223 -0.37128317 0
0.12828445 0.37472659 -0.38748556 0
0.10479164 0.49775892 -0.39486468 0
0.15002441 0.48847985 -0.36668831 0
-0.046735764 -0.39458299 -0.33840793 0
0.019538879 -0.42850643 -0.33025914 0
0.086982727 -0.49851298 -0.32453924 0
0.0075531006 -0.32538158 -0.34613073 0
0.06489563 -0.37134194 -0.33672756 0
0.30646515 -0.46955466 -0.37930381 0
0.12124252 -0.26125157 -0.35008544 0
-0.18490791 -0.03540647 -0.29478168 0
-0.13767052 -0.013736188 -0.29276001 0
0.19941711 -0.17123646 -0.35735661 0
-0.071699142 0.041668534 -0.28719938 0
0.26753235 -0.12781143 -0.35671473 0
-0.04240799 0.073817313 -0.2997129 0
0.026668549 0.12379289 -0.28267813 0
0.39525414 -0.050865173 -0.35590357 0
0.07629776 0.19592094 -0.28823912 0
0.43335724 0.051753759 -0.31246591 0
0.53175926 0.014776647 -0.34107649 0
0.11708641 0.27576125 -0.28993058 0
0.49258995 0.16090482 -0.32332134 0
0.15486717 0.34671807 -0.28982019 0
0.21477127 0.43965518 -0.30921328 0
0.24669456 0.47292304 -0.29923129 0
0.57719231 -0.24446142 -0.30174267 0
0.53079224 -0.067560017 -0.2970562 0
0.54325485 -0.15460539 -0.28789103 0
0.53083611 0.014643908 -0.28696668 0
0.1578846 0.29245996 -0.23161697 0
0.5384407 0.14236236 -0.27359891 0
0.54311562 0.089480877 -0.30808723 0
0.18277168 0.35970038 -0.20610595 0
0.47103882 0.24945736 -0.23669267 0
0.504179 0.18861067 -0.26225638 0
0.23079491 0.45349675 -0.19867587 0
0.24130249 0.39648527 -0.16692173 0
0.54052925 0.23139322 -0.18488908 0
0.24847412 0.47066396 -0.1163224 0
0.27529526 0.433882 -0.11511695 0
0.39717674 0.36864096 -0.098721623 0
0.49797249 0.31448686 -0.18050814 0
0.54260063 0.30324686 -0.13014734 0
0.31572723 0.48184967 -0.068760633 0
0.54108238 0.2495259 -0.084138155 0
0.2841835 0.46974945 -0.031353951 0
0.36041641 0.43878883 -0.033443213 0
0.42863083 0.42330706 -0.0021512508 0
0.52500534 0.34803915 -0.064543843 0
0.34213448 0.49460489 -0.00052797794 0
0.58247185 0.37077439 -0.030238271 0
0.44096565 0.40985048 0.02260685 0
0.43960762 0.44719136 0.11250913 0
0.56267357 0.42170262 0.062897682 0
0.5886364 0.38338059 -0.0036348104 0
0.46408653 0.46499228 0.14965105 0
0.58890915 0.4207707 0.11699486 0
0.6296196 0.41687697 0.14235485 0
0.58387947 0.46364212 0.23801959 0
-0.96408081 -0.35590279 -0.31928843 0
-0.87931633 -0.41789913 -0.32345361 0
-0.80208778 -0.45236248 -0.32639718 0
-0.71718216 -0.46195996 -0.32841283 0
-0.93562317 -0.27159929 -0.31619859 0
-0.84536362 -0.30941331 -0.32278407 0
-0.75854301 -0.3378216 -0.32958865 0
-0.65413094 -0.36396325 -0.33116484 0
-0.55439377 -0.43234646 -0.33565038 0
-0.98363304 -0.14902741 -0.31232589 0
-0.89792252 -0.17111754 -0.3190887 0
-0.81282043 -0.21381634 -0.32440704 0
-0.71343994 -0.25149328 -0.32518339 0
-0.61925888 -0.31699115 -0.32938439 0
-0.51034737 -0.35049796 -0.33450514 0
-0.99458122 -0.08155638 -0.31257433 0
-0.87101173 -0.076281965 -0.31909949 0
-0.77261162 -0.11297148 -0.3222031 0
-0.67972946 -0.13006991 -0.32792407 0
-0.54724503 -0.19428855 -0.33497101 0
-0.92997742 0.035147488 -0.31498414 0
-0.82808876 0.0086396933 -0.31916451 0
-0.73901749 -0.012033463 -0.32316113 0
-0.62420654 -0.075649202 -0.32551211 0
-0.53418732 -0.11175948 -0.33304149 0
-0.98397827 0.15646112 -0.30626875 0
-0.89038849 0.12167096 -0.30945557 0
-0.78170204 0.10526854 -0.31950516 0
-0.68046188 0.039403856 -0.3229959 0
-0.58875656 0.061990917 -0.32783282 0
-0.93453026 0.2411983 -0.30488098 0
-0.84922791 0.22633559 -0.30910057 0
-0.7507267 0.18856311 -0.31752956 0
-0.66149521 0.13707018 -0.32276052 0
-0.99988174 0.40115142 -0.29826951 0
-0.89945412 0.36313224 -0.3038125 0
-0.81014442 0.30857503 -0.30892646 0
-0.73376083 0.27785647 -0.31335539 0
-0.65356445 0.2177155 -0.32057023 0
-0.85756683 0.43569249 -0.30446595 0
-0.78676987 0.4122932 -0.30635273 0
-0.71525192 0.37954992 -0.31377256 0
-0.77101135 0.49136484 -0.30741054 0
-0.43574905 -0.45843321 -0.33720517 0
-0.33989525 -0.48972774 -0.3398729 0
-0.41569519 -0.36001652 -0.33603352 0
-0.30086136 -0.43036795 -0.34711677 0
-0.25213623 -0.44321847 -0.34255666 0
-0.1650219 -0.47836751 -0.33362919 0
-0.48810959 -0.24849111 -0.33384091 0
-0.38213158 -0.25750625 -0.3395586 0
-0.20428085 -0.34513247 -0.35580432 0
-0.12400436 -0.41293287 -0.34152949 0
-0.028408051 -0.41797084 -0.33698118 0
0.041545868 -0.46561241 -0.32625455 0
-0.53433037 -0.061142981 -0.32947242 0
-0.47232819 -0.13947231 -0.33131552 0
-0.36658859 -0.21364331 -0.34147894 0
-0.20186043 -0.27091044 -0.36705452 0
-0.079172134 -0.29015851 -0.35896903 0
0.01808548 -0.3406958 -0.34611839 0
0.11243248 -0.35223824 -0.34069991 0
-0.49965668 0.0051223636 -0.32889235 0
-0.4448185 -0.028274119 -0.33317053 0
-0.31540108 -0.10600054 -0.3513822 0
-0.23245621 -0.070303619 -0.29349625 0
-0.1514492 -0.18639636 -0.37784255 0
-0.040706635 -0.18966579 -0.37259126 0
0.078958511 -0.24037147 -0.35904014 0
0.16298485 -0.2575357 -0.35083789 0
-0.56387711 0.13222903 -0.32397407 0
-0.46648216 0.080493212 -0.32805377 0
-0.26288605 0.03362608 -0.36089402 0
-0.14868355 0.00019752979 -0.31503224 0
-0.11297226 -0.094388187 -0.38507205 0
-0.02740097 -0.11821491 -0.3825044 0
0.21482849 -0.15904921 -0.36162186 0
0.74163055 -0.460742 -0.47818851 0
0.78543663 -0.43089217 -0.4887622 0
-0.62410164 0.25146735 -0.31724948 0
-0.52666283 0.20266014 -0.3245374 0
-0.39829254 0.14535451 -0.33851236 0
-0.25225258 0.091668367 -0.36137784 0
-0.063144684 0.029485166 -0.34776962 0
0.029260635 -0.022448182 -0.39544863 0
0.088781357 -0.041313231 -0.3868981 0
0.86777878 -0.34819525 -0.50831044 0
-0.73107147 0.43617815 -0.30652589 0
-0.65074348 0.37569493 -0.31388688 0
-0.5761528 0.34045577 -0.31758052 0
-0.49347878 0.29669839 -0.32335275 0
-0.40242577 0.24789208 -0.33337516 0
-0.25673103 0.25927156 -0.35310817 0
-0.26117516 0.19172305 -0.35452873 0
-0.01499939 0.11513054 -0.36691123 0
0.080030441 0.076215982 -0.40724629 0
-0.64449883 0.47060299 -0.31185383 0
-0.52667809 0.43111247 -0.31591618 0
-0.44991493 0.38043875 -0.32440346 0
-0.37814713 0.38048244 -0.33594167 0
-0.24890518 0.32663476 -0.35288739 0
-0.056932449 0.23609763 -0.389162 0
0.044252396 0.19165647 -0.33512437 0
0.084299088 0.17237979 -0.39238632 0
-0.38453102 0.49334127 -0.3315832 0
-0.31734467 0.43292648 -0.32843363 0
-0.23912621 0.38601762 -0.35396999 0
-0.11381721 0.38619453 -0.36847138 0
-0.07497406 0.33975673 -0.38059759 0
0.082504272 0.26697332 -0.34438026 0
0.11733437 0.28333467 -0.39388621 0
-0.12582397 0.43527699 -0.36377275 0
0.073246002 0.38063926 -0.39783984 0
0.15813446 0.37027222 -0.38008493 0
0.13156319 0.47497791 -0.37519765 0
-0.15595436 -0.041761994 -0.28494108 0
-0.11474991 0.012163937 -0.29469812 0
-0.055770874 0.035053134 -0.2714448 0
0.3088665 -0.13177109 -0.35370392 0
0.0060100555 0.10451716 -0.28652644 0
0.070905685 0.12526101 -0.25713646 0
0.51844406 -0.03971535 -0.30690944 0
0.53777313 -0.10813469 -0.31254637 0
0.091812134 0.20165783 -0.28890312 0
0.49534225 0.050730467 -0.31705594 0
0.53584099 -0.020913064 -0.34549451 0
0.12447166 0.27737951 -0.28383982 0
0.45855904 0.13523138 -0.30714071 0
0.5292263 0.10839075 -0.30772769 0
0.18273735 0.38041818 -0.28591144 0
0.23159599 0.45919895 -0.31038427 0
0.5685215 -0.19242299 -0.2862184 0
0.54558372 -0.078564107 -0.27952206 0
0.53416252 0.018005967 -0.2757833 0
0.17982674 0.29230785 -0.20639932 0
0.54649162 0.10385412 -0.26285255 0
0.19871902 0.373689 -0.20370901 0
0.50769234 0.24698341 -0.2214669 0
0.53931046 0.18615437 -0.24438047 0
0.22983551 0.45557606 -0.198542 0
0.25859261 0.37983388 -0.13586593 0
0.30320549 0.38268435 -0.09871769 0
0.51975632 0.28359705 -0.14203572 0
0.53746796 0.22061962 -0.17773104 0
0.26488113 0.45659238 -0.11659479 0
0.35056114 0.42141515 -0.081110954 0
0.32040405 0.46965718 -0.04488647 0
0.42171478 0.44529861 -0.00014042854 0
0.44915009 0.39027196 -0.067409396 0
0.55820656 0.33014363 -0.053228021 0
0.3902359 0.47402245 -0.026743889 0
0.40446854 0.44046146 0.031265616 0
0.47509193 0.43449026 0.084094524 0
0.59098244 0.3764652 0.019014239 0
0.4060688 0.49950659 0.083786845 0
0.58977318 0.43122655 0.14706767 0
0.5288353 0.49869502 0.26103938 0
-0.99478149 -0.44761133 -0.32969958 0
-0.9741478 -0.34247375 -0.32975155 0
-0.91640282 -0.39484221 -0.33120275 0
-0.869524 -0.4296574 -0.33570331 0
-0.74276161 -0.44060624 -0.33867621 0
-0.63761902 -0.43992859 -0.34541649 0
-0.94517136 -0.24648952 -0.33332282 0
-0.89024925 -0.27509803 -0.33290386 0
-0.81415367 -0.30861986 -0.33474928 0
-0.73332787 -0.33522236 -0.336927 0
-0.63865662 -0.37270188 -0.34257394 0
-0.5667305 -0.42814404 -0.3434186 0
-0.45861053 -0.4689669 -0.34939891 0
-0.93388939 -0.15578908 -0.33203268 0
-0.86564827 -0.15992022 -0.33471 0
-0.80064392 -0.2051931 -0.33414751 0
-0.67553329 -0.24692756 -0.33879095 0
-0.57593346 -0.29293472 -0.34341985 0
-0.45185471 -0.37953126 -0.34871364 0
-0.99795151 -0.0097128153 -0.32420856 0
-0.90771484 -0.055394351 -0.32922786 0
-0.8115654 -0.073551953 -0.33618069 0
-0.72027779 -0.13173026 -0.34001595 0
-0.62147713 -0.15729934 -0.34014446 0
-0.54238129 -0.18561274 -0.34279478 0
-0.95836449 0.0839203 -0.32223207 0
-0.88385582 0.013541043 -0.32748181 0
-0.78155136 0.00040054321 -0.33179981 0
-0.70268059 -0.036622763 -0.33493382 0
-0.57747841 -0.063468874 -0.3398068 0
-0.52587891 -0.078775227 -0.34444058 0
-0.95031929 0.16188115 -0.31815773 0
-0.843853 0.12944281 -0.32883334 0
-0.73942375 0.10500675 -0.33007634 0
-0.65829659 0.069678545 -0.33375353 0
-0.56290817 0.034955502 -0.34122068 0
-0.98917961 0.3012014 -0.31213254 0
-0.88315964 0.27570534 -0.31966025 0
-0.7928791 0.22590631 -0.32712346 0
-0.71784782 0.18690985 -0.33038533 0
-0.60836029 0.14124256 -0.33551437 0
-0.53046608 0.12120438 -0.33859158 0
-0.96880341 0.38543499 -0.30944979 0
-0.86571884 0.37861061 -0.31740004 0
-0.78279877 0.31425804 -0.32107449 0
-0.67248535 0.2866866 -0.32749695 0
-0.60095406 0.23112744 -0.33530539 0
-0.90957069 0.49232876 -0.31256497 0
-0.82056427 0.44819772 -0.31278461 0
-0.72544289 0.39699531 -0.32252991 0
-0.60415268 0.35819131 -0.33175516 0
-0.61359596 0.4491396 -0.3275457 0
-0.33239937 -0.49694872 -0.34873962 0
-0.46088028 -0.3398636 -0.3452577 0
-0.33752251 -0.40320021 -0.35593998 0
-0.21740913 -0.43939763 -0.35287458 0
-0.089248657 -0.49120659 -0.33926719 0
-0.4274044 -0.20565277 -0.35083181 0
-0.30828476 -0.28207213 -0.36203718 0
-0.31480598 -0.32714081 -0.36078542 0
-0.15006065 -0.36363453 -0.36205328 0
-0.032077789 -0.37472045 -0.35479188 0
-0.45308495 -0.16048503 -0.34309244 0
-0.28621483 -0.18608057 -0.36669761 0
-0.12351227 -0.25063545 -0.3782388 0
-0.029790878 -0.27689719 -0.37044108 0
-0.42971802 -0.018105328 -0.34626597 0
-0.42949677 -0.074500024 -0.34741724 0
-0.2624321 -0.082412422 -0.37183201 0
-0.10760117 -0.15566134 -0.39191824 0
-0.0051956177 -0.21669298 -0.37801468 0
-0.42246819 0.071448147 -0.34649342 0
-0.24896431 0.0020486712 -0.37472439 0
-0.039287567 -0.029489219 -0.40971583 0
0.00025939941 -0.10554367 -0.39524657 0
-0.54173279 0.23948377 -0.33320212 0
-0.47123337 0.19338524 -0.33891147 0
-0.43267059 0.14269513 -0.34275544 0
-0.28964043 0.13564485 -0.36207688 0
-0.25387764 0.068225503 -0.37331557 0
-0.053407669 0.023817301 -0.40647066 0
0.073783875 -0.007173717 -0.40599447 0
-0.56746864 0.39538419 -0.32396054 0
-0.53585052 0.35910338 -0.33252954 0
-0.43718529 0.31717014 -0.3393203 0
-0.30473137 0.23789775 -0.3557173 0
-0.063936234 0.140167 -0.40253061 0
0.023855209 0.12338656 -0.36885989 0
0.07682991 0.073986471 -0.41816318 0
-0.54784203 0.477184 -0.3276915 0
-0.44578171 0.44556969 -0.33588791 0
-0.42240906 0.4197886 -0.34181428 0
-0.29167747 0.34401536 -0.35786873 0
-0.1071167 0.27240574 -0.38844615 0
0.076213837 0.21235538 -0.38404667 0
0.10709 0.17614049 -0.42648637 0
-0.30729294 0.43419653 -0.35336941 0
-0.1762352 0.42320335 -0.36788273 0
-0.13842964 0.35894203 -0.37855923 0
0.083667755 0.28243768 -0.40863532 0
0.039581299 0.43753397 -0.40575868 0
0.13497925 0.37309146 -0.40217513 0
0.13869095 0.47405183 -0.40465367 0
0.03559494 -0.44551677 -0.34093314 0
0.098739624 -0.32647616 -0.35740173 0
-0.21564102 -0.053830147 -0.29832006 0
0.13306808 -0.23795319 -0.36780936 0
0.60633469 -0.47953933 -0.4639082 0
-0.17781448 -0.057046473 -0.31095868 0
0.17074585 -0.14684564 -0.37823266 0
0.24410439 -0.20293456 -0.36385161 0
0.95849609 -0.48707855 -0.5244537 0
-0.064191818 0.038240731 -0.30447578 0
0.028562546 0.12074512 -0.29937053 0
0.065750122 0.1831634 -0.32357413 0
0.11841393 0.28970945 -0.33292103 0
0.17167473 0.36640149 -0.34851319 0
0.21350098 0.4093802 -0.35952741 0
0.19556046 0.47971463 -0.37153488 0
0.24014664 0.45126516 -0.33786267 0
0.59221077 -0.24045193 -0.31278801 0
0.55627441 -0.063864887 -0.32508695 0
0.58452797 -0.14573312 -0.31201351 0
0.13900566 0.22024846 -0.25917947 0
0.478899 0.048222303 -0.36116266 0
0.53853607 0.03544873 -0.32252479 0
0.16528702 0.30892515 -0.25736845 0
0.52246475 0.14081347 -0.30228221 0
0.19737434 0.39096457 -0.26081896 0
0.23440361 0.45520967 -0.253896 0
0.25230408 0.46774769 -0.30859292 0
0.59249306 0.018483162 -0.28384829 0
0.53760338 0.15176076 -0.25610006 0
0.6060791 0.093433976 -0.28819799 0
0.22550774 0.38852733 -0.2051307 0
0.24245834 0.37018466 -0.1766721 0
0.48991013 0.23664582 -0.26434731 0
0.54755592 0.2586745 -0.21838653 0
0.25615501 0.47739565 -0.18805397 0
0.26737785 0.42741346 -0.15039158 0
0.32444191 0.39869893 -0.099577069 0
0.53326988 0.27448285 -0.16865396 0
0.28284645 0.47547019 -0.10778487 0
0.32214546 0.43592578 -0.098554134 0
0.44874001 0.38133878 -0.089614749 0
0.58426094 0.31486619 -0.13045311 0
0.41794205 0.47000444 -0.0041838884 0
0.46264648 0.44918096 0.037420154 0
0.57919121 0.36665964 -0.04430604 0
0.49901199 0.45744777 0.065754175 0
0.5656414 0.43482304 0.092189431 0
0.62136841 0.37915462 0.015684605 0
0.45579529 0.48301214 0.20241416 0
0.58393288 0.4571203 0.13681424 0
-0.98825836 -0.45211875 -0.32791668 0
-0.95789719 -0.34602302 -0.32849199 0
-0.85656166 -0.42062563 -0.33172709 0
-0.79258919 -0.45473158 -0.33851349 0
-0.90077209 -0.28494543 -0.32829624 0
-0.80294228 -0.33258957 -0.33377033 0
-0.68480492 -0.39879447 -0.3382194 0
-0.96412659 -0.166206 -0.32407272 0
-0.87104797 -0.21790892 -0.32827526 0
-0.7563324 -0.25330615 -0.33456087 0
-0.9165287 -0.11121386 -0.3224777 0
-0.79941368 -0.096405983 -0.33402967 0
-0.74615479 -0.18032622 -0.33255994 0
-0.96164513 0.081520557 -0.31808352 0
-0.88537407 -0.0072391033 -0.32514274 0
-0.80364418 -0.046034634 -0.32893753 0
-0.71722221 -0.063749969 -0.33401513 0
-0.958395 0.16523224 -0.31299788 0
-0.85409737 0.10932863 -0.32081306 0
-0.79621696 0.04127425 -0.32538873 0
-0.70840454 0.029764593 -0.330796 0
-0.9106617 0.21651953 -0.31319869 0
-0.77372742 0.20203054 -0.32245207 0
-0.69403076 0.13782823 -0.32878309 0
-0.92962456 0.36870188 -0.30895388 0
-0.86985397 0.3135978 -0.31449467 0
-0.76413345 0.2776075 -0.32100916 0
-0.68974876 0.22880888 -0.32495499 0
-0.9107399 0.47698945 -0.30861038 0
-0.839077 0.4372043 -0.31147695 0
-0.74771118 0.39351153 -0.31969583 0
-0.58906174 -0.41748339 -0.33860737 0
-0.52872276 -0.45536804 -0.34407324 0
-0.67279625 -0.30127364 -0.33506787 0
-0.56018829 -0.31481957 -0.34114325 0
-0.48462105 -0.41363412 -0.33886635 0
-0.33692169 -0.38731545 -0.35335308 0
-0.2523632 -0.4790777 -0.34868324 0
-0.62490463 -0.16724747 -0.34162563 0
-0.55594635 -0.24110949 -0.33782256 0
-0.4485836 -0.28755569 -0.34274721 0
-0.32816315 -0.35732681 -0.35415673 0
-0.29810143 -0.29523271 -0.35989034 0
-0.18775177 -0.37283385 -0.36205477 0
-0.63602829 -0.10376263 -0.33392417 0
-0.50776291 -0.10527587 -0.3448922 0
-0.42839241 -0.17010617 -0.34241933 0
-0.26515007 -0.21693742 -0.36566544 0
-0.12265587 -0.26450521 -0.37572998 0
-0.63358307 -0.016600132 -0.32939029 0
-0.52247429 0.0024915338 -0.33425516 0
-0.51907349 -0.060310245 -0.33875608 0
-0.39576721 -0.043856919 -0.34572715 0
-0.23277283 -0.12715662 -0.37088084 0
-0.094335556 -0.21685362 -0.38176107 0
-0.60016823 0.12150782 -0.33204025 0
-0.51339912 0.063209355 -0.33381289 0
-0.3787117 0.018571079 -0.34787935 0
-0.18717384 -0.025860429 -0.37973154 0
-0.044776917 -0.13357216 -0.39247811 0
-0.59150505 0.24779606 -0.32800519 0
-0.49567223 0.18372625 -0.33315027 0
-0.36482048 0.11947745 -0.347175 0
-0.17622757 0.01551044 -0.38118422 0
-0.0042381287 -0.063225269 -0.40122604 0
0.032569885 -0.00064134598 -0.4093526 0
-0.67390251 0.41091663 -0.32027555 0
-0.67197418 0.34705514 -0.32411629 0
-0.54683685 0.29548591 -0.32577872 0
-0.34913635 0.24625015 -0.34631211 0
-0.1664753 0.13683957 -0.3788206 0
0.075109482 0.071036935 -0.41882503 0
-0.68066406 0.49261761 -0.31456065 0
-0.57619286 0.43141103 -0.32392037 0
-0.47159958 0.38910151 -0.33088517 0
-0.34573746 0.35868621 -0.3429125 0
-0.15307045 0.28771806 -0.37634337 0
0.0709095 0.19837391 -0.41290647 0
0.11004639 0.14748448 -0.4259603 0
-0.3109417 0.47127646 -0.34867114 0
-0.17988396 0.35095102 -0.36611134 0
0.052103043 0.2879228 -0.40424514 0
-0.24890327 0.46575511 -0.34081835 0
0.078660965 0.40358377 -0.40757883 0
0.066139221 0.49038839 -0.40101564 0
-0.1202774 -0.43289316 -0.34938669 0
0.018823624 -0.47190434 -0.33771151 0
-0.054300308 -0.32652855 -0.36341006 0
0.037044525 -0.35918629 -0.35452497 0
0.12198448 -0.38901466 -0.34624916 0
0.0046844482 -0.23115259 -0.37605375 0
0.098562241 -0.25705814 -0.36728787 0
0.15541458 -0.32287282 -0.35254377 0
-0.20986366 -0.083976746 -0.30992562 0
-0.17914772 -0.076710403 -0.3016721 0
0.21076012 -0.21893299 -0.36378336 0
0.90266037 -0.49953133 -0.5107426 0
-0.074821472 0.0062460303 -0.3056345 0
0.12099266 -0.022890925 -0.40047258 0
0.99510002 -0.4181397 -0.53214151 0
0.0089321136 0.073350191 -0.33274406 0
0.067062378 0.16367793 -0.34549993 0
0.11351585 0.25925654 -0.36156327 0
0.15957069 0.32859737 -0.36566108 0
0.15514946 0.44743061 -0.37678224 0
0.23705292 0.41816872 -0.35163116 0
0.038423538 0.083321333 -0.27477479 0
0.57871437 -0.099910617 -0.33903325 0
0.10137749 0.1520955 -0.27174819 0
0.45944405 -0.01289016 -0.34628326 0
0.53443527 -0.031363308 -0.32680643 0
0.13032722 0.22817057 -0.28279412 0
0.49890137 0.13628995 -0.31482959 0
0.54266167 0.051646709 -0.32703936 0
0.18319321 0.33285952 -0.27053821 0
0.22553253 0.40964168 -0.26177692 0
0.2422905 0.41841239 -0.31791174 0
0.28709412 0.4939667 -0.29264987 0
0.61384964 -0.2442463 -0.31510568 0
0.58555794 -0.16387308 -0.30698717 0
0.56090927 -0.031513333 -0.2989769 0
0.19398499 0.27817827 -0.20901549 0
0.54055023 0.14257812 -0.2719897 0
0.56053352 0.065180063 -0.2967931 0
0.22483253 0.37839848 -0.21473837 0
0.54758453 0.21256298 -0.23472643 0
0.24738503 0.43363094 -0.1838578 0
0.25805092 0.39016986 -0.1882621 0
0.48578835 0.32147068 -0.20159554 0
0.57712746 0.20250154 -0.18422055 0
0.27780724 0.46428049 -0.12098718 0
0.30566597 0.42252094 -0.11209083 0
0.44379997 0.38415515 -0.08780098 0
0.56705284 0.29598409 -0.14675844 0
0.32234764 0.49240017 -0.082084537 0
0.56668854 0.34721625 -0.037276387 0
0.39388466 0.47368568 -0.0090395212 0
0.44685173 0.4626624 0.050162792 0
0.57035446 0.39583445 0.06949544 0
0.59391594 0.4315393 0.1537199 0
0.54297829 0.49485904 0.28281927 0
-0.97527695 -0.49089223 -0.32021022 0
-0.94772911 -0.40688187 -0.32139546 0
-0.99990273 -0.27792048 -0.31835139 0
-0.92102242 -0.33365625 -0.32362163 0
-0.97611237 -0.18485218 -0.3171792 0
-0.89312553 -0.24749136 -0.32504433 0
-0.95013428 -0.10158277 -0.31823826 0
-0.86009789 -0.11767673 -0.32418203 0
-0.90598869 0.0075231194 -0.31675422 0
-0.8342762 -0.0069130659 -0.32301861 0
-0.9470787 0.13853168 -0.31144667 0
-0.81837273 0.085046172 -0.32041949 0
-0.9647522 0.28971082 -0.30580848 0
-0.88829803 0.22071201 -0.31067729 0
-0.80541611 0.19142687 -0.31583786 0
-0.93117714 0.39563495 -0.30853814 0
-0.86135864 0.33441567 -0.31052661 0
-0.78539467 0.2987234 -0.31394726 0
-0.94169426 0.44700116 -0.30051559 0
-0.83766556 0.41463464 -0.30361974 0
-0.76706696 0.37151814 -0.31444341 0
-0.85535049 -0.48500353 -0.32734293 0
-0.74806404 -0.49579787 -0.33006585 0
-0.82261658 -0.36755842 -0.32750666 0
-0.72917557 -0.41520542 -0.32918477 0
-0.61606026 -0.46203959 -0.33540267 0
-0.49986076 -0.46326178 -0.34082019 0
-0.80282784 -0.25147593 -0.32328135 0
-0.70713615 -0.32568705 -0.32878917 0
-0.57954979 -0.35097355 -0.33857083 0
-0.47645569 -0.36882693 -0.34108663 0
-0.75543213 -0.10852736 -0.32709295 0
-0.67634392 -0.20813006 -0.32913226 0
-0.56867027 -0.25371128 -0.33390653 0
-0.46239662 -0.28487104 -0.33905977 0
-0.73867989 -0.03442204 -0.32639283 0
-0.65572739 -0.10515326 -0.32736003 0
-0.52459908 -0.11109066 -0.33738053 0
-0.45325279 -0.2122702 -0.33632255 0
-0.73484612 0.048781633 -0.32050759 0
-0.61630821 0.015423536 -0.33103496 0
-0.51967049 -0.04577297 -0.33369625 0
-0.4203434 -0.098576903 -0.3386181 0
-0.70433807 0.17554176 -0.32065105 0
-0.60795212 0.11137694 -0.32616818 0
-0.50501823 0.062980592 -0.33018237 0
-0.39561653 0.0023028255 -0.33876616 0
-0.69007111 0.25561881 -0.31914568 0
-0.5976429 0.20536864 -0.32232952 0
-0.50189781 0.14954531 -0.32468039 0
-0.36174774 0.12138188 -0.34084731 0
-0.64351463 0.34557205 -0.31743938 0
-0.57170486 0.30935818 -0.32326502 0
-0.47114563 0.26243579 -0.32675409 0
-0.33279991 0.22481924 -0.34254551 0
-0.66431618 0.46283764 -0.31221628 0
-0.56396294 0.42764378 -0.31719702 0
-0.46642494 0.36240411 -0.32081342 0
-0.44695091 0.35660285 -0.32793552 0
-0.30661392 0.32818347 -0.34345633 0
-0.43145752 0.44406492 -0.32653254 0
-0.30675125 0.41099817 -0.33799911 0
-0.3745594 -0.41926837 -0.33877856 0
-0.35892677 -0.43513107 -0.34551424 0
-0.24192047 -0.47647101 -0.34478599 0
-0.33328056 -0.35224253 -0.34650284 0
-0.19912529 -0.41261601 -0.35284209 0
-0.091569901 -0.42221659 -0.34688914 0
-0.26913834 -0.24681586 -0.3584941 0
-0.13603783 -0.31848168 -0.36496431 0
-0.038225174 -0.34302509 -0.35654503 0
-0.21014214 -0.1453923 -0.36875236 0
-0.063615799 -0.20968103 -0.37839669 0
0.0020637512 -0.28315812 -0.36414224 0
-0.14459419 -0.046706438 -0.33477521 0
