# .PCD v0.7 - Point Cloud Data file format
VERSION 0.7
FIELDS x y z intensity
SIZE 4 4 4 4
TYPE F F F F
COUNT 1 1 1 1
WIDTH 1126
HEIGHT 1
VIEWPOINT 0 0 0 1 0 0 0
POINTS 1126
DATA ascii
0.80052614 -0.49796724 -0.28859094 0
0.72012329 -0.42446709 -0.30276439 0
0.81315136 -0.38351274 -0.30282807 0
0.89944983 -0.39638782 -0.29554662 0
0.80625868 -0.29303217 -0.31868818 0
0.92851639 -0.30975723 -0.31051257 0
0.83842468 -0.14442515 -0.33658645 0
0.91464138 -0.19582915 -0.32291618 0
0.88970232 -0.49084592 -0.27292868 0
0.97836494 -0.46620202 -0.26602891 0
0.7037859 -0.38024616 -0.30475295 0
0.89151335 -0.40339494 -0.2830421 0
0.98523903 -0.39984441 -0.27478111 0
0.70485878 -0.29204798 -0.31520063 0
0.79817915 -0.24437451 -0.31712744 0
0.86900091 -0.28209615 -0.30458495 0
0.98779249 -0.29174161 -0.29205126 0
0.71204281 -0.19869423 -0.32825351 0
0.82062197 -0.19380236 -0.32721072 0
0.91337919 -0.16616702 -0.31735379 0
0.77467775 -0.092265368 -0.34089282 0
0.89724207 -0.10673642 -0.33268851 0
0.96397257 -0.10044456 -0.31878638 0
0.73320866 0.015444994 -0.36421248 0
0.795856 -0.0050878525 -0.35548341 0
0.90030861 0.0093903542 -0.34525523 0
0.98564148 0.0043931007 -0.33340874 0
0.72087908 0.11605525 -0.37927845 0
0.78229332 0.096154213 -0.37555727 0
0.88615704 0.10614872 -0.35937318 0
0.99376297 0.12847495 -0.35395417 0
0.69091702 0.21633482 -0.39215517 0
0.76745605 0.18102312 -0.38389319 0
0.87507725 0.20769787 -0.37269807 0
0.63254595 0.33128881 -0.39922544 0
0.68183804 0.31439543 -0.39639843 0
0.78491306 0.30286622 -0.39403695 0
0.88880253 0.30498576 -0.38775569 0
0.9822731 0.30142879 -0.37279627 0
0.41926765 0.38727951 -0.36871663 0
0.50838852 0.41174817 -0.38069683 0
0.58494282 0.40651655 -0.3869988 0
0.66200686 0.39206791 -0.38914269 0
0.76054573 0.41386008 -0.3832019 0
0.86021614 0.4042263 -0.3848488 0
0.98275518 0.40242648 -0.38130116 0
0.55659294 0.48017764 -0.37135801 0
0.75678968 0.49115038 -0.37977809 0
0.28973484 0.44048047 -0.35369918 0
0.37169027 0.41901636 -0.35774097 0
0.44022036 0.48247576 -0.35879672 0
0.51890993 -0.47567558 -0.31701893 0
0.58884048 -0.48284721 -0.3145439 0
0.69255447 -0.49742651 -0.30379131 0
0.8952179 -0.4755137 -0.28409958 0
0.56943083 -0.39320111 -0.32902041 0
0.69599342 -0.39316654 -0.31931365 0
0.77624035 -0.39210033 -0.312994 0
0.85581207 -0.41698933 -0.30255571 0
0.58336782 -0.31848001 -0.34000871 0
0.79336643 -0.26669669 -0.33475208 0
0.90952635 -0.48784399 -0.27664602 0
0.99224615 -0.47341371 -0.26779842 0
0.80327177 -0.35415435 -0.31073275 0
0.92648697 -0.36711073 -0.29827628 0
0.97638512 -0.37108421 -0.28233811 0
0.50354958 -0.27821159 -0.34315592 0
0.60357285 -0.27887058 -0.34033605 0
0.66371965 -0.30259585 -0.32826728 0
0.79362917 -0.26879573 -0.32299769 0
0.92794895 -0.27917433 -0.31326514 0
0.95792007 -0.2696197 -0.29734552 0
0.50565386 -0.1889112 -0.35855097 0
0.58511209 -0.1956594 -0.34729561 0
0.66458082 -0.22301054 -0.34095201 0
0.75873661 -0.17555761 -0.33662993 0
0.89660168 -0.19250679 -0.33057368 0
0.99052382 -0.15917277 -0.32138824 0
0.50374079 -0.085773945 -0.37693757 0
0.58221531 -0.085653067 -0.37091568 0
0.6697731 -0.091809273 -0.36079246 0
0.75724554 -0.082389116 -0.35327977 0
0.88619184 -0.090234995 -0.34077427 0
0.50162411 0.021443844 -0.39719594 0
0.59252977 0.020650387 -0.38638118 0
0.70792246 0.013990641 -0.37779677 0
0.78595972 0.029197216 -0.37044346 0
0.8647418 0.013301373 -0.35316736 0
0.99364662 0.019096375 -0.34170794 0
0.34001303 0.14508963 -0.38887841 0
0.48587656 0.11389685 -0.41155094 0
0.57803726 0.116925 -0.40217912 0
0.68607283 0.10723472 -0.39487234 0
0.77489662 0.10937262 -0.37866789 0
0.87309313 0.14194322 -0.37484193 0
0.96786308 0.10811567 -0.35976374 0
0.26453686 0.17625356 -0.37777883 0
0.33226204 0.21045971 -0.38149321 0
0.4704957 0.23493147 -0.40242946 0
0.54506207 0.19346738 -0.40802753 0
0.69212484 0.20322657 -0.40173611 0
0.78674793 0.2091701 -0.39266396 0
0.8996048 0.20881867 -0.38229203 0
0.97700644 0.21019959 -0.36588067 0
0.40771151 0.32855463 -0.38373321 0
0.51139832 0.32208967 -0.39456421 0
0.61184931 0.30849981 -0.40831658 0
0.67340851 0.31007051 -0.40501681 0
0.77283716 0.31673932 -0.39371398 0
0.88846684 0.32192016 -0.39033026 0
0.97901869 0.30864477 -0.37966564 0
0.59074354 0.39529133 -0.38835609 0
0.70441055 0.4209342 -0.39059544 0
0.86527872 0.41925335 -0.39013311 0
0.97793722 0.45059872 -0.38283822 0
0.82383013 0.48320603 -0.391985 0
0.93051147 0.48874402 -0.38501054 0
0.073477268 0.24463582 -0.34911028 0
0.20458984 0.22027826 -0.37065491 0
0.26995277 0.25143385 -0.37432444 0
0.0041537285 0.32004476 -0.35169929 0
0.064624786 0.34108543 -0.34884024 0
0.18142271 0.31996107 -0.35791138 0
0.28983593 0.32614756 -0.36671492 0
-0.021431923 0.41889238 -0.37007183 0
0.06816721 0.42332053 -0.35918501 0
0.17395258 0.4171114 -0.35481471 0
0.27342033 0.44312406 -0.35913783 0
0.40037823 0.41885185 -0.36962178 0
0.51495218 0.42452312 -0.38808048 0
0.56933308 0.46252418 -0.38793677 0
0.26434946 -0.48969698 -0.33464926 0
0.37850428 -0.49153662 -0.32664517 0
0.49059343 -0.49984145 -0.32077515 0
0.69047022 -0.44317889 -0.31461617 0
-0.018156528 -0.40550137 -0.35072547 0
0.047399521 -0.41893291 -0.34719524 0
0.15841961 -0.40363622 -0.34724289 0
0.27249813 -0.38910198 -0.34721506 0
0.36844778 -0.42052579 -0.34236786 0
0.4339633 -0.40656757 -0.33682066 0
0.57422495 -0.39098549 -0.33372366 0
0.70180321 -0.39451981 -0.32253167 0
-0.016833305 -0.31708336 -0.35984805 0
0.049515247 -0.30879593 -0.35927039 0
0.17676115 -0.29549861 -0.36258939 0
0.29752684 -0.28913832 -0.36349082 0
0.37571287 -0.2983048 -0.35913777 0
0.44414091 -0.29214597 -0.3530421 0
0.54976559 -0.30557704 -0.34509522 0
0.0025496483 -0.22071886 -0.37437826 0
0.063524246 -0.21309114 -0.37332463 0
0.16755867 -0.2109499 -0.37325102 0
0.25943756 -0.19575572 -0.37408632 0
0.38923073 -0.18730092 -0.3763001 0
0.47200727 -0.19240379 -0.37140894 0
0.53329945 -0.18530774 -0.36384246 0
0.15638638 -0.12270784 -0.38448027 0
0.27986383 -0.11791229 -0.38708875 0
0.36965513 -0.10340571 -0.38543651 0
0.48083305 -0.097996712 -0.38704374 0
0.5586524 -0.081728458 -0.38331294 0
0.2822175 -0.033260822 -0.39634275 0
0.3654294 -0.012082338 -0.39854676 0
0.46717882 -0.016735077 -0.39808571 0
0.54587936 0.0040819645 -0.39548188 0
0.61749744 0.00038766861 -0.3885614 0
0.47906303 0.054074287 -0.41092724 0
0.54976606 0.083040237 -0.40934396 0
0.76777983 -0.47791815 -0.29924601 0
0.86392832 -0.47101569 -0.2913686 0
0.97703505 -0.47058678 -0.26934034 0
0.69183636 -0.3574748 -0.32574749 0
0.77167082 -0.38516903 -0.31189334 0
0.8794322 -0.3755672 -0.30643773 0
0.95324898 -0.36948037 -0.29583743 0
-0.03156662 -0.28291464 -0.36118335 0
0.58020639 -0.28205109 -0.34005076 0
0.65668249 -0.30996299 -0.32668665 0
0.78043938 -0.26193476 -0.32999074 0
0.8597436 -0.2844584 -0.31612632 0
0.97154045 -0.28042531 -0.30218628 0
-0.10591412 -0.17376685 -0.35789371 0
-0.021272659 -0.18963599 -0.37467557 0
0.022372723 -0.18885612 -0.37018794 0
0.56534958 -0.2190156 -0.3468343 0
0.67929602 -0.19025755 -0.34694532 0
0.7553587 -0.18527818 -0.33727229 0
0.86333084 -0.19149494 -0.33011475 0
0.95861673 -0.18794227 -0.3228575 0
-0.1140008 -0.10094643 -0.36104292 0
-0.041070938 -0.075555563 -0.36496443 0
0.05779171 -0.11181355 -0.37758091 0
0.16562748 -0.075358391 -0.3839061 0
0.60346746 -0.10250401 -0.37007824 0
0.6909852 -0.085756779 -0.36461213 0
0.76076937 -0.10004497 -0.35109136 0
0.84695148 -0.1046834 -0.34089613 0
0.97148228 -0.090193033 -0.33096564 0
-0.20199633 0.004406929 -0.35550851 0
-0.12185001 -0.00070929527 -0.35708773 0
-0.042464256 -0.010056257 -0.35842448 0
0.039963245 0.01870656 -0.36542687 0
0.16312122 0.0089459419 -0.3832711 0
0.26446724 0.035589933 -0.3858664 0
0.69138479 0.010175467 -0.38025051 0
0.76573801 0.0060477257 -0.36894643 0
0.86226845 0.011255264 -0.36169451 0
0.95015812 0.022799253 -0.35477185 0
-0.23031235 0.10727453 -0.35940406 0
-0.14196253 0.1101656 -0.35431486 0
-0.050325394 0.094002008 -0.3477416 0
0.073364735 0.10686159 -0.36027667 0
0.20856142 0.090426445 -0.37984845 0
0.29196978 0.1084373 -0.38376117 0
0.40931416 0.075160027 -0.40201458 0
0.45922089 0.12594414 -0.40072259 0
0.59494162 0.088327408 -0.40026614 0
0.67747307 0.11265445 -0.39544016 0
0.74960613 0.10775828 -0.38366133 0
0.82494831 0.10765052 -0.37265956 0
0.92859077 0.13454556 -0.37053216 0
-0.22969246 0.2050035 -0.37036809 0
-0.14159441 0.21151304 -0.35914367 0
-0.047918797 0.20383215 -0.34941146 0
0.065317631 0.21978211 -0.34731948 0
0.16064119 0.19723272 -0.36194754 0
0.23975515 0.16444397 -0.37930521 0
0.32860041 0.20564079 -0.37961623 0
0.44837189 0.195261 -0.39242902 0
0.57031536 0.201226 -0.40414637 0
0.66894484 0.2122941 -0.4037481 0
0.74157619 0.19422197 -0.39742005 0
0.85792494 0.21903539 -0.38946483 0
0.92148829 0.20862627 -0.38239771 0
-0.30278444 0.27565694 -0.38604063 0
-0.24493122 0.29804945 -0.39501253 0
-0.14494705 0.31314468 -0.383495 0
-0.066663265 0.31624722 -0.36793193 0
0.019928455 0.29024577 -0.35783011 0
0.15122747 0.28907871 -0.35225719 0
0.25680923 0.29603887 -0.36363852 0
0.36702681 0.3121016 -0.37592348 0
0.46252966 0.30879545 -0.38306522 0
0.60520124 0.33303976 -0.39985555 0
0.62881327 0.2815938 -0.3952539 0
0.76586151 0.34005642 -0.39746174 0
0.86089993 0.29646754 -0.39676094 0
0.98109388 0.31478143 -0.38455218 0
-0.23369265 0.39462256 -0.40764922 0
-0.14299393 0.39359713 -0.39451212 0
-0.068501949 0.41215277 -0.3844001 0
0.3629756 0.39200473 -0.36965138 0
0.45533514 0.43943977 -0.37445113 0
0.59898663 0.41738081 -0.39290372 0
0.65250492 0.39684129 -0.38836521 0
0.77859831 0.42201591 -0.40011677 0
0.851583 0.4347229 -0.38903105 0
0.9408536 0.37531877 -0.39020708 0
-0.24731827 0.49595904 -0.42748198 0
-0.052452087 0.47539949 -0.39301422 0
0.66366243 0.49116683 -0.38589993 0
0.77250671 0.49589515 -0.38976699 0
0.96396732 0.48352242 -0.38797295 0
-0.010333061 0.22665501 -0.34227514 0
0.020572662 0.25239277 -0.33747128 0
-0.02680397 0.32586789 -0.35476112 0
0.046220779 0.30995893 -0.34558141 0
-0.036830902 0.40053201 -0.37292248 0
0.047101974 0.41333771 -0.36708009 0
0.15714645 0.4094739 -0.35810551 0
0.2562542 0.41897345 -0.35837266 0
0.45675945 0.49975133 -0.36879015 0
0.32496786 -0.4813478 -0.32965285 0
0.46287727 -0.49139857 -0.32348385 0
0.6149478 -0.46509647 -0.31104162 0
0.76462793 -0.47058988 -0.30679855 0
0.97411966 -0.46619964 -0.27119204 0
0.11987019 -0.39987803 -0.34678066 0
0.23722887 -0.42728543 -0.34313112 0
0.32249641 -0.38257861 -0.34470019 0
0.45531416 -0.37569404 -0.3453581 0
0.54455757 -0.40389538 -0.32845086 0
0.73065996 -0.38142085 -0.31697607 0
0.86021042 -0.39857626 -0.30668458 0
0.95897436 -0.3830626 -0.28884369 0
0.13844776 -0.28560615 -0.36094502 0
0.25136423 -0.30837202 -0.36277464 0
0.35909748 -0.29212451 -0.3581278 0
0.44414616 -0.29958749 -0.35018212 0
0.55874443 -0.27549696 -0.34239551 0
0.67113113 -0.30494881 -0.32982147 0
0.79829025 -0.26120186 -0.32285726 0
0.83957148 -0.32426167 -0.31687251 0
0.93982267 -0.30445528 -0.30065477 0
0.20292473 -0.16681623 -0.37898308 0
0.26381397 -0.18854856 -0.37349847 0
0.33484316 -0.21959543 -0.37272987 0
0.44888926 -0.18510723 -0.36826482 0
0.54986811 -0.20759249 -0.35355929 0
0.67990923 -0.19712448 -0.34270647 0
0.77407598 -0.19084167 -0.33267879 0
0.89686298 -0.17306113 -0.32928959 0
0.9148035 -0.2137866 -0.32384863 0
0.29523039 -0.10517621 -0.38704693 0
0.39185238 -0.084238052 -0.38808799 0
0.44907951 -0.098075151 -0.38454697 0
0.56035042 -0.099104166 -0.37534657 0
0.67839003 -0.10459065 -0.3601748 0
0.7847476 -0.10508704 -0.3503266 0
0.8696723 -0.10227895 -0.33957723 0
0.38346672 -0.023434162 -0.39807642 0
0.49398661 -0.0041399002 -0.39992937 0
0.56292915 0.0034377575 -0.38916931 0
0.66637659 0.0071997643 -0.38108143 0
0.76810598 -0.019600153 -0.36542323 0
0.86598539 -0.025029659 -0.35454273 0
0.4739337 0.054879189 -0.40908235 0
0.089716911 -0.31217265 -0.3550083 0
0.074545383 -0.22504926 -0.366669 0
0.97464657 -0.14600158 -0.31627026 0
-0.067782402 -0.060258865 -0.36240843 0
0.041051865 -0.11574602 -0.37709373 0
0.1710763 -0.12014008 -0.38747555 0
0.24607515 -0.06974721 -0.38697743 0
0.98553801 -0.090753317 -0.32851595 0
-0.14760208 0.020714045 -0.35435218 0
-0.057998657 0.0092539787 -0.35874906 0
0.08352232 -0.022562265 -0.37276036 0
0.25829268 0.048794746 -0.38931572 0
0.75217867 0.050116539 -0.37781495 0
0.83836699 0.036915302 -0.3640404 0
0.95585155 0.010551453 -0.34561077 0
0.07080698 0.072612524 -0.36091921 0
0.10916185 0.11530375 -0.35949913 0
0.30832005 0.075757742 -0.38665098 0
0.52676249 0.10506248 -0.40540189 0
0.63336229 0.11197019 -0.39873344 0
0.75487614 0.1289382 -0.38748834 0
0.80635691 0.10064077 -0.37358144 0
0.90881109 0.10341358 -0.3596319 0
0.26355219 0.19765925 -0.37141401 0
0.46712685 0.20366359 -0.39401817 0
0.62910604 0.20069838 -0.40513358 0
0.75118971 0.20742631 -0.39689511 0
0.89204788 0.20027304 -0.37850869 0
0.94989109 0.18090677 -0.36732596 0
0.38350153 0.30318928 -0.37963817 0
0.41566038 0.35246658 -0.37630007 0
0.64834309 0.29842019 -0.40265673 0
0.75582695 0.3292079 -0.3909907 0
0.87443256 0.27939773 -0.39393806 0
0.95529079 0.33026838 -0.3877717 0
0.62994957 0.42938757 -0.38612333 0
0.74479818 0.41580772 -0.39569455 0
0.8515048 0.39292145 -0.3902081 0
0.93690538 0.4640758 -0.38968852 0
-0.25170946 0.031678677 -0.34764174 0
-0.24488306 0.11346579 -0.35634434 0
-0.14270115 0.11539936 -0.3531394 0
-0.050357819 0.11768532 -0.3479467 0
-0.25430012 0.2011826 -0.37433922 0
-0.14881754 0.21638155 -0.36749959 0
-0.065064907 0.2001133 -0.35074955 0
0.087497234 0.18510485 -0.35032225 0
-0.31395531 0.32074165 -0.40196598 0
-0.24827242 0.29369283 -0.39423794 0
-0.15692329 0.30959678 -0.38393477 0
-0.070831299 0.29457736 -0.36657995 0
0.02986145 0.31490111 -0.35278305 0
0.15578985 0.31041813 -0.34887305 0
0.19858313 0.36300993 -0.34959215 0
-0.32484961 0.37593746 -0.41397092 0
-0.26008224 0.39962697 -0.41112459 0
-0.16079426 0.40965581 -0.39653379 0
-0.059910297 0.39393282 -0.38095641 0
0.047404289 0.41528487 -0.36231273 0
0.1711235 0.42532802 -0.35980272 0
0.23688936 0.4243772 -0.3490718 0
0.33951521 0.41871428 -0.35894147 0
-0.26775217 0.49435854 -0.42627808 0
0.21879148 0.49821448 -0.36350185 0
0.49920845 0.49199319 -0.37256011 0
0.34393549 -0.47415853 -0.3275944 0
0.47213888 -0.47690797 -0.31989133 0
0.59017801 -0.48777652 -0.30870354 0
0.69430923 -0.43757033 -0.30621487 0
0.73184776 -0.482723 -0.30224004 0
0.85497475 -0.48092794 -0.29218429 0
0.95144272 -0.47939229 -0.27340588 0
0.37135553 -0.36782813 -0.34270021 0
0.44570971 -0.39215589 -0.33212107 0
0.56406641 -0.38355088 -0.32499078 0
0.69295788 -0.34760261 -0.32345623 0
0.78363228 -0.35750055 -0.30813122 0
0.88559151 -0.4116962 -0.29439422 0
0.95278978 -0.36609101 -0.28148305 0
0.26860523 -0.24195933 -0.36099651 0
0.3589077 -0.29323053 -0.35513648 0
0.41795731 -0.24819303 -0.35661435 0
0.54031086 -0.28102112 -0.34187615 0
0.65605688 -0.27646422 -0.33315262 0
0.75133562 -0.27625418 -0.32086954 0
0.90524387 -0.25940847 -0.3135778 0
0.99491119 -0.27845097 -0.29003072 0
0.28950357 -0.16982365 -0.37727341 0
0.39768839 -0.16567516 -0.37149158 0
0.47728395 -0.19930553 -0.35875788 0
0.60154343 -0.13307619 -0.35703024 0
0.65801477 -0.18694091 -0.34409982 0
0.73311186 -0.22258401 -0.32991391 0
0.85394859 -0.19336963 -0.32206178 0
0.98089314 -0.16810393 -0.31281629 0
0.37159586 -0.065247297 -0.38907313 0
0.48220634 -0.095050097 -0.38147372 0
0.57747793 -0.071951628 -0.36802262 0
0.6803093 -0.081027508 -0.35493878 0
0.79690838 -0.059349775 -0.34561804 0
0.84484911 -0.12338781 -0.33622578 0
0.96134424 -0.053426027 -0.33671668 0
0.37151384 -0.014878511 -0.39932746 0
0.47713757 -0.013611555 -0.39212885 0
0.59110403 0.017450094 -0.38957447 0
0.79445171 0.01970315 -0.36359686 0
0.91059303 0.010600328 -0.34645462 0
0.46037245 0.061637402 -0.40730059 0
0.58881044 0.07016468 -0.40148196 0
0.65802193 0.074116707 -0.38829523 0
0.76563883 0.13213062 -0.38704988 0
0.23536682 -0.1587944 -0.37287053 0
0.22200012 -0.081745863 -0.38639379 0
-0.046784401 -0.006352663 -0.35693476 0
0.31491804 0.0076594353 -0.39758626 0
0.62540102 -5.2928925e-05 -0.36784163 0
0.73989344 0.051849365 -0.36574873 0
0.86104774 0.05072999 -0.35103098 0
0.25856113 0.11712527 -0.38829973 0
0.50708914 0.13154912 -0.40738952 0
0.57041597 0.12317014 -0.40162033 0
0.62086248 0.11049676 -0.39307255 0
0.71006584 0.15668321 -0.38759673 0
0.86114979 0.11764765 -0.36690611 0
0.96675014 0.13908267 -0.35479808 0
0.56926346 0.22094154 -0.40033844 0
0.74845314 0.24434304 -0.39982739 0
0.84512711 0.20381856 -0.38620242 0
0.95411587 0.23017025 -0.37596011 0
0.41773987 0.28524041 -0.38400209 0
0.6161871 0.35620475 -0.39977372 0
0.7420249 0.3364675 -0.39541134 0
0.88997793 0.3255415 -0.39422333 0
0.96393919 0.28370619 -0.37760493 0
0.68164539 0.43135834 -0.38873985 0
0.76912594 0.41857457 -0.38192955 0
0.91030455 0.3885169 -0.38713253 0
-0.11274099 0.049272537 -0.3566848 0
-0.2050662 0.1580205 -0.36490697 0
-0.15764809 0.10708261 -0.35306227 0
-0.051922798 0.13917828 -0.35287049 0
-0.25756407 0.22452807 -0.37352717 0
-0.17214727 0.21451306 -0.35960853 0
-0.045167446 0.24248862 -0.34748587 0
0.11633444 0.20450473 -0.35783136 0
-0.30666971 0.35007286 -0.40497285 0
-0.25822306 0.31861472 -0.39141607 0
-0.16454029 0.30279326 -0.37348908 0
-0.074426174 0.32158947 -0.36219144 0
0.023475647 0.33991861 -0.34857574 0
0.17569256 0.35105348 -0.34816605 0
-0.32033062 0.4161458 -0.41735139 0
-0.23238134 0.4211967 -0.40653977 0
-0.15947533 0.42049813 -0.39123872 0
-0.052504539 0.41871643 -0.37226629 0
0.039739132 0.4509232 -0.36034507 0
0.11555195 0.39170361 -0.35162988 0
0.22606897 0.44634962 -0.35682493 0
0.46905851 0.42539692 -0.37674642 0
0.47020769 0.48694301 -0.37098816 0
0.92992449 0.13863802 -0.36195958 0
0.95412874 0.090165377 -0.35148746 0
0.89708519 0.2661798 -0.39285094 0
0.94584227 0.21954131 -0.38435245 0
0.74337482 0.35528731 -0.40434843 0
0.83131027 0.3081336 -0.39908758 0
0.86495399 0.42658949 -0.40041441 0
0.9732399 0.49236512 -0.39382294 0
0.60969687 0.40120053 -0.40562865 0
0.71858788 0.45255446 -0.39692929 0
0.069013119 0.3867445 -0.35466099 0
0.038380623 0.43327928 -0.36556482 0
0.19100571 0.49447298 -0.36913142 0
0.29615402 0.4675889 -0.36891294 0
0.0099701881 0.46434522 -0.37279075 0
0.99636698 0.10550523 -0.34998339 0
0.92461443 0.20621753 -0.37074953 0
0.98345661 0.16899991 -0.36554289 0
0.88941288 0.2954998 -0.39215457 0
0.78670883 0.39179063 -0.40989313 0
0.88598394 0.43710685 -0.39697883 0
0.99775457 0.38114142 -0.38928959 0
0.99066496 0.49618816 -0.38787133 0
0.58060837 0.38437128 -0.39182943 0
0.68630314 0.43844748 -0.38331401 0
0.11322927 0.39616108 -0.35523543 0
0.067038059 0.4431603 -0.36498192 0
0.35962105 0.49193192 -0.37422854 0
-0.013435841 0.44698763 -0.36107671 0
0.72082758 -0.45473647 -0.31512886 0
0.92301989 -0.49452233 -0.2777673 0
0.72806168 -0.39869332 -0.31727952 0
0.96761513 -0.38709736 -0.28858447 0
0.72655487 -0.34429526 -0.3181622 0
0.76796532 -0.26937366 -0.32943246 0
0.78456879 -0.20371175 -0.33582255 0
0.79526329 -0.13146043 -0.3419202 0
0.84387732 -0.058360577 -0.35289523 0
0.60894012 -0.047467947 -0.38206851 0
0.62051821 0.0025084019 -0.38578388 0
0.89690447 0.021878958 -0.36625803 0
0.8905592 0.14408755 -0.37540314 0
0.92038059 0.10509443 -0.37727392 0
0.89997482 0.21452546 -0.38386652 0
0.35673666 -0.49803877 -0.32775542 0
0.41734076 -0.42928934 -0.3378495 0
0.011199951 -0.41354203 -0.35797819 0
0.43413496 -0.37281394 -0.34254667 0
0.46773005 -0.30337739 -0.35093176 0
0.090482235 -0.27289701 -0.36826715 0
0.12469482 -0.22923541 -0.37211961 0
0.50507927 -0.23990536 -0.35831216 0
0.53552914 -0.18199849 -0.36471888 0
0.54848242 -0.13542962 -0.36759114 0
-0.40165806 -0.44083285 -0.35331261 0
-0.0057444572 -0.36892247 -0.3518565 0
-0.36723328 -0.34702897 -0.3609677 0
-0.33760214 -0.23370123 -0.37542993 0
-0.14559031 -0.14658189 -0.36876673 0
-0.44902515 -0.13736582 -0.37552986 0
-0.23298693 -0.10096669 -0.36679557 0
-0.3660059 -0.003187418 -0.3701711 0
-0.29460335 -0.052186966 -0.36888433 0
-0.13505268 0.047859192 -0.35680503 0
-0.75136328 0.083023548 -0.45403913 0
-0.49959898 0.051515818 -0.39291888 0
-0.24257374 0.11582613 -0.35805398 0
-0.76691818 0.12292218 -0.45514157 0
-0.65282297 0.13789606 -0.44323194 0
-0.57689619 0.15517354 -0.42400897 0
-0.47189379 0.14049745 -0.40461874 0
-0.3626256 0.22423792 -0.39317542 0
-0.32364321 0.18527961 -0.39711678 0
-0.20032835 0.20393491 -0.3740617 0
-0.052707195 0.22252989 -0.35299855 0
-0.048448086 0.26457644 -0.35664296 0
-0.74586153 0.22677469 -0.47029132 0
-0.66503716 0.22990155 -0.45049307 0
-0.62609148 0.29342294 -0.4643375 0
-0.51461887 0.25714993 -0.43576592 0
-0.4105444 0.26424766 -0.41411147 0
-0.33824158 0.32647586 -0.40781283 0
-0.19128799 0.30097413 -0.3841908 0
-0.053612232 0.33807993 -0.36393774 0
-0.70252037 0.35153627 -0.49349484 0
-0.63205767 0.34879875 -0.47069821 0
-0.52799749 0.36458731 -0.45540524 0
-0.43777895 0.36744523 -0.43407232 0
-0.33090878 0.40045166 -0.4188686 0
-0.18770885 0.40393329 -0.397241 0
-0.01755476 0.43188906 -0.38110188 0
-0.71757746 0.44115615 -0.49744046 0
-0.62708569 0.41460681 -0.48137802 0
-0.54733896 0.45401573 -0.46719086 0
-0.45902729 0.46211362 -0.44750646 0
-0.17831993 0.48718214 -0.41005993 0
-0.90110874 -0.47463179 -0.39305478 0
-0.86109161 -0.49025059 -0.36766809 0
-0.72809267 -0.46535707 -0.35744888 0
-0.89886665 -0.41255665 -0.39382964 0
-0.83153963 -0.36877608 -0.38923043 0
-0.70617676 -0.36198354 -0.36518508 0
-0.85177994 -0.2748704 -0.40796965 0
-0.76554251 -0.26941156 -0.38433433 0
-0.69035721 -0.2260592 -0.37723827 0
-0.8452878 -0.18199611 -0.41522661 0
-0.75919962 -0.1652503 -0.39996314 0
-0.67649794 -0.14573574 -0.38463861 0
-0.84052181 -0.10262942 -0.42304605 0
-0.78666639 -0.076740026 -0.41857249 0
-0.68544006 -0.039859772 -0.40613341 0
-0.55236101 -0.05381918 -0.37561175 0
-0.78321028 0.0019676685 -0.43016499 0
-0.60748386 0.047638655 -0.40962616 0
-0.40768433 0.058555365 -0.37235671 0
-0.71039057 0.13303065 -0.4324289 0
-0.59754801 0.10634255 -0.41599381 0
0.68450403 -0.47288394 -0.31149071 0
0.90895224 -0.47291875 -0.27623531 0
0.73204327 -0.37698078 -0.31805846 0
0.94840574 -0.36432362 -0.28194743 0
0.45631123 -0.27877927 -0.34621289 0
0.76851082 -0.28177452 -0.32299599 0
0.48207426 -0.22409678 -0.34757012 0
0.81542969 -0.17458701 -0.33143663 0
0.58595133 -0.10305595 -0.36542362 0
0.86858702 -0.069852352 -0.33867732 0
0.61877918 -0.023737669 -0.3680326 0
0.90808249 0.030563593 -0.34521687 0
0.97595119 0.15999198 -0.36206657 0
0.98115158 0.22245884 -0.36467904 0
0.36007214 -0.42798638 -0.3343617 0
-0.20819998 -0.43019938 -0.34434339 0
-0.15957022 -0.3655014 -0.34699869 0
0.39839983 -0.34988236 -0.337789 0
-0.92937613 -0.37196565 -0.41255152 0
-0.1070261 -0.30939317 -0.35445765 0
0.021177769 -0.2255764 -0.37453264 0
-0.96061277 -0.28508711 -0.43227041 0
-0.87067461 -0.27393246 -0.40703875 0
-0.57865953 -0.21580172 -0.36882254 0
-0.21936798 -0.19506454 -0.35670182 0
-0.99411631 -0.19416237 -0.44325867 0
-0.88060951 -0.17069888 -0.42123431 0
-0.79414988 -0.17144227 -0.40454489 0
-0.35064793 -0.080795527 -0.36069304 0
-0.29190874 -0.12931728 -0.35921484 0
-0.99029112 -0.094391108 -0.45035809 0
-0.89064169 -0.057446241 -0.43653196 0
-0.78085327 -0.063925743 -0.41209552 0
-0.69096375 -0.048911572 -0.39434928 0
-0.18294001 0.013790369 -0.34056142 0
-0.92740631 0.0280931 -0.46424726 0
-0.82078362 0.027556896 -0.44204375 0
-0.69587564 0.028698444 -0.41958222 0
-0.60177898 0.058711529 -0.40242344 0
-0.53199053 0.069976807 -0.39173436 0
-0.38527107 0.12509823 -0.37399432 0
-0.9248271 0.11549973 -0.47875291 0
-0.80088377 0.13756204 -0.45951721 0
-0.68655396 0.14467764 -0.43753779 0
-0.57708025 0.19960356 -0.42401642 0
-0.51835728 0.16898441 -0.4092899 0
-0.45226049 0.19350553 -0.41085601 0
-0.33193684 0.19882393 -0.38628203 0
-0.19431973 0.20397186 -0.36171159 0
-0.17134476 0.25702477 -0.36667907 0
-0.02374649 0.24141359 -0.33947057 0
-0.99368191 0.19583368 -0.51008552 0
-0.92356777 0.21736622 -0.49558839 0
-0.8409524 0.22498989 -0.48370764 0
-0.71486568 0.24792171 -0.46173224 0
-0.63752651 0.28992319 -0.45450383 0
-0.53988981 0.28326273 -0.43510729 0
-0.4534111 0.27163291 -0.41242629 0
-0.30570793 0.27015495 -0.39282897 0
-0.148911 0.31812549 -0.37329835 0
0.014846802 0.33865166 -0.35109669 0
-0.95674801 0.31792712 -0.52070194 0
-0.84425402 0.31033468 -0.50399029 0
-0.75890493 0.36893177 -0.4928422 0
-0.63957119 0.36067009 -0.47174382 0
-0.52464628 0.4046092 -0.44777805 0
-0.43774986 0.38038039 -0.43206483 0
-0.27621031 0.38249826 -0.40424365 0
-0.11396027 0.38654876 -0.3839817 0
-0.093514919 0.45005655 -0.39182451 0
0.035084248 0.42384362 -0.35926828 0
-0.91597795 0.39615345 -0.52855444 0
-0.85707617 0.43245578 -0.52768135 0
-0.74903774 0.44203734 -0.50272375 0
-0.6229167 0.46632123 -0.47475412 0
-0.54600096 0.44381285 -0.44903553 0
-0.27079678 0.4901731 -0.41450602 0
-0.1113863 0.49376416 -0.39123973 0
-0.92945671 -0.48812079 -0.38752916 0
-0.84276772 -0.45579767 -0.37269911 0
-0.65108728 -0.43035603 -0.35053152 0
-0.85575533 -0.39326787 -0.37499201 0
-0.793396 -0.34736371 -0.36610359 0
-0.6425972 -0.3511734 -0.3517558 0
-0.84817266 -0.31560493 -0.38861424 0
-0.76208591 -0.2589345 -0.37395674 0
-0.59508562 -0.26192379 -0.36373943 0
-0.72947788 -0.15975213 -0.38367638 0
-0.60188675 -0.14748573 -0.37020713 0
-0.71143723 -0.090167046 -0.38964832 0
-0.60312557 -0.057973862 -0.37602091 0
-0.4353919 -0.0029480457 -0.36168712 0
-0.41732264 0.068350554 -0.36694127 0
-0.26775074 0.1158247 -0.3456018 0
-0.24814558 0.077413797 -0.34643111 0
0.20865965 -0.21624017 -0.36941114 0
0.64040613 -0.15944195 -0.34965694 0
0.98539829 -0.15250754 -0.3207261 0
0.6892767 -0.09133029 -0.35743672 0
0.73539066 -0.017275333 -0.36425322 0
0.77647924 0.069362402 -0.37340415 0
-0.94715977 0.09096837 -0.48204279 0
-0.87770033 0.12586141 -0.48045561 0
-0.94467831 0.20960665 -0.50714457 0
-0.8559866 0.21863723 -0.49033645 0
-0.7603898 0.2220397 -0.47626472 0
-0.9363265 0.2973814 -0.51534504 0
-0.86667299 0.33628964 -0.51415658 0
-0.76199007 0.33661771 -0.49439359 0
-0.60631561 0.36651516 -0.47322327 0
-0.970397 0.39734101 -0.53998226 0
-0.90069151 0.44772315 -0.53539246 0
-0.78280449 0.44944763 -0.50651062 0
-0.71743202 0.42321682 -0.49874717 0
-0.61508656 0.46989584 -0.48239827 0
0.85766315 -0.46777773 -0.29226729 0
-0.071951389 -0.47587109 -0.34205899 0
0.50412941 -0.41018414 -0.32599109 0
0.89596081 -0.36012173 -0.30034703 0
-0.99729347 -0.4714067 -0.41120774 0
-0.89241123 -0.48127556 -0.3817035 0
-0.79328775 -0.46242285 -0.36531061 0
-0.54236889 -0.45869207 -0.34682542 0
-0.045406342 -0.41532373 -0.34082091 0
0.018244267 -0.34326816 -0.3506802 0
0.54692554 -0.31194806 -0.33527806 0
0.92783928 -0.25157547 -0.30736506 0
-0.98448467 -0.3926096 -0.42332077 0
-0.89372587 -0.37986326 -0.40191585 0
-0.80070591 -0.36273789 -0.37821472 0
-0.50677824 -0.34574938 -0.35910207 0
0.10706091 -0.28271556 -0.36102092 0
0.57317877 -0.24506116 -0.33867294 0
-0.99288654 -0.28108549 -0.43384206 0
-0.89574623 -0.29178166 -0.41356987 0
-0.80287504 -0.28258228 -0.38626331 0
-0.7462697 -0.23344755 -0.38055292 0
-0.51285028 -0.24529839 -0.36457509 0
-0.19646358 -0.15854979 -0.35757196 0
0.97933722 -0.096464157 -0.31971452 0
-0.9782052 -0.18471551 -0.44316864 0
-0.91852283 -0.1855154 -0.42467254 0
-0.83204365 -0.16244626 -0.40591201 0
-0.72594833 -0.13673401 -0.38937616 0
-0.60684395 -0.104316 -0.37136385 0
-0.52797461 -0.16676164 -0.3693434 0
-0.29408503 -0.096374512 -0.3590067 0
-0.97459173 -0.074178457 -0.45217973 0
-0.91432953 -0.091329098 -0.44206572 0
-0.7871666 -0.054888725 -0.42047566 0
-0.7110405 -0.066122055 -0.39423811 0
-0.66796589 -0.0079388618 -0.40437418 0
-0.57431364 -0.03362155 -0.37802804 0
-0.39711952 0.030254602 -0.36937785 0
-0.37472296 -0.041013002 -0.36124828 0
-0.95325422 -0.0069549084 -0.45920074 0
-0.86589003 0.0060679913 -0.44557172 0
-0.74547148 0.028139353 -0.43112409 0
-0.6447072 0.063751698 -0.41037953 0
-0.52681255 0.072337627 -0.38835645 0
-0.38993454 0.073110104 -0.37029642 0
-0.38289261 0.11314821 -0.37140673 0
-0.17058659 0.11721992 -0.35132191 0
-0.8221941 0.10947871 -0.45838743 0
-0.70711708 0.1008904 -0.44117847 0
-0.65833092 0.16774726 -0.43905866 0
-0.57365942 0.20922089 -0.42891037 0
-0.44772482 0.194731 -0.40676337 0
-0.31220531 0.20062757 -0.38719243 0
-0.16350603 0.2270925 -0.35799363 0
-0.68199158 0.23940349 -0.45121405 0
-0.55687237 0.26037169 -0.43393114 0
-0.42919111 0.27364564 -0.41172904 0
-0.40677214 0.33178687 -0.4178952 0
-0.29337502 0.27527308 -0.39134645 0
-0.11208296 0.33081365 -0.3710334 0
-0.64957619 0.30417681 -0.4611055 0
-0.51603794 0.35029602 -0.44627771 0
-0.38782787 0.3928535 -0.42542973 0
-0.27226973 0.36412168 -0.39911732 0
-0.22238779 0.43893385 -0.41321394 0
-0.072642326 0.43552661 -0.38390228 0
0.10124445 0.49151278 -0.35671645 0
0.22455549 0.45818257 -0.36030105 0
-0.62952232 0.40515947 -0.47254723 0
-0.52452469 0.45496893 -0.45546353 0
-0.38591766 0.48696589 -0.43746734 0
-0.98046684 0.29079485 -0.52951419 0
-0.97181368 0.41538548 -0.54690129 0
0.50252867 -0.49333954 -0.31644189 0
0.90657091 -0.43053651 -0.29192406 0
-0.63587904 -0.46810985 -0.35058552 0
-0.053261757 -0.442981 -0.34239441 0
0.5410018 -0.37128949 -0.33184418 0
0.90126657 -0.33439493 -0.2982251 0
-0.98216248 -0.45310163 -0.40405697 0
-0.86840487 -0.43873429 -0.37364179 0
-0.67288589 -0.41517735 -0.35412973 0
-0.049073219 -0.34954309 -0.35330191 0
0.51520872 -0.29097676 -0.33450255 0
0.9268527 -0.23887563 -0.31053746 0
-0.99844551 -0.33890843 -0.43732083 0
-0.884624 -0.3292644 -0.40488446 0
-0.81256819 -0.33875179 -0.37945271 0
-0.72731638 -0.33473921 -0.35867056 0
-0.18623495 -0.21534753 -0.36318058 0
-0.071568012 -0.29228997 -0.35568991 0
0.58397532 -0.15887642 -0.35470045 0
0.96265364 -0.11551404 -0.3281391 0
-0.98937035 -0.28135896 -0.4388597 0
-0.87194586 -0.22836232 -0.41675436 0
-0.80507517 -0.24550819 -0.3889527 0
-0.69258642 -0.21583128 -0.37607408 0
-0.36245346 -0.15179753 -0.3619979 0
0.59295368 -0.095793962 -0.35915041 0
0.96887445 0.0088217258 -0.3411479 0
-0.89964676 -0.14155078 -0.44040743 0
-0.81486607 -0.14674735 -0.39827526 0
-0.70944214 -0.12827492 -0.38145524 0
-0.4363637 -0.079565525 -0.37259108 0
-0.13970518 -0.023855448 -0.35212985 0
0.96219158 0.075512409 -0.34696001 0
-0.9338913 -0.053348541 -0.45115376 0
-0.83496714 -0.053628206 -0.43022132 0
-0.76621342 -0.005646944 -0.4199993 0
-0.6660037 -0.011870861 -0.39869091 0
-0.5151124 -0.0003259182 -0.37721527 0
-0.28850222 0.037027359 -0.35593075 0
0.99370527 0.17260027 -0.36267319 0
-0.92652655 0.056376934 -0.47574541 0
-0.82270527 0.080685854 -0.45791277 0
-0.73851776 0.077441931 -0.43183431 0
-0.63967037 0.093652248 -0.41153824 0
-0.4603529 0.12518096 -0.39609635 0
-0.31491709 0.12389541 -0.36590958 0
-0.91410017 0.14924288 -0.48734131 0
-0.86510372 0.14767218 -0.4761197 0
-0.73085165 0.15055251 -0.43952852 0
-0.69304371 0.22000241 -0.45262101 0
-0.57452631 0.2227509 -0.43405628 0
-0.44327545 0.2269125 -0.40682155 0
-0.25775576 0.25284648 -0.38527071 0
-0.95685387 0.23668432 -0.50839025 0
-0.76849079 0.2472918 -0.48367083 0
-0.64898443 0.29036617 -0.46715498 0
-0.56612444 0.30339408 -0.44263953 0
-0.37339973 0.34801102 -0.42940366 0
-0.21838427 0.36143017 -0.40151796 0
-0.022212029 0.32626104 -0.37109226 0
-0.88292551 0.32828116 -0.51293695 0
-0.76003742 0.37441278 -0.49951622 0
-0.63747263 0.37142968 -0.47783101 0
-0.54619598 0.3934269 -0.45629951 0
-0.38471889 0.42278695 -0.43686232 0
-0.24328804 0.43304443 -0.40562779 0
-0.87894249 0.42522979 -0.52579212 0
-0.76605988 0.47726464 -0.51297832 0
-0.65255213 0.47244883 -0.4899869 0
-0.47762871 0.4793098 -0.4347108 0
-0.083618164 0.17334914 -0.34351084 0
-0.10898304 0.22566605 -0.34755456 0
-0.067315578 0.37262273 -0.36840749 0
-0.063420296 0.46089721 -0.37876993 0
0.77302504 -0.49620867 -0.298888 0
0.32443523 -0.46117115 -0.33794561 0
0.77488375 -0.40734625 -0.31065893 0
0.71212578 -0.3609314 -0.30734599 0
0.38919926 -0.2459178 -0.36540851 0
0.73270226 -0.24856806 -0.32635722 0
0.76505709 -0.12080359 -0.34799773 0
0.8053956 0.011458158 -0.36671516 0
-0.48712397 -0.4577558 -0.35234934 0
0.33250523 -0.39587688 -0.34362191 0
0.33255625 -0.33470106 -0.34831145 0
-0.15439987 -0.16285729 -0.36280948 0
-0.98172092 -0.15191269 -0.45928526 0
-0.97878218 0.17529058 -0.50450391 0
-0.84868288 0.21499801 -0.48959878 0
-0.97232819 0.25394797 -0.51700938 0
-0.97868586 0.30429697 -0.52379221 0
-0.96249008 0.3653214 -0.53574389 0
-0.84532499 0.35463166 -0.51080209 0
-0.68881798 0.38023639 -0.4977957 0
-0.93078613 0.45867491 -0.5429672 0
-0.86042595 0.42762208 -0.52023888 0
-0.85848141 -0.48686957 -0.36523604 0
-0.94384098 -0.44566941 -0.39180827 0
-0.83886147 -0.40917778 -0.37602299 0
-0.54315042 -0.40424013 -0.35474306 0
-0.90074778 -0.32917094 -0.41102168 0
-0.83728456 -0.30708027 -0.38672647 0
-0.65493155 -0.30533361 -0.36411163 0
-0.9999795 -0.24972463 -0.44287854 0
-0.9094739 -0.2308073 -0.42102611 0
-0.83342743 -0.19676661 -0.40037298 0
-0.72041321 -0.21741581 -0.37105161 0
-0.69400167 -0.15450811 -0.38265926 0
-0.92255831 -0.12197876 -0.4347319 0
-0.86526394 -0.13876319 -0.4224337 0
-0.70529985 -0.10957575 -0.38703507 0
-0.3363719 -0.10400295 -0.36546108 0
-0.88361835 -0.029369831 -0.44039899 0
-0.81156206 -0.047849655 -0.42411408 0
-0.66544771 -0.010281324 -0.4037025 0
-0.53857231 0.0092275143 -0.37193304 0
-0.50121307 -0.022302866 -0.37536204 0
-0.31386471 0.091635942 -0.35707945 0
-0.14320564 0.051427126 -0.35785419 0
-0.89570856 0.067906618 -0.46303344 0
-0.78459072 0.088699341 -0.44386476 0
-0.65566301 0.097070694 -0.4168433 0
-0.48740339 0.1100297 -0.39127114 0
-0.27076101 0.16965628 -0.37245363 0
-0.10255194 0.18498945 -0.3388373 0
-0.8708787 0.15456033 -0.47782364 0
-0.76176405 0.2057519 -0.46204555 0
-0.63331223 0.18750191 -0.43104246 0
-0.44556999 0.24873877 -0.41407323 0
-0.2776165 0.25472975 -0.38065261 0
-0.081784248 0.29827547 -0.35811999 0
-0.86560583 0.26038313 -0.49363491 0
-0.73068857 0.30156994 -0.48004869 0
-0.58245277 0.29717159 -0.45285171 0
-0.48313951 0.30561137 -0.41507724 0
-0.23866796 0.37029171 -0.40226093 0
-0.063726902 0.4061749 -0.37682194 0
-0.73318148 0.41352177 -0.49657705 0
-0.58905077 0.41034245 -0.46904719 0
-0.46027184 0.42489886 -0.43923199 0
-0.25456285 0.4620955 -0.41465062 0
-0.098331928 0.46168137 -0.38063669 0
-0.78177786 0.45571518 -0.49884063 0
-0.63622332 0.48671985 -0.47795647 0
0.12895489 -0.49156737 -0.33781844 0
0.6855464 -0.41862392 -0.31485081 0
0.090240479 -0.42822337 -0.34162238 0
0.63853407 -0.36632466 -0.31370226 0
0.085699081 -0.33677101 -0.35590777 0
0.12997532 -0.26519728 -0.36518598 0
0.68749666 -0.24716496 -0.336842 0
0.66772556 -0.17767239 -0.34140936 0
0.72279167 -0.081235647 -0.35797763 0
-0.99711466 -0.26734614 -0.43856034 0
-0.86650419 -0.23837233 -0.41556168 0
-0.26916456 -0.17294765 -0.37243018 0
-0.46484756 -0.1193161 -0.37441605 0
-0.16497898 -0.028383255 -0.35416907 0
-0.97698927 0.07948637 -0.48757252 0
-0.86070156 0.045594931 -0.45266849 0
-0.71567488 0.056218863 -0.42515838 0
-0.53738689 0.13620543 -0.40685499 0
-0.35541534 0.16191626 -0.37927058 0
-0.07384491 0.17288804 -0.34100541 0
-0.97754955 0.20246005 -0.50353765 0
-0.94725466 0.17482114 -0.50437748 0
-0.83261824 0.19369054 -0.47453848 0
-0.6967802 0.17768312 -0.44129881 0
-0.51667452 0.23232532 -0.42073551 0
-0.34218073 0.2288096 -0.38826418 0
-0.090921402 0.29511547 -0.36030692 0
-0.96729279 0.26518989 -0.5140233 0
-0.84126425 0.27005219 -0.48352987 0
-0.65600109 0.28178144 -0.46044034 0
-0.48919678 0.33035803 -0.43669224 0
-0.31710768 0.33473921 -0.40508461 0
-0.066125393 0.42167187 -0.38235894 0
-0.94593573 0.35720491 -0.53094447 0
-0.79553366 0.38638902 -0.50725019 0
-0.64190626 0.41150856 -0.48167342 0
-0.52724886 0.42045808 -0.44742632 0
-0.31442213 0.43873572 -0.42113784 0
-0.074025631 0.4817431 -0.39052099 0
-0.95359421 0.47697306 -0.54997653 0
-0.84272099 0.45853186 -0.51396132 0
-0.82115602 -0.49742341 -0.35077184 0
-0.92715836 -0.43432426 -0.38614315 0
-0.80107594 -0.43108559 -0.35985649 0
-0.79914856 -0.37251925 -0.36532718 0
-0.88871479 -0.32850933 -0.40269664 0
-0.79064417 -0.31840277 -0.37188628 0
-0.91426659 -0.2056756 -0.4127326 0
-0.77474642 -0.22814918 -0.38370845 0
-0.88619375 -0.13050246 -0.42768565 0
-0.73792076 -0.088547945 -0.40693608 0
-0.60961771 -0.068058252 -0.37531221 0
-0.90622568 -0.050007105 -0.43509734 0
-0.73059511 0.0011687279 -0.41717362 0
-0.58227873 0.030544281 -0.3887676 0
-0.36800051 0.026309967 -0.36013117 0
-0.88238144 0.086110353 -0.45345801 0
-0.74923182 0.093468904 -0.42323655 0
-0.37468386 0.09675622 -0.36976826 0
0.70182228 -0.37456608 -0.31494808 0
0.67945719 -0.24194098 -0.33120957 0
0.74075794 -0.090052128 -0.35747248 0
-0.088628769 -0.38460588 -0.34669366 0
-0.00068044662 -0.44711041 -0.34413338 0
-0.96618652 -0.39965749 -0.40350223 0
-0.84535837 -0.40308309 -0.3721891 0
-0.17218161 -0.31236267 -0.35342288 0
-0.94045019 -0.32961845 -0.41509157 0
-0.85191774 -0.32705736 -0.37876421 0
-0.31355953 -0.20576048 -0.37422687 0
-0.94275618 -0.25025415 -0.4243336 0
-0.84418201 -0.17387533 -0.3988907 0
-0.81118536 -0.21743584 -0.39757839 0
-0.6511488 -0.15429068 -0.3726908 0
-0.94909143 -0.11907387 -0.44320145 0
-0.7972436 -0.075324535 -0.4209418 0
-0.6865077 -0.098940849 -0.37867713 0
-0.21550798 -0.065075874 -0.35097897 0
-0.95930243 -0.034515142 -0.4536925 0
-0.80924416 -0.030265808 -0.42311594 0
-0.67062426 -0.0026531219 -0.39026058 0
-0.45440006 0.0036001205 -0.36302394 0
-0.43397951 0.073857069 -0.37311241 0
-0.94376993 0.022608042 -0.46252304 0
-0.93686199 0.08160162 -0.47047392 0
-0.76656246 0.078246117 -0.44174013 0
-0.62143946 0.10863948 -0.40994257 0
-0.40545225 0.15269637 -0.38591433 0
-0.15488529 0.17230296 -0.34615675 0
-0.92187166 0.14271808 -0.48040491 0
-0.76405096 0.16117096 -0.45157233 0
-0.73014069 0.23274159 -0.46577287 0
-0.57509279 0.21913481 -0.42999363 0
-0.40028381 0.24335146 -0.39670762 0
-0.14761686 0.2430892 -0.35434407 0
-0.89480591 0.2480433 -0.49928343 0
-0.7309351 0.2964468 -0.47443372 0
-0.55532932 0.32843542 -0.44626468 0
-0.34463978 0.37172365 -0.4220942 0
-0.10837221 0.36687803 -0.37803167 0
-0.93001747 0.31476068 -0.50404841 0
-0.87143087 0.40754199 -0.52683693 0
-0.71713829 0.36820436 -0.48691601 0
-0.55262423 0.42823958 -0.46411416 0
-0.37294865 0.42742133 -0.42747587 0
-0.14293766 0.46838021 -0.3897042 0
-0.90044546 0.46190143 -0.53303456 0
-0.70949697 0.47616196 -0.50776547 0
0.91053057 -0.38271356 -0.30068389 0
0.33822203 -0.42318964 -0.33589903 0
0.35946894 -0.33124924 -0.34894073 0
0.88673306 -0.3196156 -0.30371925 0
0.38861036 -0.24582338 -0.36030087 0
0.89449406 -0.22426748 -0.31672591 0
0.88064766 -0.12419367 -0.33255383 0
0.87740946 -0.028587818 -0.34455445 0
-0.85831499 -0.38072872 -0.37537485 0
-0.96959257 -0.33861399 -0.41748646 0
-0.83388948 -0.3095994 -0.38731873 0
-0.94295311 -0.22851872 -0.43637949 0
-0.83833838 -0.21503425 -0.39838681 0
-0.46292114 -0.16784167 -0.37209308 0
-0.96341372 -0.13314056 -0.44884789 0
-0.84632921 -0.1096766 -0.41393268 0
-0.68528366 -0.10594988 -0.37878293 0
-0.98415089 -0.03905797 -0.46142498 0
-0.82141781 -0.0082838535 -0.43023214 0
-0.66183519 -0.031778097 -0.38981247 0
-0.61075926 0.050314903 -0.40681279 0
-0.41009521 0.078168392 -0.37116408 0
-0.32338572 0.028166771 -0.36800545 0
-0.97593546 0.013850451 -0.46873951 0
-0.94242573 0.089007378 -0.48313206 0
-0.78864574 0.098358154 -0.44753987 0
-0.60829067 0.12295437 -0.41500056 0
-0.43770218 0.12388158 -0.37119758 0
-0.95321941 0.17502069 -0.49310517 0
-0.79477119 0.21053743 -0.46035004 0
-0.75893068 0.18089294 -0.46225548 0
-0.58598328 0.19242716 -0.4265779 0
-0.56344461 0.26437593 -0.43889958 0
-0.3929739 0.20785117 -0.38808179 0
-0.37648678 0.29456806 -0.40108842 0
-0.082146645 0.29131341 -0.35549313 0
-0.93094635 0.28529024 -0.51272428 0
-0.75562668 0.30432749 -0.47981071 0
-0.54995966 0.3306694 -0.44938099 0
-0.34238148 0.37437463 -0.41812584 0
-0.059577942 0.42709827 -0.38068995 0
-0.90648031 0.38755012 -0.53239471 0
-0.77014494 0.39125228 -0.49174747 0
-0.54658413 0.41371346 -0.46359912 0
-0.33813334 0.46367788 -0.43432033 0
-0.10505295 0.49046898 -0.38578761 0
-0.93247366 0.47328305 -0.54420298 0
-0.79193878 0.49156213 -0.50959879 0
0.93795824 -0.47017002 -0.26410601 0
0.95356417 -0.37854743 -0.27540156 0
0.43568039 -0.26175547 -0.35449094 0
0.98905468 -0.17455935 -0.30243784 0
0.40902042 -0.43279648 -0.33461693 0
0.41080666 -0.34835172 -0.34495598 0
-0.86623001 -0.38669562 -0.38948524 0
-0.86889315 -0.32800007 -0.39483726 0
-0.99019337 -0.23895192 -0.43997282 0
-0.86998749 -0.22616935 -0.40640476 0
-0.70204163 -0.18538523 -0.37269673 0
-0.99422169 -0.13517284 -0.45543665 0
-0.85108423 -0.10931349 -0.42684484 0
-0.67270279 -0.10032034 -0.38801873 0
-0.86963463 -0.048459053 -0.43234944 0
-0.8707037 0.0094149113 -0.4371655 0
-0.63586187 0.013453245 -0.40329337 0
-0.38113594 0.053185701 -0.35918653 0
-0.9705534 0.077754498 -0.48712373 0
-0.8114171 0.10135603 -0.45627487 0
-0.58192301 0.13676357 -0.42338732 0
-0.35074043 0.13365817 -0.37092298 0
-0.024504185 0.2476418 -0.33219847 0
-0.9939971 0.18506217 -0.49607497 0
-0.96425104 0.13947129 -0.4951275 0
-0.78383017 0.1790781 -0.46883547 0
-0.62545681 0.23911262 -0.42547172 0
-0.59089279 0.19663882 -0.42729476 0
-0.305655 0.231565 -0.38731009 0
-0.29826736 0.30617833 -0.39545548 0
-0.030101776 0.32228708 -0.34214807 0
-0.96594954 0.26387835 -0.51083815 0
-0.78281927 0.28340721 -0.48147798 0
-0.56203747 0.34025431 -0.44693133 0
-0.28232622 0.38704181 -0.40950349 0
-0.0082015991 0.42033553 -0.36002636 0
-0.94894838 0.36918426 -0.52810019 0
-0.77930927 0.37965679 -0.49478775 0
-0.56273603 0.42030501 -0.4607591 0
-0.30282879 0.4527626 -0.41696942 0
-0.93793726 0.48143649 -0.54798043 0
-0.77368593 0.49521494 -0.51720744 0
