# .PCD v0.7 - Point Cloud Data file format
VERSION 0.7
FIELDS x y z intensity
SIZE 4 4 4 4
TYPE F F F F
COUNT 1 1 1 1
WIDTH 1294
HEIGHT 1
VIEWPOINT 0 0 0 1 0 0 0
POINTS 1294
DATA ascii
-0.89603233 -0.3737483 0.56808925 0
-0.80092907 -0.33981991 0.603742 0
-0.54922009 -0.22575331 0.59669948 0
-0.47881222 -0.22466326 0.62089294 0
-0.94021511 -0.27717829 0.56601501 0
-0.83800411 -0.29271841 0.57449532 0
-0.90315056 -0.19761896 0.57668048 0
-0.93777943 -0.086009026 0.58119887 0
-0.6742363 -0.49867153 0.052016735 0
-0.55390072 -0.49142647 0.19513363 0
-0.85855961 -0.43245506 0.22787875 0
-0.78075123 -0.36532879 0.24025548 0
-0.92034531 -0.44496059 0.19784361 0
-0.88982773 -0.40573931 0.19920892 0
-0.81393051 -0.37405872 0.23349631 0
-0.44776821 -0.49142504 0.35533667 0
-0.46239471 -0.43744802 0.31666648 0
-0.71574402 -0.46443892 0.28781742 0
-0.84803581 -0.46466064 0.25304782 0
-0.78834343 -0.38668013 0.25618804 0
-0.96044445 -0.49580097 0.31921744 0
-0.96471977 -0.48200321 0.36261332 0
-0.70257568 -0.47338343 0.49023235 0
-0.67589092 -0.41059494 0.52585566 0
-0.87321854 -0.47679567 0.48835802 0
-0.79419041 -0.39540291 0.51428628 0
-0.69342041 -0.32224846 0.52761084 0
-0.55346298 -0.20769405 0.5404976 0
-0.49299812 -0.19683266 0.5185535 0
-0.97824097 -0.46560144 0.51027745 0
-0.92646885 -0.40225983 0.50535005 0
-0.86587906 -0.31383133 0.54149133 0
-0.80269814 -0.29891872 0.52241385 0
-0.70534897 -0.25135994 0.52712804 0
-0.59637928 -0.13994551 0.54820561 0
-0.56581593 -0.072670937 0.53771609 0
-0.96226311 -0.34321022 0.50197881 0
-0.94596195 -0.28903818 0.53173602 0
-0.86359501 -0.22309256 0.5140565 0
-0.99284077 -0.19506836 0.52158707 0
-0.92095661 -0.17626953 0.53134525 0
-0.98261261 -0.089706898 0.53492248 0
-0.95101547 -0.016652107 0.53912592 0
-0.6092701 -0.47889423 0.62585133 0
-0.53108406 -0.4463439 0.66038889 0
-0.62072563 -0.4393363 0.5959034 0
-0.57589722 -0.297925 0.59620452 0
-0.51063824 -0.28615284 0.62135082 0
-0.80416203 -0.40620947 0.61504972 0
-0.9280405 -0.41034222 0.55512661 0
-0.85842133 -0.35110378 0.57682306 0
-0.95815945 -0.34119797 0.5446018 0
-0.93714523 -0.26964664 0.58690321 0
-0.89494133 -0.19229555 0.61238998 0
-0.93082714 -0.21076679 0.563079 0
-0.92851734 -0.16529274 0.61791962 0
-0.49049568 -0.47706175 0.691396 0
-0.95157909 -0.43408298 0.67575556 0
-0.93592644 -0.25081491 0.66080165 0
-0.95512104 -0.16254568 0.67151821 0
-0.72695541 -0.46324348 0.034773827 0
-0.55296516 -0.44015312 0.18397874 0
-0.92188072 -0.36769342 0.15882605 0
-0.54355431 -0.49098921 0.22904658 0
-0.93050671 -0.48276424 0.21545345 0
-0.88064766 -0.47230387 0.2400583 0
-0.80699444 -0.40788174 0.25051552 0
-0.9396553 -0.45102501 0.17849094 0
-0.90824509 -0.41855812 0.20032763 0
-0.85290337 -0.37423897 0.21243584 0
-0.46051025 -0.46401787 0.33110452 0
-0.45644665 -0.42300987 0.31904054 0
-0.73998928 -0.47862053 0.29119444 0
-0.85029221 -0.4917202 0.28219801 0
-0.51589012 -0.25724554 0.52811062 0
-0.48909187 -0.24828434 0.51621509 0
-0.87025833 -0.48656654 0.40675664 0
-0.53104019 -0.16150188 0.53025508 0
-0.93149662 -0.46040106 0.38205171 0
-0.56669903 -0.082949162 0.5383184 0
-0.98195553 -0.093052387 0.49101943 0
-0.69103527 -0.43508863 0.50432515 0
-0.60774612 -0.39217567 0.5785014 0
-0.87565994 -0.49410725 0.51360846 0
-0.83941936 -0.44852543 0.48464614 0
-0.77808952 -0.34680176 0.51839811 0
-0.69325256 -0.3245306 0.52703619 0
-0.55937386 -0.24314356 0.55993229 0
-0.52496052 -0.18556786 0.56653935 0
-0.91509819 -0.44661713 0.49616867 0
-0.9083271 -0.36839676 0.52870131 0
-0.8139019 -0.32130527 0.51047599 0
-0.72613907 -0.23518753 0.52436227 0
-0.6368866 -0.16799545 0.55717742 0
-0.57383442 -0.10032654 0.54956132 0
-0.93711376 -0.28684855 0.53905272 0
-0.87103558 -0.22157812 0.52285701 0
-0.93927765 -0.16720486 0.54368353 0
-0.89801598 -0.13536072 0.55759752 0
-0.98472977 -0.086782932 0.53307998 0
-0.95404148 -0.0054140091 0.54621154 0
-0.53302002 -0.44112968 0.65844721 0
-0.62448788 -0.46224546 0.61466974 0
-0.60616684 -0.42080927 0.60821193 0
-0.84501934 -0.38737345 0.59323084 0
-0.79159737 -0.33912611 0.61244684 0
-0.9460125 -0.28585815 0.61408353 0
-0.91628361 -0.23174858 0.59616369 0
-0.96222115 -0.18135309 0.657498 0
-0.90835667 -0.13797045 0.67296839 0
-0.97907448 -0.47062254 0.71131599 0
-0.91017342 -0.47055149 0.75315654 0
0.8871336 0.33371496 -0.35062695 0
0.87741375 0.42356014 -0.34729123 0
0.94618511 -0.49935865 -0.3996985 0
0.93306828 -0.41275501 -0.39088583 0
0.90778637 -0.31829023 -0.37914991 0
0.66192532 -0.40939856 -0.37545002 0
0.83478832 -0.20953703 -0.36088514 0
0.58202076 -0.34120274 -0.35481429 0
0.59325314 -0.31942272 -0.35716164 0
0.7996769 -0.13815784 -0.34969461 0
0.4281559 -0.31582928 -0.35637617 0
0.58252621 -0.21656799 -0.34955668 0
0.6108284 -0.1333003 -0.35014677 0
0.83806896 -0.013773441 -0.35177577 0
0.86319637 0.082342148 -0.35240543 0
0.33048344 -0.27354002 -0.36592197 0
0.44471169 -0.23227024 -0.35532093 0
0.46714306 -0.13664436 -0.35470641 0
0.64092922 -0.030817986 -0.35067546 0
0.66963196 0.08700943 -0.352808 0
0.87886524 0.20157909 -0.35195839 0
0.88262177 0.25876999 -0.35121369 0
0.34483719 -0.17896175 -0.36425841 0
0.36216164 -0.068164825 -0.36451781 0
0.49863625 -0.0071382523 -0.35577321 0
0.51857281 0.089055538 -0.35717118 0
0.68328381 0.15150976 -0.35346115 0
0.69290543 0.21601772 -0.35322249 0
0.87398434 0.3370266 -0.3474654 0
0.36551094 -0.022993565 -0.3633287 0
0.38275242 0.069507122 -0.36486948 0
0.54070091 0.20635366 -0.35957968 0
0.71194363 0.3512516 -0.35478306 0
0.38800049 0.11040068 -0.36507821 0
0.39780045 0.18985844 -0.3661927 0
0.55196381 0.28232193 -0.36073101 0
0.55068493 0.3621521 -0.36026442 0
0.70050716 0.42512035 -0.35247564 0
0.39708233 0.31798267 -0.36605024 0
0.38326454 0.37841558 -0.3641777 0
0.52860546 0.45658541 -0.3571707 0
0.36458588 0.46072006 -0.36226785 0
0.39340019 -0.48352718 -0.36129606 0
0.28544807 -0.49518108 -0.37047803 0
0.30355358 -0.40615463 -0.36630189 0
0.40957928 -0.40532923 -0.35762 0
-0.53978729 -0.46612215 0.21404922 0
-0.91624069 -0.46631098 0.2014094 0
-0.78329849 -0.34730911 0.2309168 0
-0.92831993 -0.45729733 0.20127672 0
-0.90563107 -0.39844608 0.18616426 0
-0.8318243 -0.34239674 0.21161038 0
-0.51985741 -0.46872807 0.25656402 0
-0.50245476 -0.44513035 0.26799154 0
-0.8691082 -0.46212673 0.24429786 0
-0.79345798 -0.38478756 0.25100881 0
-0.88657188 -0.42096186 0.21972179 0
-0.86399555 -0.46875858 0.37789148 0
-0.97846222 -0.47368526 0.34780401 0
-0.90199471 -0.42638922 0.3713966 0
-0.70764637 -0.49297285 0.47780752 0
-0.6760149 -0.38180065 0.52864546 0
-0.5245657 -0.21784735 0.53746992 0
-0.48973751 -0.19840765 0.51963764 0
-0.86233521 -0.46761513 0.48403388 0
-0.82705116 -0.39136124 0.48728389 0
-0.70588017 -0.32405853 0.5340569 0
-0.67670441 -0.24913645 0.52762353 0
-0.55288315 -0.22379971 0.5495972 0
-0.53792477 -0.15426826 0.53765333 0
-0.90847778 -0.40347385 0.48797333 0
-0.82081223 -0.27573299 0.50909263 0
-0.74283123 -0.24619198 0.51793462 0
-0.60326958 -0.14138508 0.55282354 0
-0.56324577 -0.0972085 0.53975523 0
-0.94515514 -0.3013196 0.51391 0
-0.87173843 -0.20348549 0.51492232 0
-0.99538612 -0.18675518 0.51175344 0
-0.97692299 -0.13199663 0.51600099 0
-0.88008785 -0.092748642 0.51844794 0
-0.97826576 -0.073990822 0.52524555 0
-0.94747639 -0.018108368 0.5354808 0
-0.47146225 -0.32913733 0.62952834 0
-0.63278198 -0.43203068 0.57116354 0
-0.58254242 -0.39220905 0.61085129 0
-0.5176363 -0.2375617 0.61494005 0
-0.87805176 -0.49877167 0.53360087 0
-0.4847002 -0.17095757 0.60743588 0
-0.97285652 -0.42715263 0.52730352 0
-0.87732029 -0.35372925 0.57033491 0
-0.93548965 -0.26596832 0.5702197 0
-0.89694691 -0.21699762 0.60694855 0
-0.96288013 -0.12280273 0.55303067 0
-0.89417171 -0.10596418 0.578228 0
-0.96927261 -0.034379482 0.55373406 0
-0.99203014 -0.39094162 0.66756147 0
-0.89901924 -0.17623043 0.66259784 0
-0.96354008 -0.1539669 0.67532599 0
-0.88760662 -0.42380333 0.74046433 0
0.99567032 0.42694664 -0.34323895 0
0.80322647 0.3584218 -0.35074604 0
0.99138927 0.47816896 -0.34161305 0
0.80175877 0.41659975 -0.34990919 0
0.79922676 0.49257374 -0.34915292 0
0.60920048 0.43998814 -0.3550694 0
0.42751598 0.42875719 -0.36006665 0
0.58877754 0.4940877 -0.35205007 0
-0.37685966 0.34379721 -0.3995409 0
-0.31859303 0.40391397 -0.39039564 0
-0.42316151 0.36315727 -0.40141213 0
-0.37396908 0.44686842 -0.39507091 0
0.90986919 -0.43834829 -0.39313221 0
0.89631271 -0.36372423 -0.38778639 0
0.84718323 -0.29935694 -0.37736952 0
0.99847889 -0.13995838 -0.35970449 0
0.76552963 -0.2449379 -0.361449 0
0.95731544 -0.077916622 -0.3499037 0
0.96416092 -0.01235199 -0.34862304 0
0.34925556 -0.47314835 -0.36599648 0
0.46916199 -0.41969538 -0.35212195 0
0.4821949 -0.33006096 -0.35049486 0
0.69870186 -0.19717169 -0.34797907 0
0.7216053 -0.11679459 -0.34931552 0
0.98459625 0.10913229 -0.34977281 0
0.98450279 0.15326166 -0.3475467 0
0.31154823 -0.41571903 -0.36845255 0
0.36522388 -0.34451056 -0.36163545 0
0.48680019 -0.29137993 -0.34908712 0
0.51071835 -0.19171619 -0.34972429 0
0.74680996 -0.025361538 -0.34976494 0
0.76924706 0.066521645 -0.3505466 0
0.98690605 0.20568514 -0.34625578 0
0.98859501 0.27228498 -0.34467804 0
0.16002178 -0.45354748 -0.37823176 0
0.25214767 -0.33019066 -0.372118 0
0.38570213 -0.18644857 -0.35937631 0
0.53879833 -0.078740597 -0.35054445 0
0.5647192 0.035290241 -0.35273528 0
0.78592873 0.14345837 -0.35149956 0
0.79171753 0.17961454 -0.35090423 0
0.98939514 0.33513069 -0.34339368 0
-0.094623566 -0.48381615 -0.38039982 0
0.046237946 -0.44617319 -0.38331962 0
0.044512749 -0.34183455 -0.37898076 0
0.18567276 -0.27241611 -0.37789941 0
0.29134464 -0.21018028 -0.3688457 0
0.29794598 -0.12036562 -0.36759257 0
0.40551186 -0.046197414 -0.35970449 0
0.41033459 -0.016807079 -0.35949469 0
0.58302402 0.13625383 -0.35310996 0
0.80302334 0.28401136 -0.35168326 0
-0.19279861 -0.46477318 -0.38144469 0
-0.1053915 -0.39902782 -0.3753345 0
0.041307449 -0.27037096 -0.37636137 0
0.045386314 -0.19100618 -0.37597561 0
0.19686604 -0.14546061 -0.37713861 0
0.19049168 -0.065061569 -0.37451589 0
0.3037653 -0.020307064 -0.36671412 0
0.42606831 0.065158367 -0.36105645 0
0.43798637 0.14375973 -0.36199784 0
0.60600281 0.27179909 -0.35512638 0
0.61923409 0.35576105 -0.35677159 0
-0.32957745 -0.47510576 -0.38070023 0
-0.25444126 -0.39893627 -0.37692976 0
-0.20934582 -0.34867668 -0.37453103 0
-0.11403465 -0.29319715 -0.37137783 0
0.033431053 -0.14059019 -0.37265086 0
0.18446445 0.050266743 -0.37270403 0
0.31684399 0.077004433 -0.36835337 0
0.31664848 0.14803123 -0.36769235 0
0.44819546 0.22336197 -0.36300981 0
0.44765186 0.27766705 -0.36274278 0
-0.48795319 -0.48658514 -0.38114429 0
-0.40442371 -0.4307065 -0.37716806 0
-0.31600761 -0.31787872 -0.3732357 0
-0.21721363 -0.27620411 -0.37169969 0
-0.15965557 -0.19038105 -0.36793685 0
-0.14901829 -0.13429499 -0.3625592 0
0.014313698 -0.068281651 -0.36821437 0
-0.0018167496 -0.023682594 -0.36501551 0
0.15983677 0.086096287 -0.3681885 0
0.15178299 0.14211464 -0.366817 0
0.30879116 0.29517984 -0.36660051 0
0.44207764 0.34759903 -0.36192429 0
-0.48662281 -0.39422894 -0.37968445 0
-0.48283386 -0.35144758 -0.37443471 0
-0.42675972 -0.25619888 -0.37007892 0
-0.34074688 -0.20509529 -0.36703932 0
-0.24680233 -0.12175846 -0.36482525 0
-0.1545496 -0.043303013 -0.36126709 0
-0.16124725 0.014306545 -0.36022508 0
-0.018260956 0.11137581 -0.36226118 0
0.12902832 0.22028971 -0.36336565 0
0.27354145 0.38666582 -0.36175549 0
-0.523242 -0.27406263 -0.37056792 0
-0.49194527 -0.19109249 -0.37342155 0
-0.41661835 -0.11371374 -0.37367451 0
-0.3270998 -0.069326878 -0.37106788 0
-0.26069069 0.020138741 -0.37155247 0
-0.17740917 0.094136715 -0.36383736 0
-0.054341316 0.16538763 -0.35674787 0
-0.068760872 0.21579504 -0.35489357 0
0.078444481 0.30162287 -0.35632908 0
0.08721447 0.34102249 -0.3578912 0
-0.49643803 -0.096451759 -0.38022029 0
-0.48768425 -0.027966022 -0.38440096 0
-0.39637566 0.0075726509 -0.38064671 0
-0.29904079 0.099304199 -0.38085687 0
-0.23544121 0.14876842 -0.37198901 0
-0.16569519 0.24546146 -0.36413443 0
-0.084638596 0.30371761 -0.35350537 0
0.051814079 0.45546341 -0.35395885 0
-0.47325039 0.10081482 -0.39217961 0
-0.38229084 0.15137482 -0.39004052 0
-0.2996788 0.21680403 -0.3847127 0
-0.25988102 0.28016806 -0.37917447 0
-0.19162369 0.37786579 -0.37005925 0
-0.094801903 0.43127584 -0.35588157 0
-0.46815491 0.24120331 -0.40088403 0
-0.37368011 0.28281546 -0.39740443 0
-0.31409454 0.35711813 -0.38879716 0
-0.25264931 0.43044376 -0.37967443 0
-0.50534058 0.33231211 -0.40103829 0
-0.55580902 0.41652584 -0.39486027 0
-0.5421505 -0.45903015 0.20675164 0
-0.89050293 -0.43115234 0.21576357 0
-0.82168102 -0.38173008 0.22248644 0
-0.93028831 -0.44648647 0.19504929 0
-0.90095425 -0.39990854 0.191796 0
-0.48559475 -0.46385336 0.30264634 0
-0.5238266 -0.47544193 0.25490147 0
-0.48967457 -0.42182207 0.28036958 0
-0.86127758 -0.43197536 0.24066019 0
-0.7967329 -0.42625475 0.26071751 0
-0.88514996 -0.46179581 0.38433707 0
-0.94966602 -0.46741486 0.34557444 0
-0.92943668 -0.41928291 0.35515851 0
-0.7069521 -0.4887557 0.47545493 0
-0.85914326 -0.46602011 0.48037553 0
-0.81498337 -0.36998558 0.50204492 0
-0.67105484 -0.35294724 0.52856565 0
-0.53538322 -0.18275309 0.54233235 0
-0.49492264 -0.18066692 0.52350104 0
-0.89899349 -0.40567923 0.49274528 0
-0.88041401 -0.30276823 0.53419274 0
-0.81168747 -0.28572226 0.51011539 0
-0.67548084 -0.22984028 0.52985853 0
-0.61618423 -0.095571518 0.55058199 0
-0.56478596 -0.10221958 0.54736453 0
-0.97605991 -0.32892036 0.48668522 0
-0.9410677 -0.2855196 0.52040356 0
-0.85882378 -0.20433664 0.51343948 0
-0.93526363 -0.12962818 0.52003443 0
-0.97471714 -0.073559761 0.52959615 0
-0.91461277 -0.40029621 0.55055374 0
-0.86129379 -0.36132622 0.58111918 0
-0.9329319 -0.26586485 0.57906854 0
-0.91109657 -0.19446087 0.6073578 0
-0.92295933 -0.11792278 0.5674907 0
-0.90125465 -0.071556091 0.59240955 0
-0.9729681 -0.081560135 0.56202501 0
-0.48927975 -0.46493435 0.69097358 0
-0.97344398 -0.38986635 0.66380268 0
-0.99273491 -0.1736083 0.66754866 0
0.8045063 -0.4750576 -0.39840114 0
0.98763275 -0.35943651 -0.38559854 0
0.95916653 -0.28463745 -0.38023138 0
0.68668747 -0.42196941 -0.37904251 0
0.92431259 -0.25644207 -0.37410045 0
0.60595798 -0.35948753 -0.36619556 0
0.8422966 -0.1982646 -0.36209261 0
0.77689266 -0.092995167 -0.35172582 0
0.79757309 0.054780006 -0.35341084 0
0.80493259 0.12561035 -0.35412228 0
0.16075611 -0.41753626 -0.38258004 0
0.16441536 -0.35925436 -0.38269293 0
0.27334595 -0.2807498 -0.37080657 0
0.40094185 -0.13172865 -0.36095917 0
0.55067921 -0.015534878 -0.35435045 0
0.80654049 0.17603922 -0.35409915 0
0.81003189 0.27923679 -0.35495782 0
0.17113495 -0.28731871 -0.38353169 0
0.17741585 -0.20940733 -0.38442636 0
0.28627682 -0.12061787 -0.37274778 0
0.40143681 -0.081407547 -0.36089396 0
0.40642643 -0.010894299 -0.36173546 0
0.56405354 0.12206173 -0.35626292 0
0.79423332 0.35860491 -0.35327625 0
-0.020503998 -0.27013731 -0.37877882 0
0.15188217 -0.18898582 -0.3802259 0
0.28408718 -0.019438744 -0.3728056 0
0.42133808 0.13728571 -0.36496425 0
0.57605553 0.26299191 -0.35900199 0
0.78348827 0.47772264 -0.35299516 0
-0.043732643 -0.20328951 -0.37500358 0
0.12612629 -0.065438747 -0.37668097 0
0.097912788 0.0048098564 -0.37298989 0
0.27618885 0.048679829 -0.37234569 0
0.27171326 0.13552189 -0.37295878 0
0.42633152 0.28508234 -0.36751974 0
0.56467056 0.39924145 -0.35930943 0
-0.10073185 -0.051553726 -0.36717737 0
0.066485405 0.067265511 -0.36918676 0
0.24746799 0.22058058 -0.37090921 0
0.39089012 0.36976194 -0.36452615 0
0.020680428 0.15345526 -0.36404908 0
0.2168932 0.31738234 -0.36815798 0
0.35684776 0.48581553 -0.36270285 0
-0.32662106 -0.025746822 -0.37663436 0
-0.22476101 0.0069656372 -0.37114429 0
-0.22575665 0.062848091 -0.37264407 0
-0.16470623 0.14000845 -0.36306334 0
-0.012207985 0.22792768 -0.36081135 0
-0.037416458 0.29622316 -0.3586483 0
0.15194607 0.38143492 -0.36127257 0
-0.52424049 -0.096032619 -0.38424039 0
-0.42551804 -0.053593636 -0.38082612 0
-0.41684818 0.026597977 -0.3857578 0
-0.31409168 0.066236973 -0.38200963 0
-0.26368141 0.14786148 -0.38121593 0
-0.19974995 0.21797419 -0.37129283 0
-0.082268715 0.31961393 -0.35421586 0
0.092989922 0.48189497 -0.35612404 0
-0.64197922 -0.018643379 -0.38450432 0
-0.51828384 -0.003472805 -0.39035094 0
-0.52031422 0.076807976 -0.39500773 0
-0.40662575 0.13982964 -0.39279783 0
-0.34214973 0.22290945 -0.39256144 0
-0.27049828 0.2950716 -0.38381565 0
-0.17569733 0.34741116 -0.36944866 0
-0.12205029 0.44244909 -0.36263633 0
-0.66465759 0.035299301 -0.38559413 0
-0.5292511 0.1665144 -0.39769304 0
-0.410079 0.2861762 -0.40336668 0
-0.3321867 0.36721468 -0.39500785 0
-0.25850868 0.44200373 -0.38469625 0
-0.68318176 0.16040325 -0.38902843 0
-0.55889034 0.2744565 -0.399786 0
-0.43169022 0.37042904 -0.40658152 0
-0.40342712 0.43429899 -0.40086269 0
-0.83700371 0.12404633 -0.3794843 0
-0.7261095 0.24904013 -0.38830149 0
-0.69890213 0.23606825 -0.39086711 0
-0.63009167 0.35681248 -0.39339137 0
-0.53438568 0.46851349 -0.39643836 0
-0.48550797 0.47612 -0.40248287 0
-0.8788166 0.19642162 -0.37693536 0
-0.82818985 0.32252073 -0.37688148 0
-0.75599384 0.29908514 -0.38503373 0
-0.704566 0.40256882 -0.3846854 0
-0.93659878 0.30497169 -0.37630212 0
-0.89689445 0.42444468 -0.37477386 0
-0.81512547 0.45257092 -0.3753792 0
-0.98987389 0.43591595 -0.37480438 0
0.3948288 -0.40024996 -0.36351526 0
0.50579548 -0.33621264 -0.35097587 0
0.27157211 -0.42366076 -0.37237108 0
0.38892365 -0.37238646 -0.36141109 0
0.3955965 -0.28035879 -0.36127412 0
0.5161972 -0.23703527 -0.35113668 0
0.53208733 -0.14313936 -0.35228133 0
0.15690708 -0.47687244 -0.38268328 0
0.2737608 -0.35328054 -0.37161434 0
0.3934679 -0.22000074 -0.3600589 0
-0.0050964355 -0.43450546 -0.38201094 0
-0.12226772 -0.42393923 -0.38349211 0
-0.01800251 -0.34997129 -0.37927973 0
-0.27262497 -0.42213345 -0.37923086 0
-0.14932251 -0.34493971 -0.37828434 0
-0.16301727 -0.2972765 -0.37593889 0
-0.078964233 -0.19184208 -0.36952376 0
-0.46626949 -0.47264481 -0.38626206 0
-0.41205597 -0.42308283 -0.38226449 0
-0.35335636 -0.33999395 -0.3755939 0
-0.29781246 -0.28949165 -0.37504578 0
-0.19387245 -0.21267462 -0.37117827 0
-0.093541145 -0.13835049 -0.36762643 0
-0.49108315 -0.4139719 -0.38160741 0
-0.51183987 -0.36835289 -0.37808859 0
-0.42765427 -0.28374243 -0.37349415 0
-0.33828926 -0.19552565 -0.36907256 0
-0.22688675 -0.13777637 -0.36650896 0
-0.23068523 -0.063866615 -0.3678267 0
-0.13204956 -0.0040163994 -0.3632493 0
-0.76599121 -0.47542334 -0.37329483 0
-0.71320438 -0.42523479 -0.37355661 0
-0.63104343 -0.3586669 -0.37302744 0
-0.53944492 -0.27587175 -0.37454569 0
-0.48998356 -0.1960454 -0.37514079 0
-0.43200684 -0.11515665 -0.37684608 0
-0.33187199 -0.079183102 -0.37288916 0
-0.16254902 0.057772636 -0.36085999 0
-0.85648918 -0.47784519 -0.37884843 0
-0.81897545 -0.40211487 -0.37950885 0
-0.75431252 -0.35085773 -0.377177 0
-0.72433376 -0.2764802 -0.37632823 0
-0.63168907 -0.20008516 -0.37844813 0
-0.52715397 -0.13803911 -0.38137758 0
-0.87416077 -0.33635092 -0.38053083 0
-0.8255558 -0.25926399 -0.37935853 0
-0.7653532 -0.1992135 -0.37654662 0
-0.74545956 -0.15217304 -0.37686324 0
-0.63588715 -0.082681179 -0.38249147 0
-0.90646172 -0.19852304 -0.38063359 0
-0.8415823 -0.14609671 -0.37823737 0
-0.7726326 -0.071890831 -0.37653553 0
-0.95405388 -0.092165947 -0.37791431 0
-0.89007187 -0.068273544 -0.37904418 0
-0.81749058 0.021261692 -0.37866843 0
-0.81596184 0.07468605 -0.37870145 0
-0.91905308 0.0070476532 -0.37632358 0
-0.91666412 0.052987576 -0.37628376 0
-0.8574152 0.15067053 -0.37832928 0
-0.99044895 0.12531233 -0.36898816 0
-0.90260792 0.20591736 -0.37568605 0
-0.5497303 -0.46391344 0.18522805 0
-0.9072237 -0.38855696 0.17518646 0
-0.47499657 -0.42913628 0.2926181 0
-0.53783226 -0.4673481 0.21509707 0
-0.5000906 -0.41277218 0.2486192 0
-0.95456505 -0.49973965 0.23445833 0
-0.87075233 -0.46774864 0.24183947 0
-0.82118416 -0.37039137 0.23485196 0
-0.9652853 -0.47978449 0.28160185 0
-0.90518856 -0.41427326 0.19935215 0
-0.89578438 -0.43707514 0.37536192 0
-0.96133137 -0.4767518 0.30334592 0
-0.94011974 -0.44491291 0.34205145 0
-0.86858845 -0.46907187 0.44656342 0
-0.90457535 -0.35958242 0.49319208 0
-0.82701206 -0.32363081 0.49193466 0
-0.83485413 -0.14699507 0.50639331 0
-0.9720993 -0.075793743 0.4971382 0
-0.59423351 -0.29580069 0.55914074 0
-0.53342438 -0.21641731 0.5381878 0
-0.87629032 -0.47857952 0.52482671 0
-0.7764349 -0.33009529 0.53222185 0
-0.67820358 -0.22657776 0.52813721 0
-0.53532124 -0.13506174 0.5358851 0
-0.89173412 -0.37277079 0.57170391 0
-0.90579605 -0.32983065 0.54463989 0
-0.78381729 -0.25756979 0.54201436 0
-0.63401604 -0.1534934 0.5619061 0
-0.58312416 -0.09139967 0.54649121 0
-0.9715395 -0.33866262 0.49991465 0
-0.93756771 -0.24353981 0.55443156 0
-0.9006176 -0.21153402 0.56925446 0
-0.79879951 -0.17271805 0.51005572 0
-0.9813118 -0.17199039 0.52153116 0
-0.93379784 -0.12133694 0.55132258 0
-0.97422886 -0.066356182 0.54088122 0
-0.9369936 -0.018634796 0.56811064 0
-0.51653576 -0.43774557 0.66554356 0
-0.47989464 -0.26058006 0.62505937 0
-0.412117 -0.17512894 0.62690973 0
-0.79509735 -0.3669858 0.61023414 0
-0.927104 -0.22744989 0.61950845 0
0.94183731 -0.42772532 -0.39432371 0
0.89848614 -0.38140678 -0.38809049 0
0.79823971 -0.3134222 -0.37529373 0
0.88702393 0.19405127 -0.35229075 0
0.86909962 0.24965429 -0.35100067 0
0.8520422 0.37579155 -0.35110497 0
0.41913033 0.17927504 -0.36610425 0
0.60791874 0.30549145 -0.35795867 0
0.82608223 0.46763229 -0.35009146 0
0.40824032 0.200068 -0.36590755 0
0.39432907 0.26002264 -0.3658638 0
0.58567047 0.38628006 -0.35762739 0
0.21749115 0.14399242 -0.37225378 0
0.36549759 0.36378098 -0.36520922 0
0.54982567 0.46815538 -0.35593939 0
0.32867432 0.45776176 -0.36380219 0
-0.28114891 0.17549753 -0.38549984 0
-0.41811466 0.12519026 -0.39197671 0
-0.41160583 0.20199585 -0.39655304 0
-0.30378246 0.28603697 -0.38967454 0
-0.22165394 0.3609333 -0.3775605 0
-0.56169987 0.16136456 -0.3943541 0
-0.41493034 0.27060938 -0.40171504 0
-0.36887455 0.35057497 -0.39985561 0
-0.27687168 0.4138236 -0.38737226 0
-0.24769211 0.47959852 -0.38182819 0
-0.59104252 0.19356251 -0.39423585 0
-0.60425472 0.26590443 -0.39596462 0
-0.50119114 0.40548277 -0.40030181 0
-0.44112396 0.38384771 -0.40686691 0
-0.36365032 0.4739027 -0.3951093 0
-0.53978062 0.4599328 -0.3965919 0
-0.61658859 0.48956537 -0.38828301 0
0.98082161 -0.13599253 -0.36120546 0
0.69644737 -0.29862309 -0.36209142 0
0.89908218 -0.13111639 -0.35115194 0
0.41708279 -0.45190382 -0.35887909 0
0.58928776 -0.26554871 -0.34845579 0
0.90731525 0.033887386 -0.35330045 0
0.27908039 -0.47915411 -0.37134707 0
0.2845974 -0.36729097 -0.37247515 0
0.41816807 -0.31881285 -0.35921872 0
0.59331036 -0.19199371 -0.34923422 0
0.60468674 -0.086423397 -0.35148907 0
0.89430904 0.12553596 -0.35236442 0
0.029379845 -0.48726702 -0.3877002 0
0.17108059 -0.44824362 -0.38216424 0
0.17080879 -0.35672903 -0.38269305 0
0.28174114 -0.27818298 -0.37265146 0
0.41243649 -0.23618078 -0.358796 0
0.4107151 -0.13265991 -0.35956991 0
0.5984869 -0.041648388 -0.35104799 0
0.5992136 0.047829628 -0.35221136 0
-0.12409019 -0.49262094 -0.38973296 0
-0.001704216 -0.43648577 -0.38313353 0
0.16280746 -0.28667736 -0.38239181 0
0.26705742 -0.19933748 -0.37170112 0
0.41183853 -0.0072307587 -0.36152864 0
0.60340118 0.18422318 -0.35500014 0
-0.17856407 -0.49034882 -0.38136554 0
-0.16543102 -0.4426465 -0.38363421 0
-0.039183617 -0.32677555 -0.37839246 0
0.12320232 -0.18740463 -0.37818789 0
0.26403046 -0.09980154 -0.37282729 0
0.26196384 -0.022488594 -0.37395275 0
0.41983795 0.10797262 -0.36452258 0
-0.3185339 -0.45055962 -0.38376522 0
-0.21024799 -0.37433147 -0.37757051 0
-0.090411186 -0.25355101 -0.37208426 0
0.073184013 -0.089540482 -0.3730073 0
0.2511425 0.047032833 -0.37436259 0
-0.45398521 -0.44745827 -0.38148737 0
-0.36774731 -0.35567951 -0.3775059 0
-0.26513481 -0.27680969 -0.3711201 0
-0.2220068 -0.2945323 -0.37661064 0
-0.13979816 -0.17532063 -0.36664414 0
0.00083351135 0.022597313 -0.36593938 0
0.041662216 0.018215656 -0.37056077 0
0.18253803 0.17183065 -0.3688463 0
-0.49733543 -0.32860756 -0.37650299 0
-0.42202473 -0.26627207 -0.37126815 0
-0.30313492 -0.15322876 -0.3678416 0
-0.1812315 -0.082666874 -0.36320841 0
-0.18523312 0.015408993 -0.365767 0
-0.036113739 0.11292505 -0.36311471 0
0.1277771 0.2471981 -0.36416507 0
-0.71427822 -0.43947744 -0.37160575 0
-0.64476395 -0.3836031 -0.3712132 0
-0.58324718 -0.30307102 -0.37367582 0
-0.53476048 -0.22650337 -0.37500954 0
-0.43198872 -0.14918041 -0.37350321 0
-0.31219482 -0.093415737 -0.37028551 0
-0.29745388 0.016813755 -0.37664497 0
-0.19697857 0.079632282 -0.36752439 0
-0.1072216 0.16994715 -0.35667789 0
0.071300507 0.31794071 -0.35952532 0
-0.9224987 -0.48414135 -0.38031137 0
-0.85636902 -0.44281816 -0.37872303 0
-0.78927422 -0.37120533 -0.37726235 0
-0.74466133 -0.32192898 -0.37666452 0
-0.66310692 -0.22289562 -0.37482715 0
-0.522192 -0.08959341 -0.38347554 0
-0.4215374 -0.023614883 -0.3815763 0
-0.36018085 0.055051804 -0.38360965 0
-0.29829121 0.17480993 -0.38531613 0
-0.20360565 0.20949173 -0.37196064 0
-0.12385654 0.29007483 -0.35968113 0
0.016907692 0.39848471 -0.35554326 0
-0.99030685 -0.44086123 -0.38190901 0
-0.939991 -0.36832762 -0.37918782 0
-0.85760975 -0.27744246 -0.37919176 0
-0.76483536 -0.2333312 -0.37710714 0
-0.68943596 -0.14203405 -0.37613189 0
-0.69072914 -0.073390961 -0.37830997 0
-0.52015877 0.0058860779 -0.39012337 0
-0.5326128 0.070662022 -0.39253139 0
-0.21809483 0.26800776 -0.37395704 0
-0.13691998 0.41170931 -0.36408889 0
-0.0588274 0.49042606 -0.35195041 0
-0.92394924 -0.20296097 -0.38032711 0
-0.80832863 -0.095434189 -0.37758076 0
-0.71876526 -0.00056886673 -0.37965596 0
-0.92843628 -0.094730854 -0.37862325 0
-0.85861301 0.010987282 -0.37749493 0
-0.74744129 0.079045296 -0.38109744 0
-0.75905228 0.13652754 -0.38242829 0
-0.9960537 -0.062438965 -0.37051213 0
-0.89754391 0.096523762 -0.3765018 0
-0.79206848 0.1841054 -0.38158 0
-0.66938114 0.29827642 -0.388762 0
-0.98013306 0.15214872 -0.36875248 0
-0.90950871 0.24647236 -0.37295163 0
-0.86545277 0.2318697 -0.37505531 0
-0.76140308 0.36373711 -0.37898278 0
-0.93490505 0.3528347 -0.37464285 0
-0.83954048 0.40552473 -0.37261367 0
-0.98339176 0.43331718 -0.37460268 0
-0.92252064 -0.39167404 0.16315526 0
-0.50169468 -0.45039654 0.25988179 0
-0.53712368 -0.45253181 0.20990562 0
-0.50366402 -0.4172864 0.24226463 0
-0.88072586 -0.4517808 0.22901279 0
-0.81351566 -0.38088799 0.23474693 0
-0.87075806 -0.35920763 0.18253738 0
-0.74595165 -0.43924665 0.28107828 0
-0.89754581 -0.4783535 0.36182684 0
-0.94749546 -0.4355979 0.34365869 0
-0.69228077 -0.45053434 0.47473526 0
-0.86021137 -0.45037746 0.42763472 0
-0.85463428 -0.41306829 0.45154148 0
-0.79842567 -0.48576498 0.51543814 0
-0.67924976 -0.35298157 0.52807957 0
-0.5418911 -0.24884272 0.54563379 0
-0.48886776 -0.18185472 0.52795935 0
-0.87996387 -0.49003077 0.52600336 0
-0.79991245 -0.40541792 0.52024281 0
-0.78079128 -0.33331108 0.51788443 0
-0.55032635 -0.17894983 0.54690123 0
-0.5331192 -0.11711216 0.53093696 0
-0.93754482 -0.37395239 0.50570184 0
-0.88733578 -0.31021261 0.54703587 0
-0.79898453 -0.23898792 0.51791787 0
-0.70552349 -0.21886778 0.52267134 0
-0.59428787 -0.091315269 0.54720157 0
-0.95066166 -0.2534585 0.5517422 0
-0.89355564 -0.20677567 0.54535997 0
-0.95262051 -0.11228323 0.53798825 0
-0.87112713 -0.094535351 0.51650077 0
-0.96680069 -0.038374901 0.55383921 0
-0.94757175 -0.031835079 0.53304768 0
-0.51352215 -0.43622494 0.66487926 0
-0.51325607 -0.27761936 0.61687118 0
-0.9824152 -0.38982391 0.66799605 0
-0.83424568 -0.34636927 0.58919197 0
-0.93001366 -0.26188707 0.59991229 0
-0.91068363 -0.1936326 0.60959417 0
0.84413147 -0.42240047 -0.40778112 0
0.95776367 -0.15209913 -0.3741132 0
0.90204048 0.083726406 -0.36396623 0
0.89983559 0.19301128 -0.36235213 0
0.88599396 0.32149029 -0.35936713 0
0.59471893 0.18542957 -0.36651552 0
0.87038898 0.40880823 -0.35702121 0
0.60161877 0.28352499 -0.36675048 0
0.60912228 0.28487444 -0.36825049 0
0.41149902 0.26284552 -0.37697744 0
0.60495377 0.39979982 -0.36799443 0
0.59144688 0.47097063 -0.36709428 0
0.38110733 0.32830811 -0.37391019 0
0.37416744 0.40872622 -0.37416446 0
-0.46776772 0.29523563 -0.41517639 0
-0.357584 0.36388254 -0.40697455 0
-0.26560307 0.47373581 -0.39616668 0
-0.51291275 0.31933212 -0.41242564 0
-0.37072659 0.48287773 -0.40256262 0
0.97866631 -0.24916458 -0.37734568 0
0.73958969 -0.4204092 -0.39264584 0
0.645051 -0.38186455 -0.37947822 0
0.86257553 -0.12980032 -0.36167109 0
0.50266743 -0.33985186 -0.36111605 0
0.88053322 -0.02194643 -0.36241055 0
0.21053982 -0.49428511 -0.3859539 0
0.35894585 -0.37778282 -0.37302232 0
0.51277447 -0.24488401 -0.360461 0
0.53915405 -0.12290859 -0.36192191 0
0.21974087 -0.36768532 -0.38525593 0
0.37332821 -0.22923994 -0.37309718 0
0.37523174 -0.14169455 -0.37209165 0
0.54414654 -0.091359138 -0.36122954 0
0.5631876 0.0069365501 -0.3630302 0
0.039868355 -0.37628794 -0.39128768 0
0.23453999 -0.23263359 -0.38663566 0
0.2309103 -0.16033697 -0.38535345 0
0.37922478 -0.070153713 -0.37224996 0
0.39336777 0.027942181 -0.37402153 0
0.57621384 0.083660126 -0.36413324 0
-0.16178608 -0.41934347 -0.39149296 0
0.010928154 -0.26224661 -0.38641167 0
0.22722816 -0.083514214 -0.38460803 0
0.22531319 -0.034543991 -0.38445783 0
0.38934231 0.039806366 -0.37289202 0
0.40655994 0.15475988 -0.37560499 0
-0.31468296 -0.43979597 -0.39146924 0
-0.20009136 -0.34078836 -0.38522172 0
-0.0054197311 -0.15237856 -0.38433957 0
0.21242809 0.096442223 -0.38373005 0
-0.48706436 -0.43661213 -0.388592 0
-0.35019112 -0.29870272 -0.38621378 0
-0.23160934 -0.23607635 -0.38097239 0
-0.049170494 -0.065517426 -0.37865722 0
0.16655064 0.15187311 -0.37836969 0
-0.51940632 -0.33929348 -0.38422441 0
-0.39246464 -0.21929932 -0.38057125 0
-0.27425194 -0.12531328 -0.37574053 0
-0.26965714 -0.095666409 -0.37731421 0
-0.12407589 0.0040922165 -0.36950088 0
-0.086470604 -0.008005619 -0.37416565 0
0.12736893 0.2643218 -0.37498248 0
-0.79094028 -0.49221468 -0.3830452 0
-0.72950172 -0.42917442 -0.38300467 0
-0.66916847 -0.36942148 -0.38285685 0
-0.52966785 -0.21988916 -0.38525629 0
-0.39558887 -0.1445384 -0.38167381 0
-0.37646675 -0.050709248 -0.38684928 0
-0.25200176 -0.018270016 -0.38143301 0
-0.24625492 0.072599888 -0.38468826 0
-0.14195442 0.11552 -0.36892867 0
0.055276871 0.34732485 -0.36791968 0
-0.87490082 -0.4195714 -0.38985121 0
-0.78398514 -0.32395792 -0.38805008 0
-0.68052006 -0.21839666 -0.38501656 0
-0.50045204 -0.054411411 -0.39463508 0
-0.35868073 0.055175781 -0.39337897 0
-0.34357834 0.15269804 -0.39918137 0
-0.25294018 0.18705511 -0.38741946 0
-0.14455032 0.24930954 -0.37199116 0
0.0075778961 0.44394016 -0.36422718 0
-0.97651482 -0.41058493 -0.39209783 0
-0.98404789 -0.37525415 -0.39210808 0
-0.89640236 -0.31679678 -0.38969481 0
-0.80919361 -0.22594929 -0.38760149 0
-0.69112587 -0.14445066 -0.3867327 0
-0.68749237 -0.064987659 -0.38965416 0
-0.4836874 0.069427967 -0.40218055 0
-0.47553921 0.1513238 -0.40745175 0
-0.34531498 0.24547291 -0.40304327 0
-0.25477505 0.30100536 -0.39082456 0
-0.25814438 0.36934328 -0.39294183 0
-0.15462399 0.3706212 -0.37493372 0
-0.039148331 0.47378111 -0.35990667 0
-0.92309189 -0.20947981 -0.38983893 0
-0.83968353 -0.12678909 -0.38731885 0
-0.70032501 -0.043939114 -0.3900696 0
-0.6960144 0.052666664 -0.39348733 0
-0.4691391 0.22200203 -0.41196454 0
-0.99126911 -0.12678814 -0.38387692 0
-0.94372463 -0.11624098 -0.39053333 0
-0.86882114 -0.00017261505 -0.38840091 0
-0.71650314 0.1344943 -0.39555752 0
-0.9309845 0.072179317 -0.38407612 0
-0.77383804 0.2291913 -0.39352858 0
-0.63603306 0.38083506 -0.39894426 0
-0.57897949 0.39351845 -0.40571785 0
-0.86970043 0.28835106 -0.38467276 0
-0.67302608 0.47005415 -0.39596331 0
-0.92143345 0.37829781 -0.38388002 0
-0.78035259 0.49730682 -0.38503373 0
-0.94442081 0.42741299 -0.38400757 0
-0.96896267 0.46529913 -0.38380873 0
-0.53896141 -0.47209549 0.21769702 0
-0.53745174 -0.4414115 0.19841588 0
-0.91027069 -0.4611845 0.20711321 0
-0.8321352 -0.36808586 0.21452969 0
-0.90664005 -0.36720228 0.16803622 0
-0.53059769 -0.46853733 0.24046296 0
-0.49220848 -0.39738655 0.24730766 0
-0.84037971 -0.49254513 0.24494821 0
-0.87756157 -0.4846077 0.23482871 0
-0.90819836 -0.4655509 0.3480159 0
-0.83471489 -0.4683733 0.4196319 0
-0.95320892 -0.41410637 0.34743047 0
-0.70683479 -0.47511387 0.46134722 0
-0.62705708 -0.34355736 0.53350186 0
-0.52824879 -0.20530987 0.52879614 0
-0.90107441 -0.47320652 0.4940784 0
-0.85519886 -0.46287632 0.47465014 0
-0.77744579 -0.37004185 0.50992435 0
-0.67747211 -0.2288723 0.51821822 0
-0.54916 -0.095371246 0.52181023 0
-0.92211151 -0.35538912 0.49775761 0
-0.84663105 -0.26074648 0.50071359 0
-0.78786278 -0.22685719 0.50227451 0
-0.55094337 0.0033116341 0.52515924 0
-0.95854092 -0.30074406 0.50251484 0
-0.89051628 -0.17557287 0.51478183 0
-0.98535728 -0.12832069 0.51295495 0
-0.98319817 -0.069909573 0.53498095 0
-0.95850849 -0.048258781 0.49513578 0
-0.92752457 0.036565781 0.52956039 0
-0.49774837 -0.28466225 0.61001277 0
-0.5115242 -0.24480438 0.61411697 0
-0.86054802 -0.42250443 0.58329469 0
-0.49903774 -0.15873289 0.59536457 0
-0.9834013 -0.38590193 0.53281075 0
-0.9052515 -0.31398249 0.53564703 0
-0.81760597 -0.2174511 0.56201392 0
-0.96534061 -0.22938681 0.54219103 0
-0.9229126 -0.22706699 0.57763886 0
-0.9428978 -0.12292337 0.56202316 0
-0.95909786 -0.038424969 0.55079883 0
-0.51606464 -0.45860863 0.66201335 0
0.97538185 -0.42075062 -0.39618063 0
0.94587612 -0.34265995 -0.39076316 0
0.82326031 -0.23436642 -0.37364507 0
0.9221735 -0.21592045 -0.38662338 0
0.71184254 -0.17162466 -0.36084187 0
0.74353409 -0.059556007 -0.36139119 0
0.77381611 0.066458225 -0.36282599 0
0.78738499 0.13801241 -0.36270881 0
0.44801903 -0.053041935 -0.36725438 0
0.79470348 0.23753977 -0.36296594 0
0.46331024 0.030597687 -0.36825383 0
0.48199844 0.13263226 -0.37029624 0
0.79448986 0.33691025 -0.36280215 0
0.78491402 0.40600252 -0.36143851 0
0.25035095 -0.030972958 -0.38137364 0
0.48919964 0.1892848 -0.3707844 0
0.5060997 0.29957962 -0.37307203 0
0.76624012 0.47140455 -0.35938704 0
0.2614727 0.16039085 -0.38371706 0
0.48818588 0.33506107 -0.37096882 0
0.23123264 0.23909807 -0.38082063 0
0.47261238 0.42383623 -0.37015557 0
0.45039082 0.46372795 -0.36819267 0
0.15567017 0.31821156 -0.37342465 0
0.19581604 0.28894377 -0.37741077 0
0.096743584 0.41853619 -0.3688587 0
0.02778244 0.48268032 -0.36316216 0
-0.2629652 0.3705349 -0.39061284 0
-0.37569904 0.34232712 -0.40803981 0
-0.27434158 0.41744375 -0.39184463 0
-0.40880013 0.45560074 -0.40973878 0
0.40195465 -0.43517208 -0.36946976 0
0.23318291 -0.42294693 -0.38397419 0
0.41061306 -0.3112936 -0.36697245 0
0.096334457 -0.43686676 -0.39514422 0
0.24596214 -0.2818284 -0.38319361 0
0.4234066 -0.19613838 -0.36663938 0
0.4370451 -0.10961437 -0.36707878 0
-0.13700294 -0.49125242 -0.3948164 0
0.087441444 -0.33183146 -0.392802 0
0.067058563 -0.29626513 -0.38938904 0
0.24104786 -0.22471571 -0.38077676 0
0.25739765 -0.10702324 -0.38303471 0
-0.16630077 -0.4441061 -0.38961673 0
0.055325508 -0.22437477 -0.38768435 0
-0.36555004 -0.41338015 -0.39047778 0
-0.18188953 -0.30721712 -0.38746643 0
0.037646294 -0.15176725 -0.38536859 0
0.017272949 -0.087268353 -0.38291943 0
-0.39183617 -0.34243441 -0.38680315 0
-0.2343111 -0.24801159 -0.38005161 0
-0.016476631 0.0022873878 -0.37925887 0
-0.58116436 -0.41980791 -0.38683367 0
-0.44027424 -0.26940346 -0.38054073 0
-0.26255417 -0.14092112 -0.37708127 0
-0.2672987 -0.072156906 -0.37724578 0
-0.081141472 0.092965603 -0.3723563 0
-0.7367382 -0.36177874 -0.38716543 0
-0.60508633 -0.27508926 -0.38524544 0
-0.43502998 -0.14620972 -0.38340652 0
-0.41401672 -0.05156374 -0.38865817 0
-0.25124264 -0.014539242 -0.38045609 0
-0.24778748 0.07679081 -0.38311362 0
-0.13950443 0.17219019 -0.36702156 0
-0.75060368 -0.34122658 -0.38600004 0
-0.75240993 -0.26639652 -0.38711941 0
-0.57803154 -0.14172602 -0.39265585 0
-0.40097904 0.013897896 -0.39246786 0
-0.38637733 0.091734409 -0.3968364 0
-0.25088501 0.20442915 -0.38613343 0
-0.14207554 0.32864618 -0.37058103 0
-0.88251591 -0.24723387 -0.39127016 0
-0.78774548 -0.17951202 -0.38574362 0
-0.75430298 -0.17773724 -0.38861656 0
-0.56077003 -0.010786533 -0.39952528 0
-0.55891705 0.091787815 -0.40325093 0
-0.37121773 0.19534349 -0.40266693 0
-0.26744366 0.2546134 -0.38678515 0
-0.15402412 0.40860605 -0.37227297 0
-0.92805672 -0.20305681 -0.38866258 0
-0.81275082 -0.071718693 -0.38631368 0
-0.57780361 0.14207315 -0.40448332 0
-0.95019054 -0.068571091 -0.38981855 0
-0.84951401 0.014049053 -0.38602316 0
-0.59706974 0.20667076 -0.40602505 0
-0.60330868 0.28952551 -0.40849781 0
-0.88286972 0.10264063 -0.38649464 0
-0.73414516 0.29189157 -0.39408302 0
-0.67353249 0.31100988 -0.40100217 0
-0.94054031 0.22185421 -0.3861562 0
-0.85228729 0.33927774 -0.38251555 0
-0.78400517 0.34744835 -0.38954735 0
-0.99962902 0.30198288 -0.38438535 0
-0.8658905 0.44181061 -0.38464975 0
-0.92238617 0.47409868 -0.38276148 0
-0.75086403 -0.43149853 -0.38363969 0
-0.98130322 -0.47151709 -0.392645 0
-0.87673473 -0.4295845 -0.38827324 0
-0.98782444 -0.41995239 -0.39292192 0
-0.99403858 -0.36566353 -0.39341021 0
-0.91120243 -0.28144598 -0.3881712 0
-0.55894852 -0.460742 0.19028908 0
-0.50810051 -0.38272238 0.23436785 0
-0.93747711 -0.46223545 0.19365501 0
-0.91858292 -0.36632204 0.17248064 0
-0.53984547 -0.4799819 0.25357175 0
-0.4944706 -0.4068594 0.26418859 0
-0.60666084 -0.38208389 0.25761569 0
-0.89427185 -0.44018412 0.21846014 0
-0.87657928 -0.41832113 0.23536384 0
-0.8319416 -0.49127054 0.39998519 0
-0.934515 -0.46360826 0.35096735 0
-0.90793037 -0.40764713 0.352346 0
-0.85244656 -0.49660397 0.47689617 0
-0.52256775 -0.19062996 0.52098328 0
-0.87816048 -0.44926834 0.4541505 0
-0.56590557 -0.13770914 0.52396643 0
-0.92034245 -0.40116262 0.47377241 0
-0.83584118 -0.28518343 0.49340945 0
-0.58198929 -0.066217422 0.53039205 0
-0.99863911 -0.24087381 0.50441664 0
-0.88750458 -0.17300129 0.50306886 0
-0.99072552 -0.067068577 0.51235068 0
-0.60184574 -0.26602983 0.55086654 0
-0.51696396 -0.2054286 0.6046617 0
-0.90303421 -0.43415785 0.53949022 0
-0.64342594 -0.19667387 0.55673987 0
-0.90843391 -0.33554888 0.55148494 0
-0.88447857 -0.25755787 0.53691369 0
-0.94868851 -0.2278595 0.56181914 0
-0.99399853 -0.15153313 0.54458308 0
-0.96438313 -0.076977253 0.5641765 0
-0.51196194 -0.49207115 0.68007803 0
-0.54437447 -0.4434762 0.65062016 0
0.97314835 -0.35151005 -0.3862052 0
0.93462181 0.2243576 -0.351524 0
0.82705402 0.45557976 -0.35052943 0
0.89691544 -0.29267788 -0.37922812 0
0.75359726 -0.26736927 -0.36688626 0
0.97809792 0.00071048737 -0.35065985 0
0.35543442 -0.48732424 -0.36749566 0
0.57808685 -0.23629236 -0.3521986 0
0.96675014 0.10578203 -0.35151815 0
0.33019733 -0.41039562 -0.36512768 0
0.33871841 -0.27670383 -0.36794972 0
0.56273365 -0.17285967 -0.35165799 0
0.1495409 -0.35829639 -0.38415229 0
0.31889343 -0.22141695 -0.3671186 0
0.56039238 -0.023917675 -0.35423923 0
0.5516758 0.064012051 -0.35561848 0
0.88748169 0.30254078 -0.35009742 0
0.12848282 -0.28967094 -0.38370824 0
0.30147934 -0.080696106 -0.36897612 0
0.5395298 0.15504789 -0.35756576 0
0.85540009 0.37484121 -0.34996367 0
0.27602577 0.0046739578 -0.3697294 0
0.52549744 0.2534337 -0.36005163 0
0.26765633 0.13393259 -0.37321758 0
0.50703049 0.35783625 -0.36212933 0
0.20961666 0.23566532 -0.37252319 0
0.44934273 0.46018267 -0.3620975 0
0.13326454 0.236094 -0.3672415 0
0.049494743 0.28305054 -0.36274552 0
-0.27501965 0.487391 -0.38591552 0
0.33316135 -0.49379396 -0.36447775 0
0.15439701 -0.43076563 -0.38345361 0
-0.1179924 -0.49387074 -0.38824272 0
-0.17598915 -0.45567131 -0.38291061 0
0.046391487 -0.18880987 -0.37839341 0
-0.38851738 -0.49651051 -0.38628972 0
-0.22934246 -0.36704493 -0.37941992 0
-0.037299156 -0.11772013 -0.37273026 0
-0.46062279 -0.43153811 -0.38054466 0
-0.30785465 -0.26388502 -0.37453413 0
-0.088521957 -0.068183422 -0.36962891 0
-0.5342207 -0.34326744 -0.37580848 0
-0.37718487 -0.23309088 -0.3695277 0
-0.17188835 0.0009098053 -0.36499059 0
-0.58070755 -0.29628086 -0.37365055 0
-0.56700039 -0.19619322 -0.37917387 0
-0.38829041 -0.11306143 -0.37349355 0
-0.37639904 0.00073766708 -0.38039613 0
-0.20686531 0.054415226 -0.36551619 0
-0.21389198 0.14060926 -0.36905205 0
-0.011314392 0.33071518 -0.35995483 0
-0.56959248 -0.15978193 -0.38223231 0
-0.56695747 -0.09947443 -0.38619685 0
-0.38000107 0.03286314 -0.38327837 0
-0.3678112 0.15163565 -0.39012432 0
-0.22432804 0.21211052 -0.37218583 0
-0.10910511 0.37356281 -0.35600674 0
-0.57666969 0.023822308 -0.39183116 0
-0.37795925 0.17488146 -0.39302742 0
-0.37606907 0.28359699 -0.3985877 0
-0.24166298 0.31314325 -0.37694883 0
-0.652174 0.10514975 -0.39076352 0
-0.40477753 0.35506105 -0.4028995 0
-0.26386547 0.39801121 -0.38135839 0
-0.71631718 0.15656137 -0.38920355 0
-0.44739342 0.44930124 -0.40617931 0
-0.80565929 0.19247484 -0.38483644 0
-0.63729954 0.42877626 -0.39184034 0
-0.51573467 0.43756914 -0.40235281 0
-0.90419483 0.24572611 -0.37891531 0
-0.74935436 0.42274904 -0.38232064 0
-0.86951351 0.44888353 -0.37524962 0
-0.74665928 -0.42303991 -0.37505746 0
-0.90688896 -0.44808245 -0.38171709 0
-0.75765419 -0.35597897 -0.37775719 0
-0.7811079 -0.30352879 -0.37806571 0
-0.94742107 -0.35427475 -0.38241172 0
-0.81534386 -0.24830818 -0.37814045 0
-0.99544621 -0.27659082 -0.3825202 0
-0.86497974 -0.142591 -0.37941265 0
-0.91623878 -0.051483631 -0.38059855 0
-0.95175266 0.24893141 -0.37752056 0
-0.57225323 -0.48064756 0.18741935 0
-0.55282402 -0.37095261 0.18786711 0
-0.94523716 -0.40718651 0.17241818 0
-0.6240797 -0.39891768 0.26938909 0
-0.90415382 -0.49460268 0.24600708 0
-0.74463272 -0.44229698 0.28428346 0
-0.95278072 -0.47396421 0.20389247 0
-0.8994503 -0.40224981 0.22067922 0
-0.92618752 -0.43173027 0.36528879 0
-0.71283627 -0.43715429 0.50131434 0
-0.88521767 -0.47452784 0.43623692 0
-0.56503296 -0.20247412 0.54335272 0
-0.53010845 -0.16872215 0.52056491 0
-0.91724586 -0.42499256 0.47115469 0
-0.69824123 -0.184762 0.52159119 0
-0.60946655 -0.095726967 0.54601711 0
-0.87722683 -0.46446323 0.50787383 0
-0.93037319 -0.47141075 0.51316887 0
-0.78070068 -0.30481958 0.52286708 0
-0.99593163 -0.33637428 0.49947703 0
-0.97315693 -0.28880692 0.53608894 0
-0.97727299 -0.20538521 0.54300767 0
-0.9211998 -0.14666605 0.51875389 0
-0.99337673 -0.069736481 0.5476138 0
-0.53015995 -0.4287982 0.6469993 0
-0.94144058 -0.21358633 0.61516052 0
0.93562222 -0.11242914 -0.35929978 0
0.7406683 -0.073476791 -0.3494972 0
0.67190838 0.03187418 -0.35019755 0
0.62946892 0.10503387 -0.35110271 0
0.9861927 0.44332123 -0.3416146 0
0.5880394 0.13891506 -0.35147977 0
0.558424 0.28740692 -0.3574909 0
0.49116039 0.39842415 -0.36044037 0
0.41815662 0.4410224 -0.36028481 0
0.35867977 0.49150848 -0.36087704 0
0.40032673 -0.45625067 -0.35520542 0
0.21532631 -0.49738979 -0.37312043 0
0.19399738 -0.42239571 -0.37465322 0
0.38170242 -0.31280851 -0.35877633 0
0.17912674 -0.34087324 -0.37692046 0
0.35027218 -0.21341515 -0.36126685 0
0.16900063 -0.24152374 -0.38013887 0
0.32215881 -0.092018127 -0.36499608 0
-0.15076351 -0.41801548 -0.38123059 0
0.042341232 -0.1857295 -0.37476397 0
0.13002586 -0.19462347 -0.3799969 0
0.28558064 -0.0051007271 -0.36781025 0
-0.2397728 -0.35946751 -0.37719524 0
-0.053284645 -0.15769434 -0.36966372 0
0.24941254 0.096745491 -0.37152755 0
-0.32851505 -0.31561899 -0.37322617 0
-0.14349842 -0.1111002 -0.3655417 0
0.1672678 0.12342882 -0.36907005 0
-0.22392368 -0.093526363 -0.36191142 0
-0.23263264 -0.022763729 -0.36664522 0
0.072850227 0.18761683 -0.36593771 0
-0.25459766 0.064354897 -0.3716625 0
-0.10002708 0.18983984 -0.35771787 0
0.25389767 0.48229647 -0.35722661 0
-0.47468662 -0.02336359 -0.38158762 0
-0.27980328 0.15805101 -0.37737274 0
-0.17067242 0.30055952 -0.36270714 0
-0.50121784 0.072275162 -0.39048123 0
-0.31292915 0.26600361 -0.38448012 0
-0.20615005 0.38864279 -0.368958 0
-0.55246449 0.13825607 -0.39384222 0
-0.33882236 0.38633633 -0.3921541 0
-0.22511292 0.45781231 -0.37357259 0
-0.63481522 0.18049192 -0.39060259 0
-0.38480091 0.4755435 -0.39795506 0
-0.60803986 0.46765566 -0.38957047 0
-0.55444813 -0.46704006 -0.37766576 0
-0.48801708 -0.46332359 -0.38188803 0
-0.41921997 -0.27301598 -0.3694092 0
-0.69076157 -0.39289188 -0.36988449 0
-0.4764328 -0.22935581 -0.36815906 0
-0.47073841 -0.1335783 -0.37392282 0
-0.8890543 -0.44934988 -0.37762892 0
-0.73612881 -0.29302311 -0.3737247 0
-0.94469643 -0.36371517 -0.37939548 0
-0.78522682 -0.20444536 -0.37560606 0
-0.86761189 -0.1592536 -0.37552226 0
-0.92255688 -0.071583748 -0.37774849 0
-0.72557831 0.18955517 -0.38596535 0
-0.92327309 0.15746307 -0.37366688 0
-0.81591988 0.21513844 -0.3817662 0
-0.88408661 0.42644548 -0.37207532 0
-0.78474712 0.45818138 -0.37667823 0
-0.97769737 0.46028328 -0.37211239 0
-0.55277443 -0.47640705 0.23508662 0
-0.50492954 -0.39499855 0.26208782 0
-0.58993912 -0.33596611 0.26727545 0
-0.90451908 -0.47584629 0.23901534 0
-0.83587074 -0.47392607 0.2695595 0
-0.78152943 -0.35134411 0.25300187 0
-0.9176054 -0.4189291 0.21131104 0
-0.96969414 -0.45889854 0.32259464 0
-0.90727043 -0.49734545 0.36618292 0
-0.97049809 -0.45208883 0.36390942 0
-0.51121044 -0.18722773 0.52719092 0
-0.92125511 -0.49066496 0.54094857 0
-0.87793827 -0.45830059 0.50837892 0
-0.68929386 -0.23913002 0.52788526 0
-0.59033012 -0.18076277 0.54716897 0
-0.9376297 -0.38689232 0.50389856 0
-0.92842484 -0.23804808 0.54943371 0
-0.9029274 -0.14447403 0.52259791 0
-0.95811367 0.017796993 0.55226165 0
-0.81462288 -0.35610867 0.61363482 0
-0.95254898 -0.2548213 0.60804421 0
-0.93212509 -0.10572577 0.58024085 0
-0.9656477 -0.039584637 0.57404441 0
-0.97244835 -0.3860569 0.66483045 0
0.93370819 -0.31898546 -0.37589192 0
0.7401886 -0.27379894 -0.36685777 0
0.9832592 -0.001103878 -0.34802115 0
0.92440128 0.041887283 -0.34849226 0
0.859519 0.12308025 -0.35017991 0
0.81266499 0.19005346 -0.35182595 0
0.72845078 0.25142336 -0.35235047 0
0.61085033 0.39391184 -0.35700285 0
0.45068359 -0.30822897 -0.35045516 0
0.23506355 -0.40601301 -0.37301707 0
0.42458248 -0.25075912 -0.35244024 0
0.19724464 -0.30422926 -0.37648892 0
0.38727093 -0.1332984 -0.35694826 0
0.13528824 -0.2512331 -0.37761331 0
0.34541512 -0.025403976 -0.36141288 0
0.64245796 0.29718971 -0.35233223 0
-0.15358925 -0.42336512 -0.38490832 0
0.3208046 0.077672482 -0.36596966 0
-0.12717056 -0.15587902 -0.36801374 0
-0.021660805 -0.19165802 -0.37220657 0
0.26246166 0.14766073 -0.36959803 0
0.524827 0.43110704 -0.35743082 0
0.44819546 0.4649744 -0.35792458 0
0.078677177 0.19417858 -0.36483133 0
-0.05753994 0.20350695 -0.35957813 0
-0.33538437 0.19159889 -0.38647115 0
-0.17566204 0.2841506 -0.36268449 0
-0.36784077 0.22374868 -0.39011872 0
-0.21142578 0.40124273 -0.3710252 0
-0.38894272 0.29386616 -0.39524031 0
-0.261199 0.45099735 -0.3768369 0
-0.47704601 0.40299559 -0.40323985 0
-0.40250587 0.41872549 -0.4029752 0
-0.24560642 -0.43198442 -0.3801986 0
-0.31509972 -0.40752745 -0.37767911 0
-0.38662052 -0.34837246 -0.37623715 0
-0.2355051 -0.16825485 -0.36344087 0
-0.49788475 -0.28461981 -0.37346113 0
-0.28792191 -0.082802773 -0.36513889 0
-0.77925396 -0.47615051 -0.36982584 0
-0.58363438 -0.27123785 -0.37154329 0
-0.29633713 -0.020064831 -0.37009358 0
-0.30169678 0.060486317 -0.37580419 0
-0.15293407 0.1978879 -0.35695386 0
-0.81459045 -0.34748507 -0.37697279 0
-0.61318684 -0.15569401 -0.37839413 0
-0.32202721 0.098337173 -0.38023734 0
-0.88271809 -0.31568289 -0.37702858 0
-0.73643112 -0.11400652 -0.37424695 0
-0.8150835 -0.067182541 -0.37523031 0
-0.98872089 -0.017964363 -0.37245548 0
-0.89904785 -0.0031929016 -0.37703073 0
-0.6618948 0.36275768 -0.39027143 0
-0.89272404 0.26204967 -0.3734529 0
-0.95527458 0.30878925 -0.37454784 0
-0.55333424 -0.46061993 0.22961181 0
-0.50110817 -0.39637947 0.27258986 0
-0.60946465 -0.37253857 0.26136494 0
-0.9338131 -0.39162922 0.18780267 0
-0.77943802 -0.28994751 0.24135005 0
-0.5084219 -0.44072866 0.302122 0
-0.84445667 -0.46782637 0.2650544 0
-0.89016342 -0.4736867 0.39605391 0
-0.95515537 -0.43721056 0.33462209 0
