# .PCD v0.7 - Point Cloud Data file format
VERSION 0.7
FIELDS x y z intensity
SIZE 4 4 4 4
TYPE F F F F
COUNT 1 1 1 1
WIDTH 1289
HEIGHT 1
VIEWPOINT 0 0 0 1 0 0 0
POINTS 1289
DATA ascii
0.60455227 0.25019336 -0.43045366 0
0.71245551 0.22017431 -0.45128965 0
0.84412479 0.23550224 -0.4769237 0
0.99568152 0.26433945 -0.50819254 0
0.2548089 0.28432441 -0.35811472 0
0.31651449 0.30680466 -0.36230361 0
0.41942549 0.30612087 -0.39231372 0
0.52875829 0.32161641 -0.41589689 0
0.65976453 0.3502779 -0.44660318 0
0.77437663 0.34171128 -0.46746635 0
0.79001975 0.31601667 -0.47636104 0
0.90213823 0.33974791 -0.49217224 0
0.25166655 0.40143514 -0.34945869 0
0.32660174 0.39637923 -0.3483398 0
0.43755269 0.41536331 -0.37290227 0
0.51156044 0.39638352 -0.40447736 0
0.62369967 0.45481014 -0.42597306 0
0.69447732 0.42345262 -0.45650637 0
0.43290901 0.49059868 -0.34744143 0
0.539469 0.49690008 -0.39013052 0
0.13678694 -0.44578743 -0.35226917 0
0.19741249 -0.42176604 -0.35152984 0
0.29768276 -0.43019152 -0.33659053 0
0.37986517 -0.38925529 -0.34727168 0
0.46006393 -0.35611606 -0.3751421 0
0.096303463 -0.28213382 -0.34807312 0
0.21467876 -0.35259056 -0.37351966 0
0.34306431 -0.4419558 -0.28154302 0
0.43838453 -0.44045663 -0.27655411 0
0.89284539 0.46809626 -0.49378991 0
0.68723726 -0.24047804 -0.45887566 0
0.97038364 -0.20328641 -0.52521038 0
0.37368774 -0.1963706 -0.4072392 0
0.45672798 -0.21053886 -0.41735411 0
0.56980515 -0.17641544 -0.43200278 0
0.72887468 -0.170439 -0.46239305 0
0.30021334 -0.094241858 -0.38665676 0
0.40571117 -0.079434633 -0.40355134 0
0.530056 -0.070882797 -0.42859006 0
0.61801863 -0.06038785 -0.43502116 0
0.77806759 -0.095861197 -0.47059226 0
0.81953573 -0.048560381 -0.48177075 0
0.338202 -0.019724846 -0.38489366 0
0.41756535 0.021830559 -0.39644408 0
0.5532341 0.019355774 -0.42687869 0
0.65655231 0.064582348 -0.43535042 0
0.69165134 0.048556328 -0.45324636 0
0.86050844 0.045755625 -0.48674083 0
0.8915236 0.056512594 -0.49802089 0
0.21971083 0.11067533 -0.35606515 0
0.34666729 0.096173286 -0.38594437 0
0.45400524 0.11805153 -0.40257335 0
0.57230377 0.12204981 -0.42379832 0
0.72754812 0.15365243 -0.45597482 0
0.89205241 0.17209268 -0.48639011 0
0.24658871 0.19224429 -0.36109889 0
0.35002899 0.20033526 -0.37826777 0
0.47722769 0.1830883 -0.40665293 0
0.48582554 0.23671031 -0.40506494 0
0.60130405 0.20319629 -0.42731965 0
0.80124712 0.24480939 -0.47752094 0
0.94431114 0.25543499 -0.49857569 0
0.23790789 0.29619384 -0.35086024 0
0.30471659 0.33161664 -0.35989714 0
0.37645006 0.29062366 -0.38275886 0
0.51058841 0.30330849 -0.40986729 0
0.60816431 0.32782197 -0.43429339 0
0.66927695 0.34851289 -0.44246519 0
0.83012605 0.33717895 -0.47946405 0
0.99044681 0.33799267 -0.50880384 0
0.22985649 0.38798046 -0.34297585 0
0.30207968 0.40371871 -0.33876991 0
0.44482136 0.43096805 -0.37845349 0
0.46802568 0.38204837 -0.38868189 0
0.70230937 0.45531392 -0.44903862 0
0.23587418 0.49073434 -0.34169579 0
0.37416196 0.49497938 -0.33561599 0
0.57096958 0.48602152 -0.39783275 0
0.09990263 -0.41394091 -0.37011349 0
0.17806673 -0.42197394 -0.3566308 0
0.27409554 -0.43756235 -0.33624983 0
0.35291243 -0.38059855 -0.37085605 0
0.44612312 -0.37442017 -0.36631346 0
0.60078096 -0.34657216 -0.440979 0
0.10324192 -0.2938211 -0.35283184 0
0.18514395 -0.31263447 -0.37383723 0
0.29767561 -0.30607581 -0.38979435 0
0.3894639 -0.3278532 -0.39650297 0
0.47090721 -0.29398322 -0.41531944 0
0.62127209 -0.31106043 -0.44279766 0
0.14198971 -0.2042439 -0.35739791 0
0.24264002 -0.20987749 -0.3768847 0
0.36292839 -0.16472173 -0.39638758 0
0.44558334 -0.18147254 -0.40639734 0
0.1771512 -0.10053778 -0.3593905 0
0.27309084 -0.10691547 -0.37589228 0
0.17823124 -0.024307966 -0.35088015 0
0.19985676 0.034206629 -0.35443294 0
0.17511034 0.050869942 -0.34197152 0
0.3086338 -0.45025778 -0.30597186 0
0.3556509 -0.43537164 -0.29097199 0
0.45656061 -0.44130468 -0.27991533 0
0.80362868 0.32269001 -0.47496104 0
0.98722911 0.34362078 -0.50664616 0
0.86751699 0.43724489 -0.48995805 0
0.065063477 -0.49875915 -0.39169061 0
0.59541368 -0.3333354 -0.44127774 0
0.25792503 -0.26295257 -0.38615227 0
0.3521986 -0.32733035 -0.40808606 0
0.4726634 -0.28597856 -0.41674876 0
0.58499765 -0.31549096 -0.43082213 0
0.62303305 -0.26475048 -0.43830872 0
0.035886288 -0.19686842 -0.35830438 0
0.28722525 -0.19603825 -0.38771808 0
0.37846184 -0.19950032 -0.39728642 0
0.45572281 -0.19939637 -0.41277623 0
0.52587891 -0.16813016 -0.41858935 0
0.6828413 -0.19527125 -0.4501729 0
0.7544837 -0.1172359 -0.46757698 0
0.053027153 -0.11540818 -0.35535789 0
0.14740038 -0.1003561 -0.36035299 0
0.21491003 -0.073661327 -0.36899507 0
0.32699966 -0.080701351 -0.38874483 0
0.43759584 -0.091990948 -0.4070375 0
0.58706045 -0.086081028 -0.43364716 0
0.82686496 -0.031502962 -0.48491693 0
0.090365887 -0.0031797886 -0.35944211 0
0.14355135 0.0023691654 -0.36251926 0
0.22506809 0.0019638538 -0.36476195 0
0.36123562 0.028271675 -0.39095795 0
0.45448589 0.0077967644 -0.40164948 0
0.63883114 0.024979353 -0.44068122 0
0.87178087 0.039524794 -0.49257493 0
0.14017773 0.09128356 -0.35887909 0
0.22875786 0.087901831 -0.3576498 0
0.36960888 0.10665655 -0.38645816 0
0.50009394 0.12642908 -0.40903664 0
0.69887805 0.15629411 -0.45043111 0
0.86925817 0.1199038 -0.48440886 0
0.90135217 0.19642568 -0.48877072 0
0.15464973 0.1939435 -0.36361575 0
0.22798061 0.19868422 -0.36142385 0
0.33424044 0.19420123 -0.37881303 0
0.38644886 0.21451449 -0.38368392 0
0.54714012 0.22614598 -0.41836011 0
0.7460227 0.23440671 -0.46048236 0
0.89817262 0.22869706 -0.48189926 0
0.13685179 0.28684855 -0.35717988 0
0.19060183 0.28859711 -0.35305655 0
0.30411243 0.32222867 -0.3630234 0
0.43807673 0.2936604 -0.39857781 0
0.6058569 0.33619308 -0.43221653 0
0.13825321 0.39144158 -0.34654057 0
0.22783375 0.39065981 -0.34795225 0
0.32245016 0.39789748 -0.34980321 0
0.42367435 0.45413995 -0.36066079 0
0.49221158 0.41843414 -0.38481545 0
0.65129375 0.4211936 -0.44383764 0
0.098668575 0.46768236 -0.3346138 0
0.19760275 0.49999499 -0.33870947 0
0.39316773 0.49699974 -0.34862363 0
0.28735352 -0.47319615 -0.32151675 0
-0.024791718 -0.44006896 -0.36029351 0
0.074620247 -0.4330101 -0.37503982 0
0.16432333 -0.43015265 -0.35500288 0
0.30343151 -0.42413306 -0.33780122 0
0.37643719 -0.37786555 -0.35917974 0
-0.0038557053 -0.31967759 -0.3582437 0
0.064671993 -0.32785082 -0.35700083 0
0.16673088 -0.34662366 -0.36674595 0
0.30986786 -0.31952 -0.3873868 0
0.32877111 -0.28389859 -0.38919234 0
0.013480663 -0.25073504 -0.35575008 0
0.062753201 -0.21841073 -0.34700847 0
0.14871025 -0.21797109 -0.35867262 0
0.24073982 -0.22262478 -0.36979437 0
0.40918684 -0.49852467 -0.2308042 0
0.3167944 -0.45655632 -0.29132795 0
0.38673162 -0.43866229 -0.2769928 0
0.92957354 -0.047451258 -0.50833774 0
0.99133801 0.078406572 -0.51882815 0
0.73270226 0.16284776 -0.45666265 0
0.96651673 0.15356064 -0.50362706 0
0.83254147 0.2735281 -0.48491693 0
0.98536849 0.24128747 -0.50141382 0
0.82085204 0.30332899 -0.47385788 0
0.89961195 0.38456464 -0.49871278 0
0.62695456 0.40382624 -0.43283784 0
0.91845846 0.46262312 -0.49696124 0
0.1582675 -0.4725951 -0.38764358 0
-0.11837482 -0.4483943 -0.36244631 0
-0.02245903 -0.42814815 -0.36474538 0
0.067678928 -0.44816053 -0.37868178 0
0.15439415 -0.3970561 -0.37122667 0
0.21659613 -0.35941386 -0.3664093 0
0.34562206 -0.3697629 -0.37918186 0
0.42152834 -0.34049988 -0.39877462 0
-0.11880302 -0.34289265 -0.35573936 0
-0.042866707 -0.33063173 -0.36025977 0
0.030606747 -0.31937766 -0.35634863 0
0.15443325 -0.32499051 -0.37516785 0
0.26603842 -0.33015108 -0.37071919 0
0.31650305 -0.30611634 -0.38940644 0
0.49324465 -0.27163482 -0.4196918 0
0.66454077 -0.31507134 -0.45539403 0
0.74242687 -0.24629235 -0.47198129 0
-0.044029713 -0.2193954 -0.35746396 0
0.069125175 -0.21674156 -0.35215652 0
0.21735048 -0.20562577 -0.3700763 0
0.37868404 -0.20651889 -0.40127802 0
0.40918541 -0.15813875 -0.40683055 0
0.53518629 -0.19706035 -0.42406988 0
0.84175634 -0.14848757 -0.49203205 0
-0.034222126 -0.12738323 -0.35690773 0
0.06391716 -0.13637972 -0.35265493 0
0.11470079 -0.11245704 -0.3536303 0
0.273808 -0.093278646 -0.37931228 0
0.44553995 -0.08975172 -0.41197443 0
0.60515785 -0.078801632 -0.43516707 0
-0.027671814 -0.050578117 -0.35812891 0
0.045315266 -0.015026331 -0.36407375 0
0.14756584 -0.006172657 -0.36022079 0
0.27755976 -0.0190382 -0.37149549 0
0.30269194 0.050569534 -0.37487209 0
0.47853851 -0.016468763 -0.41650391 0
0.49015665 0.028770685 -0.41610706 0
0.6834898 0.059892178 -0.44953012 0
0.026830196 0.071435452 -0.36312294 0
0.11000252 0.094510317 -0.35688758 0
0.20145226 0.096703529 -0.35856116 0
0.33118916 0.10893154 -0.38154566 0
0.50001526 0.11537147 -0.41077316 0
0.023844719 0.19170213 -0.36011422 0
0.13167048 0.18878436 -0.36038232 0
0.23104095 0.19022083 -0.36263227 0
0.33582878 0.19472766 -0.37562621 0
0.55577326 0.22932291 -0.42174566 0
0.57772374 0.27351308 -0.425506 0
0.035128117 0.2957685 -0.3590374 0
0.11276102 0.29279137 -0.35613716 0
0.21605921 0.29334068 -0.35667574 0
0.3100996 0.33268285 -0.35854745 0
0.38097763 0.29974651 -0.38595581 0
0.59688807 0.32451105 -0.4274348 0
0.042341709 0.38747334 -0.35818422 0
0.1111021 0.38518238 -0.34446847 0
0.22884464 0.40972328 -0.34952998 0
0.29162788 0.38960886 -0.34827983 0
0.41465878 0.43507266 -0.36052179 0
0.0082736015 0.47758698 -0.34200037 0
0.097784519 0.48730111 -0.33598042 0
0.30593109 0.47888398 -0.3342942 0
0.18306971 -0.44075871 -0.34269452 0
0.28603458 -0.43304777 -0.3275187 0
0.34943867 -0.41747928 -0.31760001 0
0.41416454 -0.36216617 -0.37733603 0
0.48962545 -0.48150754 -0.22721148 0
0.38318539 -0.45434952 -0.25444508 0
0.92848039 0.28673196 -0.49535394 0
0.96373105 0.34625554 -0.49966764 0
0.79340672 0.47670269 -0.47268033 0
-0.14945436 0.49192858 -0.36466718 0
-0.33210516 -0.43626738 -0.36822939 0
-0.25148344 -0.43626761 -0.36762738 0
-0.17592478 -0.42908156 -0.36133313 0
-0.088005543 -0.41517758 -0.37200427 0
0.46598291 -0.34299827 -0.41439462 0
-0.34659195 -0.372962 -0.35681176 0
-0.25800705 -0.33743834 -0.36456406 0
-0.16341019 -0.33654463 -0.36660874 0
-0.091723442 -0.29647279 -0.36537921 0
0.48574448 -0.30915737 -0.41440272 0
0.55335236 -0.23911357 -0.43081951 0
-0.25757647 -0.24451196 -0.36702406 0
-0.15227509 -0.23856783 -0.3627249 0
-0.064426422 -0.21462846 -0.36179256 0
0.24397469 -0.18311644 -0.38081837 0
0.36012888 -0.21495819 -0.39501405 0
0.61620617 -0.15760255 -0.4418714 0
-0.25009012 -0.14061356 -0.36761308 0
-0.16513824 -0.13477468 -0.36580884 0
-0.06112051 -0.12676001 -0.35755134 0
0.026786804 -0.13289928 -0.36394799 0
0.12143135 -0.089883804 -0.36267591 0
0.24508953 -0.14895844 -0.37437785 0
0.28872585 -0.072057009 -0.38235354 0
0.43006468 -0.11045933 -0.40603375 0
0.66377544 -0.049917936 -0.43894434 0
0.68303967 -0.067871571 -0.4538579 0
-0.17414236 -0.023740053 -0.37384748 0
-0.10372305 -0.021265268 -0.36972439 0
0.0091485977 -0.022171497 -0.36565137 0
0.12901592 -0.016964912 -0.35536838 0
0.32187557 0.022304773 -0.38345933 0
0.47731209 -0.010179043 -0.41023254 0
0.75354171 0.044004679 -0.46389437 0
0.76827455 0.08733511 -0.46110058 0
-0.20300865 0.058188438 -0.36733937 0
-0.089568615 0.086174726 -0.37177622 0
0.025579453 0.072921515 -0.36723316 0
0.11914873 0.099180937 -0.367082 0
0.21507072 0.11570406 -0.36613452 0
0.35549164 0.10863853 -0.38713706 0
0.37433004 0.15835142 -0.38950419 0
0.54111099 0.11172509 -0.42195117 0
0.84509468 0.16543269 -0.48207951 0
-0.19270706 0.17772961 -0.36247826 0
-0.08059597 0.18234587 -0.3677901 0
-0.014757633 0.17350841 -0.36375058 0
0.093010426 0.20329595 -0.37008929 0
0.17560339 0.19024849 -0.36257434 0
0.24948311 0.24029851 -0.36736798 0
0.37779284 0.21917987 -0.38292849 0
0.59676981 0.21732521 -0.42927706 0
0.897506 0.23476887 -0.49196124 0
-0.17864037 0.28816891 -0.36147022 0
-0.10475063 0.25332046 -0.36649072 0
-0.0023550987 0.29229259 -0.3624059 0
0.08600378 0.26616764 -0.35120773 0
0.16256714 0.32273436 -0.35796785 0
0.28121042 0.324121 -0.363446 0
0.4357996 0.30281472 -0.39585125 0
0.69115973 0.33899236 -0.44960904 0
-0.17891741 0.39301038 -0.35634577 0
-0.12039423 0.37327814 -0.35354352 0
0.00079393387 0.38746691 -0.35651922 0
0.072604179 0.39493418 -0.34909451 0
0.19115353 0.3910718 -0.34953821 0
0.31220818 0.41064644 -0.3484087 0
0.39212656 0.45931745 -0.34400201 0
-0.20187545 0.46153188 -0.34470141 0
-0.12070131 0.48812127 -0.34873581 0
-0.037617683 0.46572471 -0.34665632 0
0.19902468 0.48295045 -0.34265053 0
0.27187777 -0.49077606 -0.31956553 0
-0.19479752 -0.47932148 -0.36047125 0
-0.057661057 -0.43880081 -0.36408424 0
0.052493095 -0.41527772 -0.36773264 0
0.16177082 -0.40609598 -0.3580327 0
0.25436974 -0.43765736 -0.3328011 0
0.33277845 -0.40317059 -0.3475194 0
-0.057601452 -0.32851148 -0.35602355 0
0.021916389 -0.32498145 -0.35295272 0
0.1716094 -0.31306291 -0.36904645 0
0.29949284 -0.30955625 -0.38620138 0
0.01692152 -0.23731303 -0.35082877 0
0.1023016 -0.18386245 -0.35726547 0
0.1970396 -0.23773384 -0.36941075 0
0.099372387 -0.11721683 -0.34488571 0
0.2906208 -0.4550302 -0.29199076 0
0.35807085 -0.44547987 -0.27403641 0
0.90547562 0.047001362 -0.49986267 0
0.90508723 0.1430316 -0.49264336 0
0.97875094 0.26984239 -0.5018661 0
-0.31023669 0.22503519 -0.3640902 0
-0.21330929 0.27629209 -0.37244248 0
0.7674675 0.37384868 -0.46559858 0
-0.24364829 0.40695477 -0.35322976 0
0.80066466 0.44957519 -0.46211624 0
0.10885143 -0.49933398 -0.38320243 0
-0.44957685 -0.45130885 -0.36642563 0
-0.36193895 -0.43617702 -0.36047387 0
-0.27490854 -0.43863821 -0.35993659 0
-0.16263723 -0.43974519 -0.37116504 0
-0.072437763 -0.42581749 -0.36301768 0
0.028582573 -0.40967846 -0.3699944 0
0.13463402 -0.4293381 -0.38155806 0
0.49435759 -0.32996988 -0.41528583 0
-0.4367547 -0.35086298 -0.36988544 0
-0.37816572 -0.3395263 -0.36567879 0
-0.27229786 -0.32443535 -0.36079478 0
-0.18878317 -0.33547616 -0.35639513 0
-0.079937935 -0.30250788 -0.35876441 0
0.053155422 -0.33005261 -0.3702563 0
0.14770079 -0.33354521 -0.37461495 0
0.27024317 -0.31556106 -0.37548423 0
0.35282135 -0.24234986 -0.39935064 0
0.576931 -0.23768973 -0.43082285 0
-0.39374208 -0.23912764 -0.36527324 0
-0.26806784 -0.22851229 -0.36998951 0
-0.1791296 -0.21155238 -0.35903776 0
-0.073442459 -0.2080586 -0.36350262 0
0.020573616 -0.22191954 -0.35675836 0
0.12384367 -0.20021415 -0.35809672 0
0.36783123 -0.17525434 -0.38729501 0
0.3848896 -0.19057965 -0.40140963 0
0.66965342 -0.13941836 -0.45167756 0
-0.34175539 -0.12840176 -0.38188052 0
-0.29612207 -0.13541031 -0.36873174 0
-0.16004705 -0.12357593 -0.36490643 0
-0.12496758 -0.14544439 -0.36453009 0
0.0045866966 -0.11403179 -0.36772549 0
0.083425045 -0.099940777 -0.3476752 0
0.20059586 -0.097089529 -0.36207652 0
0.45444775 -0.087652206 -0.41076255 0
0.71680069 -0.083778143 -0.45824099 0
0.80884147 -0.022785664 -0.47911596 0
-0.36407566 -0.059033394 -0.36368573 0
-0.26863289 -0.020325661 -0.37236297 0
-0.18606472 -0.04786849 -0.36798966 0
-0.084460735 -0.049135208 -0.36981165 0
-0.0079321861 -0.015074492 -0.36538053 0
0.095029831 0.0076348782 -0.35562277 0
0.22645187 0.013267756 -0.35627043 0
0.50725222 0.018480062 -0.41577768 0
-0.31533337 0.056907892 -0.36692846 0
-0.18695021 0.072061777 -0.369771 0
-0.10096693 0.057383776 -0.36943758 0
-0.026341438 0.10023808 -0.36646843 0
0.11289215 0.076120853 -0.35450804 0
0.19920301 0.14825511 -0.36616123 0
0.28533268 0.11268592 -0.36960626 0
0.55637693 0.13262653 -0.42077768 0
-0.31426406 0.14694285 -0.35787404 0
-0.20602751 0.17631459 -0.36284459 0
-0.098644733 0.17165351 -0.35997617 0
-0.013001442 0.19004226 -0.35833263 0
0.087115765 0.20227695 -0.36540866 0
0.19022655 0.20115113 -0.36826801 0
0.32476759 0.20450282 -0.37607074 0
0.60804391 0.20197892 -0.42982769 0
0.66327667 0.26292157 -0.44112825 0
-0.33412147 0.27919102 -0.35116422 0
-0.17833376 0.28086948 -0.35786247 0
-0.094164371 0.27210188 -0.36431098 0
-0.009953022 0.28672624 -0.35808766 0
0.076411247 0.32682347 -0.35163796 0
0.19447136 0.31897521 -0.36053169 0
0.26626921 0.30432415 -0.34592164 0
0.37206411 0.28974438 -0.38318539 0
-0.34719539 0.36327457 -0.34225821 0
-0.23223042 0.36322427 -0.35033286 0
-0.12348366 0.37648702 -0.35341048 0
-0.045985222 0.38137794 -0.34905636 0
0.078236103 0.40297318 -0.34822452 0
0.19999504 0.39360166 -0.34643793 0
0.26959944 0.38972425 -0.34204292 0
-0.40726781 0.45359278 -0.31553066 0
-0.30419207 0.49479866 -0.32660699 0
-0.22214413 0.45107484 -0.34596109 0
-0.1273706 0.48919272 -0.33967435 0
-0.014253616 0.48118663 -0.34067869 0
0.10199785 0.47726226 -0.33730006 0
0.24984288 0.48113418 -0.34010446 0
0.0035266876 -0.49127114 -0.36922848 0
0.25425768 -0.48585367 -0.31186509 0
0.15704441 -0.42146683 -0.35804081 0
0.22309446 -0.42439127 -0.33756852 0
0.33753061 -0.38859344 -0.35152721 0
-0.0065870285 -0.32391405 -0.34168065 0
0.11684799 -0.3011601 -0.3573854 0
0.19148016 -0.34415627 -0.35928726 0
0.27938795 -0.45121121 -0.27481532 0
0.36891842 -0.41855454 -0.28123689 0
-0.48339319 -0.31345987 -0.38186324 0
-0.46953773 -0.20351398 -0.37794054 0
-0.40451431 -0.25950944 -0.38089585 0
-0.42707062 -0.11424494 -0.37948895 0
-0.48688293 -0.061722755 -0.36140954 0
-0.37324286 -0.020811796 -0.37668085 0
-0.35373163 -0.049438953 -0.38632429 0
-0.21604204 -0.011141777 -0.38262832 0
-0.50237918 0.056670904 -0.35022426 0
-0.40065479 0.056098461 -0.36949289 0
-0.30004787 0.093496323 -0.37261832 0
-0.21690226 0.10262537 -0.37675011 0
-0.13564062 0.083936453 -0.38155019 0
-0.50125957 0.15178776 -0.34790063 0
-0.39491606 0.18186998 -0.36081767 0
-0.30719018 0.20429635 -0.36629236 0
0.67237568 0.27724814 -0.44295037 0
0.98707819 0.24222803 -0.49602151 0
-0.41720939 0.26623988 -0.35064304 0
-0.30996323 0.27419448 -0.36387098 0
-0.25140166 0.27189589 -0.3581357 0
0.72284389 0.3602283 -0.45491683 0
-0.36631203 0.37602496 -0.34177506 0
-0.18206406 0.42279196 -0.35521424 0
0.77281475 0.46290708 -0.46541965 0
-0.060445309 -0.49221098 -0.36788249 0
0.11652327 -0.49415684 -0.37603927 0
-0.54119062 -0.44551742 -0.3706305 0
-0.48216152 -0.44264388 -0.36611247 0
-0.3745532 -0.42990458 -0.35951006 0
-0.29105902 -0.42522812 -0.35835099 0
-0.19399548 -0.40092897 -0.36318934 0
-0.1179018 -0.4226526 -0.36202061 0
-0.001783371 -0.40439022 -0.36032104 0
0.12380266 -0.37862778 -0.36829388 0
0.19219398 -0.38206053 -0.3524735 0
0.35536146 -0.37031889 -0.36123323 0
0.43199348 -0.32775021 -0.40727592 0
-0.46961355 -0.35446084 -0.37184644 0
-0.40005922 -0.33945942 -0.36079037 0
-0.28004503 -0.30708182 -0.36531305 0
-0.18379831 -0.31562173 -0.35882556 0
-0.10086155 -0.31691456 -0.36028194 0
0.0040187836 -0.29228711 -0.35513091 0
0.21049547 -0.29658985 -0.36967301 0
0.48525429 -0.2541635 -0.42030549 0
-0.50106525 -0.27613783 -0.37042165 0
-0.39807987 -0.2262876 -0.36572576 0
-0.29244709 -0.22796726 -0.36685967 0
-0.20334721 -0.22416544 -0.36412179 0
-0.10582161 -0.21675634 -0.35932708 0
0.0076756477 -0.18530917 -0.35772359 0
0.068524837 -0.22241116 -0.35409153 0
0.24564981 -0.2025969 -0.37592316 0
0.29048157 -0.13010788 -0.38699937 0
0.51117992 -0.19721222 -0.42347288 0
0.55057573 -0.13498521 -0.43270683 0
-0.38754988 -0.16843581 -0.36548758 0
-0.29715824 -0.11147261 -0.36719811 0
-0.19956064 -0.11936593 -0.36806881 0
-0.10021925 -0.11827898 -0.36428332 0
-0.002954483 -0.091591358 -0.36249852 0
0.1135087 -0.10836911 -0.36214387 0
0.28570652 -0.059338808 -0.37953532 0
0.57502365 -0.055391312 -0.43320632 0
-0.32545042 -0.0087499619 -0.36662543 0
-0.21665525 0.001021862 -0.36703658 0
-0.10803223 -0.019274712 -0.36477745 0
0.038954735 0.0082714558 -0.35400569 0
0.12362051 0.00771451 -0.35613751 0
0.14552736 0.019230127 -0.36451483 0
0.27826309 0.039176702 -0.37016785 0
0.59058285 0.06218195 -0.42882085 0
-0.18174171 0.12578273 -0.36115611 0
-0.084370613 0.087739706 -0.36791158 0
0.010981083 0.10722971 -0.37177098 0
0.091781139 0.11058831 -0.35763752 0
0.25936079 0.11030459 -0.35876489 0
0.60545421 0.15035605 -0.43023944 0
-0.35083365 0.12905431 -0.35093522 0
-0.22848988 0.17507863 -0.35999119 0
-0.12660408 0.21375656 -0.3578645 0
-0.0097026825 0.20433092 -0.37072229 0
0.072888851 0.21944976 -0.3560425 0
0.18728304 0.20874977 -0.36883402 0
0.30197334 0.22317314 -0.3716377 0
0.63250208 0.20944595 -0.43451512 0
-0.56059647 0.25860858 -0.32258868 0
-0.46691108 0.30714655 -0.33102024 0
-0.36793327 0.31769991 -0.34107971 0
-0.23734903 0.29816914 -0.34905148 0
-0.12356567 0.31533837 -0.35675013 0
-0.015991688 0.31842422 -0.35383129 0
0.074968815 0.32552981 -0.35427952 0
0.16360903 0.30279994 -0.35634482 0
0.26789618 0.32027483 -0.35592568 0
-0.68797946 0.33714855 -0.27280104 0
-0.60522628 0.33603227 -0.30455828 0
-0.52152824 0.36199975 -0.31008768 0
-0.41091275 0.40911388 -0.32517338 0
-0.2949338 0.39510536 -0.34018588 0
-0.15381336 0.39985037 -0.34969866 0
-0.045525551 0.41384411 -0.3526305 0
0.051241398 0.42461491 -0.34424639 0
0.13576603 0.40594411 -0.34436905 0
0.2566483 0.43133092 -0.35033429 0
0.35485387 0.47481418 -0.34628212 0
-0.75635052 0.44929504 -0.24753332 0
-0.63713408 0.44333518 -0.275581 0
-0.54403567 0.4624542 -0.28928554 0
-0.46884871 0.45980024 -0.3041048 0
-0.336869 0.48923326 -0.32578397 0
-0.2323153 0.47133303 -0.33587945 0
-0.064894199 0.48066449 -0.33410621 0
0.23241901 -0.48499584 -0.31343842 0
0.33962011 -0.47843671 -0.2910521 0
0.34145594 -0.41264677 -0.30660558 0
0.36508989 -0.48608708 -0.2362659 0
-0.94377398 -0.45977902 -0.3284713 0
-0.82980251 -0.48592222 -0.34524512 0
-0.71348047 -0.44657838 -0.35923958 0
-0.60741854 -0.45674205 -0.36947322 0
-0.53377962 -0.44077039 -0.37102675 0
-0.93598509 -0.36646891 -0.32642317 0
-0.83143377 -0.35711634 -0.34076965 0
-0.72413206 -0.35735834 -0.35586488 0
-0.60934591 -0.35642016 -0.36345685 0
-0.51532841 -0.33016396 -0.37267959 0
-0.4324832 -0.30584347 -0.37693143 0
-0.93403888 -0.26436329 -0.32224691 0
-0.85672355 -0.25838625 -0.3317436 0
-0.73837924 -0.25956476 -0.3497113 0
-0.64296627 -0.22070694 -0.3627367 0
-0.54159594 -0.26012278 -0.37298644 0
-0.44348145 -0.22963858 -0.37874365 0
-0.93289208 -0.17117 -0.31046093 0
-0.79897642 -0.14291453 -0.32896149 0
-0.74029899 -0.17390561 -0.34231937 0
-0.63679099 -0.14411628 -0.35850465 0
-0.53052425 -0.13204086 -0.36904252 0
-0.45606995 -0.13156176 -0.37526143 0
-0.92766261 -0.07153523 -0.30424476 0
-0.84405398 -0.045464158 -0.31592906 0
-0.745924 -0.070744514 -0.33398604 0
-0.63110352 -0.044231892 -0.34590566 0
-0.5262568 -0.017256737 -0.36003292 0
-0.41703677 -0.013065577 -0.37450516 0
-0.39603615 -0.071500301 -0.38356459 0
-0.54957652 0.10463309 -0.35041082 0
-0.44209576 0.084035635 -0.36446655 0
-0.16742945 -0.48971045 -0.36616993 0
0.14368868 -0.49085248 -0.37839627 0
-0.43849564 -0.42451477 -0.36734354 0
-0.34567261 -0.43500483 -0.35989356 0
-0.2410903 -0.4105705 -0.35925806 0
-0.11129045 -0.40673828 -0.3640331 0
0.017317295 -0.38240397 -0.36404884 0
0.07873106 -0.39916337 -0.36595619 0
0.17502403 -0.39900875 -0.37291098 0
0.34513187 -0.3547411 -0.3966589 0
0.57187223 -0.35381103 -0.42978072 0
-0.43209553 -0.36014128 -0.36635554 0
-0.33027172 -0.31686211 -0.37081277 0
-0.21468878 -0.30786765 -0.35649848 0
-0.094258785 -0.29825747 -0.35629964 0
0.0072965622 -0.29560232 -0.35811388 0
0.11134005 -0.29225779 -0.35705137 0
0.33051729 -0.26618624 -0.38893723 0
0.59980726 -0.25735927 -0.43558359 0
-0.44658422 -0.19384277 -0.36672521 0
-0.33476686 -0.23447704 -0.37066019 0
-0.21548557 -0.19331646 -0.36777043 0
-0.13124847 -0.21000862 -0.35840547 0
0.0016913414 -0.22625422 -0.35300851 0
0.077041626 -0.18417859 -0.35502708 0
0.38708544 -0.14923477 -0.40634704 0
0.61915827 -0.1242609 -0.43688989 0
-0.36850643 -0.12571478 -0.36961484 0
-0.26490307 -0.11950088 -0.37012053 0
-0.14029741 -0.10366082 -0.36133015 0
-0.055616856 -0.13088632 -0.36430883 0
0.063251972 -0.092520237 -0.35202444 0
0.37908125 -0.064990759 -0.40082765 0
0.65347719 -0.01397419 -0.44640279 0
-0.75986338 -0.0086972713 -0.32043314 0
-0.34856081 -0.015529394 -0.37513638 0
-0.2754364 0.0043094158 -0.37122726 0
-0.15287495 -0.0010371208 -0.37333226 0
-0.037384987 0.0015017986 -0.36714482 0
0.070955753 0.014813423 -0.37129104 0
0.14035416 0.032085419 -0.35843837 0
0.31459856 0.034367323 -0.37658489 0
0.66226721 0.052649736 -0.44787049 0
-0.95323348 0.021570802 -0.28581238 0
-0.87226844 0.020552635 -0.29700518 0
-0.793221 0.042877674 -0.30694604 0
-0.67312574 0.060268402 -0.32855475 0
-0.57420826 0.038648367 -0.34109676 0
-0.36398292 0.073989153 -0.36851108 0
-0.29175901 0.070773363 -0.36439919 0
-0.17608738 0.11290717 -0.3651973 0
-0.096767902 0.094254732 -0.37375057 0
0.029780388 0.093279362 -0.36563158 0
0.14441109 0.11314082 -0.35757053 0
0.30351877 0.13015079 -0.37337899 0
0.64894366 0.15096045 -0.44317412 0
-0.95467067 0.12729299 -0.26368141 0
-0.8439033 0.13483822 -0.29198098 0
-0.74455428 0.14264083 -0.30110765 0
-0.65509987 0.15349174 -0.32282531 0
-0.55305958 0.12747025 -0.33571529 0
-0.51263261 0.18621731 -0.33822584 0
-0.38239169 0.17075062 -0.36163676 0
-0.28088617 0.18272161 -0.36855555 0
-0.20703983 0.18413591 -0.36430526 0
-0.062009811 0.19332194 -0.36579907 0
0.046655178 0.19079232 -0.35844481 0
0.16851568 0.21008539 -0.3652221 0
0.2782917 0.21780825 -0.36530972 0
0.65040851 0.24519157 -0.44011486 0
-0.99091649 0.21092844 -0.2393471 0
-0.87749815 0.23595417 -0.2624712 0
-0.7665627 0.22057986 -0.29298794 0
-0.67681694 0.25527298 -0.30318916 0
-0.57923436 0.25784731 -0.32073975 0
-0.44587064 0.2770524 -0.3394345 0
-0.38876414 0.22969031 -0.35992718 0
-0.28371263 0.30864215 -0.35788965 0
-0.18638945 0.29250407 -0.3620708 0
-0.088399887 0.28226471 -0.3615309 0
0.042529106 0.3085711 -0.35767865 0
0.16032171 0.32660031 -0.36308372 0
0.23385477 0.32552171 -0.35037339 0
0.68731403 0.35678959 -0.45054233 0
-0.96644282 0.32807493 -0.21863019 0
-0.86787653 0.33639657 -0.24486423 0
-0.79008698 0.32955205 -0.26218903 0
-0.68018961 0.34661555 -0.29121447 0
-0.58656192 0.36996448 -0.30201733 0
-0.50225925 0.3400619 -0.3201685 0
-0.36539888 0.39514232 -0.34104872 0
-0.25155663 0.37618279 -0.34964979 0
-0.16461444 0.39518261 -0.35037351 0
-0.081301212 0.39577818 -0.3505348 0
0.018937111 0.41470218 -0.3510257 0
0.097218037 0.45610571 -0.34271276 0
0.19159985 0.42351294 -0.35672653 0
-0.98932314 0.42228866 -0.19795012 0
-0.87712097 0.4303838 -0.22103214 0
-0.758564 0.42027783 -0.25232124 0
-0.67796206 0.48303199 -0.26120186 0
-0.61649203 0.43176126 -0.28146291 0
-0.48249245 0.45843816 -0.3013885 0
-0.31768417 0.49767804 -0.33008289 0
-0.19253087 0.48972559 -0.35009754 0
-0.11149979 0.49786735 -0.34176934 0
0.19155979 -0.47750711 -0.33539081 0
0.301054 -0.47338355 -0.3055532 0
0.3221302 -0.39881945 -0.34603667 0
0.37149811 -0.39087224 -0.31317139 0
0.29919529 0.36639285 -0.33786905 0
0.3023572 0.43836188 -0.34074605 0
0.27265429 0.48972654 -0.33131218 0
0.39303875 -0.48074055 -0.2341466 0
-0.91416883 -0.4539026 -0.3358016 0
-0.8329463 -0.43386257 -0.33844256 0
-0.70852184 -0.45215404 -0.35467744 0
-0.66646624 -0.42198861 -0.37081325 0
-0.55561972 -0.40663147 -0.37837136 0
-0.94581103 -0.36734879 -0.33244705 0
-0.84802198 -0.32159805 -0.3422327 0
-0.74772501 -0.33777654 -0.35180664 0
-0.68227124 -0.28675652 -0.36427617 0
-0.59056163 -0.32044637 -0.37334633 0
-0.48389769 -0.27535057 -0.38879907 0
-0.97427201 -0.230618 -0.31372368 0
-0.89657235 -0.25398886 -0.33119214 0
-0.77894497 -0.23460662 -0.34004331 0
-0.62769389 -0.22202814 -0.35979974 0
-0.56016445 -0.22986937 -0.37278748 0
-0.48543072 -0.22849786 -0.38847816 0
-0.95122886 -0.13099015 -0.30997777 0
-0.84832048 -0.13394916 -0.326213 0
-0.75287294 -0.14115393 -0.3383522 0
-0.57099247 -0.15447462 -0.36952043 0
-0.885427 -0.044705272 -0.31292653 0
-0.76271129 -0.062011957 -0.33548224 0
-0.65895391 -0.058647394 -0.35014701 0
-0.53707528 -0.034605742 -0.37204826 0
-0.5571413 -0.4616766 -0.36100698 0
-0.37338161 -0.48458159 -0.36984909 0
-0.24497938 -0.48349965 -0.37594199 0
-0.10137367 -0.47729754 -0.37235725 0
-0.0030794144 -0.43507409 -0.37136567 0
-0.54876423 -0.36177337 -0.36390209 0
-0.44867754 -0.42524815 -0.37211502 0
-0.34331512 -0.39109945 -0.36516917 0
-0.21222353 -0.37850463 -0.36925435 0
-0.11064243 -0.3873471 -0.37047994 0
-0.018977642 -0.37387335 -0.3669126 0
-0.44790602 -0.32864571 -0.37217426 0
-0.33879232 -0.29082382 -0.37219512 0
-0.24717569 -0.27508521 -0.36608863 0
-0.1476469 -0.31691158 -0.35762691 0
-0.063444138 -0.26592398 -0.36471748 0
-0.43641043 -0.20062613 -0.37726724 0
-0.34527349 -0.17320919 -0.38106751 0
-0.2605257 -0.16847181 -0.37157726 0
-0.15229988 -0.17855644 -0.36851192 0
-0.021883965 -0.16395426 -0.368608 0
-0.6676445 -0.1248858 -0.34591663 0
-0.56416345 -0.12104249 -0.36040092 0
-0.45560932 -0.11755633 -0.37112308 0
-0.35461378 -0.077123165 -0.37885237 0
-0.30091333 -0.088048697 -0.36727977 0
-0.16955566 -0.062754154 -0.36933887 0
-0.038413525 -0.061632156 -0.3633759 0
-0.93446183 -0.0023158789 -0.2950542 0
-0.81304789 -0.036313772 -0.31701636 0
-0.70445657 -0.00021529198 -0.33430898 0
-0.56971884 0.013310432 -0.36101592 0
-0.48397064 0.015493631 -0.36380553 0
-0.38652468 0.0029206276 -0.37897074 0
-0.28306103 -0.00098371506 -0.37547028 0
-0.15486908 0.029605627 -0.37630641 0
-0.11668921 0.075830936 -0.37349951 0
-0.013679981 0.036051273 -0.37396371 0
-0.97397852 0.068340421 -0.28091419 0
-0.85671926 0.074851155 -0.30282414 0
-0.77504873 0.065496922 -0.31745636 0
-0.66620064 0.10537028 -0.32800174 0
-0.5652988 0.10438728 -0.35096395 0
-0.51091552 0.097892284 -0.3563894 0
-0.4025147 0.12937403 -0.36698234 0
-0.29833555 0.11257863 -0.37325048 0
-0.22095919 0.1033504 -0.37213588 0
-0.13258553 0.13240814 -0.36960578 0
-0.0011959076 0.13216066 -0.38059521 0
-0.88163233 0.16098022 -0.28401554 0
-0.76831889 0.18261015 -0.3041898 0
-0.71425009 0.17460084 -0.31260812 0
-0.60404873 0.2013185 -0.32628429 0
-0.46927166 0.19117308 -0.34541011 0
-0.35512185 0.19658542 -0.35562229 0
-0.29719996 0.24868703 -0.36428297 0
-0.19390345 0.21583605 -0.36817312 0
-0.086182594 0.20921087 -0.36481452 0
-0.8854239 0.24494755 -0.26330256 0
-0.79007936 0.2508229 -0.28752232 0
-0.70551848 0.28455102 -0.29321921 0
-0.50312304 0.27160597 -0.33677185 0
-0.37964988 0.32373095 -0.3528291 0
-0.26269507 0.31543827 -0.36498725 0
-0.16830206 0.36757708 -0.36601746 0
-0.10880089 0.32348943 -0.36139262 0
-0.89927983 0.36275923 -0.24006712 0
-0.79068279 0.36271381 -0.26631916 0
-0.69760871 0.37151372 -0.27320933 0
-0.5857954 0.38018584 -0.29885769 0
-0.51681948 0.38306618 -0.30845988 0
-0.41589928 0.3924768 -0.33015871 0
-0.3291204 0.37705564 -0.3449012 0
-0.21228838 0.42967534 -0.35347247 0
-0.11042309 0.44993329 -0.35511553 0
-0.89272642 0.46513498 -0.21866906 0
-0.70789814 0.46954429 -0.26141191 0
-0.65126729 0.44230866 -0.26561403 0
-0.42753887 0.47319698 -0.31749558 0
0.1035676 -0.40414333 -0.36941671 0
0.15834475 -0.46004701 -0.36378622 0
0.27172756 -0.45814812 -0.32003236 0
0.3440218 -0.38512874 -0.34353638 0
0.074444294 -0.32769489 -0.36302185 0
0.18134499 -0.34839821 -0.36455297 0
0.23009491 -0.38557053 -0.34495926 0
0.44647169 -0.29278255 -0.40621448 0
0.050487041 -0.25985813 -0.35676217 0
0.18365812 -0.22574592 -0.36662126 0
0.4783988 -0.19919229 -0.41536331 0
0.068226337 -0.16262674 -0.36415553 0
0.13467646 -0.14117551 -0.35269284 0
0.45073462 -0.10725212 -0.40794253 0
0.06165266 -0.054047585 -0.36256957 0
0.1434741 -0.048460722 -0.35699248 0
0.43315554 0.0027163029 -0.40679061 0
0.056917191 0.085399151 -0.36275232 0
0.13358736 0.052494526 -0.37261808 0
0.32447863 0.11268353 -0.37631941 0
0.39409733 0.066228151 -0.39722311 0
0.86274147 0.09500289 -0.4885726 0
0.13609552 0.14618063 -0.36903536 0
0.319839 0.19528937 -0.38008058 0
0.7912035 0.21143699 -0.47311783 0
0.047289848 0.27221036 -0.3652494 0
0.12042809 0.24512672 -0.36641431 0
0.24716282 0.30397773 -0.35956216 0
0.27275801 0.24799109 -0.36592627 0
0.73177338 0.332412 -0.45635283 0
0.022913933 0.35504174 -0.36037326 0
0.084547997 0.36605358 -0.34778917 0
0.22481489 0.35971236 -0.35474896 0
0.27334762 0.40919304 -0.33089256 0
0.72383451 0.44465947 -0.45836926 0
-0.059695721 0.47070527 -0.33768916 0
0.018710136 0.45941544 -0.36429262 0
0.070663452 0.46644258 -0.34839177 0
0.19319677 0.45303726 -0.3489753 0
0.33352852 -0.44265318 -0.30586076 0
0.37214327 -0.4216342 -0.28274512 0
0.42877245 -0.44812799 -0.22776747 0
-0.64419007 -0.47394431 -0.36482775 0
-0.56653547 -0.49508095 -0.37482977 0
-0.43318748 -0.47491276 -0.36814857 0
-0.93277097 -0.44423425 -0.33685553 0
-0.84887862 -0.41702592 -0.34390128 0
-0.74877334 -0.43041122 -0.35456991 0
-0.66390347 -0.39921463 -0.36068296 0
-0.56091547 -0.38758075 -0.37292838 0
-0.46763229 -0.38774097 -0.37552118 0
-0.39847183 -0.36761355 -0.36978638 0
-0.98103976 -0.37021708 -0.32159042 0
-0.89553261 -0.33778799 -0.32994163 0
-0.7557776 -0.3184427 -0.34810627 0
-0.65201163 -0.30920887 -0.36873567 0
-0.55386209 -0.2980293 -0.37964189 0
-0.48356152 -0.28388369 -0.37516737 0
-0.95509362 -0.27097869 -0.3222338 0
-0.9238739 -0.20330787 -0.32423961 0
-0.81448197 -0.23695064 -0.3388294 0
-0.71142578 -0.21877146 -0.352 0
-0.5989964 -0.20299685 -0.36857629 0
-0.47171021 -0.16919136 -0.38575792 0
-0.39964771 -0.17288864 -0.38002455 0
-0.87902713 -0.14620399 -0.31934476 0
-0.76733398 -0.11725986 -0.33684826 0
-0.68278933 -0.12232232 -0.34335077 0
-0.54818106 -0.080165863 -0.36444783 0
-0.41588449 -0.094436407 -0.37926424 0
-0.95983744 -0.036592364 -0.29552138 0
-0.90376973 -0.026767492 -0.30470884 0
-0.78491664 -0.013735533 -0.32455158 0
-0.70026493 -0.049524784 -0.34107876 0
-0.26109028 -0.44487333 -0.37217748 0
-0.18860626 -0.48498797 -0.37506449 0
-0.051411629 -0.41281235 -0.37079394 0
0.025801659 -0.45572758 -0.37485051 0
0.1444335 -0.42313409 -0.37819636 0
-0.42752218 -0.33196986 -0.36140251 0
-0.34860277 -0.40039456 -0.35381627 0
-0.24317455 -0.33944166 -0.36425602 0
-0.13625002 -0.34391212 -0.36484516 0
-0.018055916 -0.30594063 -0.37064159 0
0.12949562 -0.3015902 -0.3815825 0
-0.42553616 -0.27090836 -0.36539388 0
-0.29271364 -0.27915657 -0.36987257 0
-0.1589303 -0.26519799 -0.36155641 0
-0.060330868 -0.22899914 -0.36094081 0
0.025426388 -0.2411139 -0.35156107 0
-0.37120581 -0.17565978 -0.35844481 0
-0.27683353 -0.18131733 -0.37123322 0
-0.15313959 -0.16295505 -0.36959195 0
-0.073082447 -0.1373589 -0.36207783 0
0.010759354 -0.11356926 -0.35457397 0
-0.44888806 -0.069802761 -0.36956131 0
-0.30867577 -0.07067728 -0.37686419 0
-0.18388367 -0.062690973 -0.36540198 0
-0.073450089 -0.053324938 -0.36736405 0
-0.01163578 -0.035559416 -0.35201585 0
-0.81039834 0.01607585 -0.30639124 0
-0.64985895 0.046635866 -0.3369118 0
-0.6126709 -0.01120615 -0.34618139 0
-0.4900825 0.02105689 -0.36148465 0
-0.3708899 0.062713385 -0.37447894 0
-0.28709459 0.030901909 -0.3791585 0
-0.19022369 0.059645176 -0.37171876 0
-0.10237646 0.066144228 -0.36575115 0
-0.004858017 0.038225174 -0.35935736 0
-0.97381639 0.10244358 -0.27514446 0
-0.88559747 0.09498167 -0.29562795 0
-0.83599877 0.073364258 -0.3008616 0
-0.68720961 0.093355179 -0.32704151 0
-0.61848235 0.14360976 -0.32627547 0
-0.5269928 0.1110239 -0.35499179 0
-0.37302923 0.1300056 -0.37867713 0
-0.30082464 0.14385056 -0.37576401 0
-0.2174201 0.14811516 -0.36940694 0
-0.11084318 0.15677404 -0.36994743 0
0.013216972 0.14499116 -0.37324047 0
-0.8586216 0.21785986 -0.27638662 0
-0.79640102 0.16733825 -0.29449475 0
-0.71897697 0.15228367 -0.32003403 0
-0.63716221 0.19969773 -0.32402182 0
-0.54049492 0.22998333 -0.33036757 0
-0.41684031 0.21080089 -0.35637093 0
-0.33686233 0.19588351 -0.36778152 0
-0.21654987 0.25002694 -0.36617291 0
-0.13847065 0.22103739 -0.36606717 0
-0.037970066 0.22349 -0.3627702 0
-0.8035605 0.29615486 -0.27490306 0
-0.6853323 0.29787552 -0.30147576 0
-0.64935708 0.2942431 -0.29930282 0
-0.51049709 0.32641387 -0.3216486 0
-0.43674898 0.28445339 -0.34217787 0
-0.29788399 0.34730792 -0.35942662 0
-0.19853973 0.35523772 -0.35784638 0
-0.068915367 0.34519601 -0.36320567 0
-0.99325895 0.35993803 -0.21552551 0
-0.81865311 0.39383805 -0.2515831 0
-0.68591619 0.39643061 -0.27072966 0
-0.58442259 0.38338184 -0.30257869 0
-0.51174164 0.43949556 -0.29966879 0
-0.4403336 0.3863008 -0.31722224 0
-0.20493436 0.45126367 -0.36443114 0
-0.7216177 0.45532191 -0.26456869 0
-0.58848453 0.47066343 -0.27834237 0
-0.29956865 0.48789835 -0.33802927 0
0.16914129 -0.4282434 -0.34038258 0
0.27630949 -0.41673326 -0.32939863 0
0.33566332 -0.38459992 -0.32905269 0
0.16210842 -0.33332038 -0.35438228 0
0.37817955 -0.32648063 -0.38042474 0
0.53773117 -0.26937246 -0.42701626 0
0.16607952 -0.17852283 -0.3662113 0
0.20328236 -0.25213599 -0.37222815 0
0.46704578 -0.20270705 -0.40977311 0
0.11901855 -0.12338948 -0.35526848 0
0.41380167 -0.090689421 -0.40270853 0
0.11933041 -0.026843786 -0.36165929 0
0.32380676 0.0044877529 -0.38405263 0
0.80617571 0.038416862 -0.47901487 0
0.079370499 0.081314802 -0.35553598 0
0.21091938 0.13413572 -0.36142862 0
0.27871561 0.096931458 -0.38005126 0
0.58097434 0.16583467 -0.42616129 0
0.66720533 0.094492674 -0.44390273 0
0.10195398 0.19177747 -0.3712014 0
0.19422483 0.18999505 -0.35986006 0
0.50990391 0.22296381 -0.41041791 0
-0.064047337 0.28391743 -0.35941458 0
0.055005074 0.23911452 -0.35990274 0
0.16979027 0.25032783 -0.35676849 0
0.47111416 0.30544591 -0.40751731 0
0.99596858 0.35301495 -0.50483823 0
-0.11471987 0.39802623 -0.35325575 0
-0.022575378 0.35349965 -0.34512651 0
0.076838017 0.33403969 -0.37543464 0
0.15448284 0.3605473 -0.36230505 0
0.27331829 0.3858676 -0.36042941 0
0.96099973 0.43717718 -0.50196958 0
-0.14314675 0.45909476 -0.34989512 0
-0.053982735 0.4480443 -0.34418285 0
0.069945812 0.4774828 -0.34692085 0
0.18094635 0.49459934 -0.34229422 0
-0.91665459 0.49704194 -0.2055465 0
-0.82900333 0.47062778 -0.23128974 0
-0.69164777 0.49214411 -0.24772394 0
0.3875947 -0.49407756 -0.22909927 0
0.34078455 -0.42177534 -0.27356339 0
-0.92806387 -0.48740923 -0.32868183 0
-0.82574773 -0.4428314 -0.34230578 0
-0.78151417 -0.48541212 -0.35444081 0
-0.64873004 -0.45420039 -0.37672114 0
-0.586555 -0.46952283 -0.37204754 0
-0.47272539 -0.43363059 -0.38220966 0
-0.38720274 -0.4196701 -0.36984396 0
-0.25580454 -0.43314719 -0.37058306 0
-0.94113135 -0.40007436 -0.32999063 0
-0.85769248 -0.35814762 -0.33755732 0
-0.73738074 -0.33884299 -0.35543573 0
-0.69572043 -0.37325835 -0.36679256 0
-0.61316276 -0.34756351 -0.37284911 0
-0.49367046 -0.33609247 -0.37403059 0
-0.38375282 -0.3044436 -0.37654984 0
-0.31542015 -0.33008397 -0.38043869 0
-0.974334 -0.27612555 -0.31884515 0
-0.92062283 -0.30068505 -0.32040489 0
-0.77719402 -0.25000477 -0.34895289 0
-0.66865873 -0.23683131 -0.36347771 0
-0.56615925 -0.22108173 -0.37085068 0
-0.51224709 -0.26425779 -0.38476777 0
-0.40014505 -0.22214425 -0.3793273 0
-0.87405157 -0.1564877 -0.32295966 0
-0.79734015 -0.12124205 -0.32953572 0
-0.73855662 -0.16439319 -0.34590423 0
-0.61200833 -0.14000225 -0.36287141 0
-0.48223138 -0.14240801 -0.37651384 0
-0.37032747 -0.12532997 -0.38336241 0
-0.98848605 -0.033043265 -0.29325747 0
-0.88969207 -0.071294665 -0.31320035 0
-0.75256801 -0.0097165108 -0.32749653 0
-0.68616009 -0.058205962 -0.34523344 0
-0.59574389 -0.013355255 -0.35141754 0
-0.53762817 -0.048812628 -0.36716998 0
-0.39030933 -0.044886351 -0.38551438 0
-0.90818691 0.00471735 -0.30269349 0
-0.80161691 0.031647682 -0.31499362 0
-0.42077827 0.023842573 -0.38275242 0
-0.054979801 -0.49921644 -0.38267779 0
0.17473507 -0.47971737 -0.35850096 0
-0.14038229 -0.39440298 -0.36546087 0
-0.077492714 -0.36280787 -0.35189819 0
0.013019562 -0.39987135 -0.37666023 0
0.14979267 -0.38806701 -0.37073565 0
0.19020939 -0.33846903 -0.36464787 0
0.40489769 -0.31965709 -0.38915086 0
-0.27161551 -0.33349061 -0.36506343 0
-0.16343403 -0.29987121 -0.36750007 0
-0.068674088 -0.26239276 -0.36517119 0
0.06112051 -0.25581336 -0.36939001 0
0.20720243 -0.26355648 -0.37744701 0
0.52154493 -0.27272439 -0.42469072 0
-0.27479935 -0.24017382 -0.37332547 0
-0.22437763 -0.22929859 -0.3552767 0
-0.06431675 -0.19955516 -0.37308812 0
0.024328709 -0.20913649 -0.362854 0
0.12560797 -0.1552918 -0.36547375 0
0.4577446 -0.19350839 -0.41554046 0
-0.32114792 -0.13105202 -0.36988056 0
-0.20021296 -0.11516905 -0.37496126 0
-0.085944176 -0.10525393 -0.37632287 0
0.016546249 -0.1031661 -0.37185287 0
0.093237877 -0.057854891 -0.36611438 0
-0.31687784 -0.027571678 -0.38232863 0
-0.19068336 -0.035788774 -0.36880612 0
-0.071428299 0.030496836 -0.35935152 0
0.023897171 0.028157949 -0.37153375 0
0.070226669 0.0028159618 -0.36578918 0
-0.87726116 0.06534183 -0.29316819 0
-0.67354465 0.038505793 -0.33087969 0
-0.49385548 0.064552069 -0.36324811 0
-0.37279582 0.049018145 -0.37302816 0
-0.30137157 0.073588133 -0.36411083 0
-0.20690107 0.066311121 -0.37524438 0
-0.097238064 0.07322073 -0.3744204 0
-0.89605689 0.15731823 -0.28194678 0
-0.775172 0.14491367 -0.30802786 0
-0.70378637 0.15361309 -0.31859088 0
-0.61037707 0.16680551 -0.33617878 0
-0.52937865 0.15693092 -0.34812069 0
-0.43517303 0.15470958 -0.36458158 0
-0.29986262 0.18835855 -0.37774587 0
-0.20759153 0.19203758 -0.37231326 0
-0.079642296 0.21181273 -0.37835824 0
-0.96267867 0.22557795 -0.25309038 0
-0.93737984 0.26368153 -0.24052715 0
-0.82462859 0.21825612 -0.27262247 0
-0.62554383 0.25284553 -0.31501377 0
-0.48420382 0.30053091 -0.3334924 0
-0.41520596 0.25725937 -0.3498702 0
-0.23196459 0.30581379 -0.36109304 0
-0.14747477 0.29972172 -0.36847854 0
-0.88625383 0.33790672 -0.24150038 0
-0.72304368 0.3447293 -0.27929699 0
-0.59521866 0.34620047 -0.304304 0
-0.51106405 0.40663075 -0.30607677 0
-0.37932968 0.38830638 -0.34378374 0
-0.28629017 0.34097791 -0.36623836 0
-0.21544695 0.41405082 -0.36233592 0
-0.75709581 0.42029011 -0.26289928 0
0.24514246 -0.47643554 -0.30819392 0
0.33536243 -0.43697357 -0.29865932 0
0.28688717 -0.38141441 -0.350214 0
0.36417818 -0.40090871 -0.29045892 0
0.36769247 -0.12709832 -0.39698839 0
0.24996471 -0.060708523 -0.37102461 0
0.68489695 -0.058859348 -0.44883132 0
0.21579266 0.025885344 -0.37243176 0
0.59279728 0.020133972 -0.43270993 0
0.02409029 0.11801934 -0.36485195 0
0.1385169 0.1335485 -0.36118293 0
0.1841445 0.084646702 -0.36945903 0
0.32898855 0.15441823 -0.37701046 0
0.45996761 0.10466075 -0.40710855 0
0.85306454 0.2011888 -0.47751737 0
-0.021522522 0.21475005 -0.36282849 0
0.12972212 0.20544076 -0.36715984 0
0.28402138 0.22703147 -0.37441421 0
0.75255203 0.27164412 -0.45936799 0
-0.047273636 0.32882547 -0.36941469 0
0.084442616 0.31175804 -0.36724818 0
0.19820404 0.31403637 -0.36002815 0
0.28943396 0.36088991 -0.35028207 0
0.61297989 0.32266164 -0.42840374 0
-0.13430071 0.44757247 -0.35870016 0
-0.022144318 0.41689491 -0.36239934 0
0.15621805 0.43937612 -0.36483741 0
0.24133492 0.42787123 -0.34572947 0
-0.89410281 0.44552577 -0.22329926 0
-0.69015265 0.49909806 -0.26362658 0
-0.61805868 0.44678223 -0.27873147 0
-0.40133286 0.49006462 -0.31713152 0
-0.31205702 0.4449451 -0.33751142 0
-0.11991024 0.49931717 -0.35065472 0
0.38899517 -0.47825336 -0.23341322 0
0.35970998 0.46058273 -0.34501922 0
-0.86421442 -0.46485615 -0.34814095 0
-0.7574904 -0.47882891 -0.36883998 0
-0.64760041 -0.46320236 -0.37589598 0
-0.51131582 -0.44833457 -0.38086748 0
-0.89958382 -0.41227722 -0.34329295 0
-0.32398939 -0.48458099 -0.37337947 0
0.069647312 -0.4868176 -0.38229406 0
0.14540911 -0.49057984 -0.36758161 0
-0.43471527 -0.42229271 -0.37751067 0
-0.35102892 -0.4016695 -0.36073387 0
-0.23334455 -0.42561376 -0.37434292 0
-0.18194008 -0.36522269 -0.36418724 0
-0.054904938 -0.39217162 -0.37922347 0
0.14104176 -0.42583346 -0.37812257 0
-0.94080567 -0.36208582 -0.33648098 0
-0.83062458 -0.37627828 -0.34758043 0
-0.71381211 -0.36977994 -0.35882235 0
-0.61072588 -0.31110299 -0.37217212 0
-0.5524435 -0.36467111 -0.38195467 0
-0.44485331 -0.33386195 -0.37521923 0
-0.308002 -0.29586148 -0.37369871 0
-0.18945312 -0.28279412 -0.3756578 0
-0.050428867 -0.2928524 -0.36307251 0
0.1575613 -0.32822537 -0.39958286 0
0.59708977 -0.29013371 -0.44643474 0
-0.97554612 -0.2621417 -0.32656896 0
-0.86767292 -0.27405894 -0.34900582 0
-0.78637266 -0.2803247 -0.34853518 0
-0.67406464 -0.25594211 -0.36075962 0
-0.53602839 -0.26562107 -0.37395489 0
-0.45020533 -0.23394907 -0.37690628 0
-0.33132124 -0.22512627 -0.37917697 0
-0.2568903 -0.20821762 -0.36994433 0
-0.15172911 -0.20395565 -0.36671233 0
-0.94538045 -0.14397883 -0.31574726 0
-0.85750413 -0.16644669 -0.34038937 0
-0.75544477 -0.16815364 -0.34786439 0
-0.5873704 -0.1565609 -0.37477982 0
-0.49338174 -0.14679015 -0.37940776 0
-0.3863368 -0.14876509 -0.37718403 0
-0.27953672 -0.10715508 -0.38150883 0
-0.15884209 -0.092799664 -0.38457811 0
-0.83903694 -0.058309793 -0.32409167 0
-0.69586349 -0.068136811 -0.35407925 0
-0.58433032 -0.061498642 -0.36537468 0
-0.36688852 -0.0084326267 -0.3912878 0
-0.2965188 -0.026448965 -0.39136004 0
-0.67169619 -0.00010895729 -0.3478384 0
-0.47667384 0.021269798 -0.38000894 0
0.2043848 -0.49473798 -0.32182741 0
0.29751635 -0.44813609 -0.30802894 0
0.35153866 -0.44444227 -0.27269125 0
0.18370676 -0.38977957 -0.35533118 0
0.33784485 -0.3633759 -0.34104657 0
0.20034027 -0.29023314 -0.37825668 0
0.40959787 -0.22156501 -0.4080019 0
-0.047574997 -0.2175622 -0.36113667 0
0.056257725 -0.17841744 -0.35860729 0
0.2826848 -0.15243983 -0.38622105 0
-0.086474419 -0.11176229 -0.36975682 0
0.040623665 -0.060730696 -0.37611699 0
0.16145611 -0.055221319 -0.37115061 0
0.52070093 -0.06970048 -0.42415786 0
-0.96227145 -0.031893849 -0.30166841 0
-0.24401474 0.023492336 -0.38294888 0
-0.18558741 -0.0059268475 -0.37293744 0
-0.048138618 0.050993681 -0.37368762 0
0.02849102 0.022800684 -0.36987936 0
0.14512348 0.031738997 -0.36409807 0
0.41342831 0.020188808 -0.41304433 0
0.8074646 0.047071934 -0.48167467 0
-0.94930577 0.077382445 -0.29730833 0
-0.83838677 0.046434045 -0.32644355 0
-0.76038575 0.056508899 -0.32940435 0
-0.57887411 0.074575424 -0.35790169 0
-0.37585282 0.10265136 -0.37690759 0
-0.28895712 0.087896585 -0.38227165 0
-0.19887638 0.10965967 -0.38068449 0
-0.082643509 0.11787248 -0.37741339 0
0.037799358 0.12695098 -0.37380779 0
0.17055225 0.15344286 -0.37536848 0
0.32679319 0.17583203 -0.38434756 0
0.581213 0.11634111 -0.43752825 0
0.94442582 0.23681164 -0.50526166 0
-0.95389152 0.15843475 -0.28434706 0
-0.77896142 0.14819074 -0.3236897 0
-0.65600944 0.13927484 -0.33129036 0
-0.51364183 0.1192863 -0.35511279 0
-0.43218017 0.19625163 -0.36188483 0
-0.30053043 0.14016747 -0.35910487 0
-0.22400761 0.21658158 -0.35881901 0
-0.09442234 0.2262671 -0.3767699 0
-0.012152195 0.19667363 -0.37434864 0
0.081184387 0.23741722 -0.36912954 0
0.75680041 0.29697466 -0.47132146 0
-0.90804291 0.20574617 -0.27996182 0
-0.84279203 0.25903833 -0.28145814 0
-0.7053678 0.23127961 -0.31746018 0
-0.63274646 0.29798567 -0.3217268 0
-0.53634906 0.24166346 -0.3401264 0
-0.37053633 0.29458308 -0.36828303 0
-0.27567315 0.24381161 -0.38505542 0
-0.21921062 0.3054688 -0.37719727 0
-0.12240124 0.32872963 -0.37165141 0
0.017825603 0.33693671 -0.37287152 0
-0.53208733 0.32382607 -0.32847941 0
-0.28916931 0.36387706 -0.37013853 0
-0.2028811 0.41216683 -0.3675946 0
0.92576599 0.47337508 -0.50010872 0
0.40308666 -0.47352421 -0.23757362 0
0.45188236 -0.46782184 -0.20820117 0
0.23204136 0.23682022 -0.37249935 0
0.10509586 0.37246537 -0.36812627 0
0.17880726 0.3323555 -0.35746682 0
0.50379539 0.35245562 -0.42069256 0
-0.79286838 0.36388683 -0.27441454 0
-0.67641687 0.3523277 -0.2928015 0
-0.46792555 0.38771248 -0.32576907 0
-0.070744991 0.3902421 -0.36105883 0
0.0074195862 0.41565108 -0.35247028 0
0.17687178 0.45781422 -0.36253095 0
0.26124048 0.45791721 -0.34092665 0
-0.91036367 0.49756837 -0.22373164 0
-0.74034119 0.47277892 -0.26663065 0
-0.58559132 0.45067823 -0.30477667 0
-0.54861236 0.49949396 -0.29290724 0
-0.38514256 0.4741621 -0.33159995 0
-0.20668125 0.48848748 -0.34685099 0
-0.098539352 0.49224472 -0.35299885 0
-0.5921998 -0.49419725 -0.3750459 0
0.14445782 -0.49300146 -0.33693933 0
-0.91164041 -0.48652089 -0.33028793 0
-0.74445176 -0.4900701 -0.3555851 0
-0.53190136 -0.48179889 -0.36277246 0
-0.36317825 -0.46101713 -0.36734092 0
-0.17524242 -0.49181724 -0.36831975 0
-0.10162878 -0.41380167 -0.36627114 0
0.09852457 -0.43680799 -0.3793633 0
0.13683414 -0.43245173 -0.34954357 0
-0.94373178 -0.40546119 -0.3323468 0
