# .PCD v0.7 - Point Cloud Data file format
VERSION 0.7
FIELDS x y z intensity
SIZE 4 4 4 4
TYPE F F F F
COUNT 1 1 1 1
WIDTH 1293
HEIGHT 1
VIEWPOINT 0 0 0 1 0 0 0
POINTS 1293
DATA ascii
0.89344501 -0.39964104 -0.31103277 0
0.55234599 -0.3208034 -0.32256293 0
0.67712235 -0.30498052 -0.33600879 0
0.74982738 -0.35078239 -0.32980549 0
0.9028163 -0.49906445 -0.18738627 0
0.83002234 -0.45015907 -0.22972012 0
0.9210608 -0.42205834 -0.23647821 0
0.078113079 -0.29661798 -0.38245046 0
0.096613407 -0.18763685 -0.39118659 0
0.15919232 -0.24608302 -0.38484907 0
0.14296603 -0.10094976 -0.40174627 0
0.084918737 -0.044317007 -0.39245915 0
0.20069456 -0.010048866 -0.40803611 0
0.21925664 -0.040377378 -0.41340435 0
0.35827899 -0.0073428154 -0.40890527 0
0.074232578 0.075074434 -0.39615846 0
0.17643666 0.068180561 -0.41119981 0
0.27862883 0.10094976 -0.41482008 0
0.36218619 0.10624266 -0.41673899 0
0.4426713 0.08393836 -0.41606188 0
0.079424381 0.1696527 -0.40520608 0
0.187361 0.193753 -0.41743708 0
0.27611852 0.2118926 -0.42210126 0
0.16843653 0.27954268 -0.41833031 0
0.27631927 0.28162241 -0.42818308 0
0.33449292 0.27774286 -0.41991246 0
0.22374535 0.38751197 -0.42068291 0
0.41021276 0.42504263 -0.43236375 0
0.49212122 -0.48879457 -0.33051181 0
0.66901112 -0.4986527 -0.33140278 0
0.014251709 -0.42396855 -0.35776055 0
0.073159695 -0.42288446 -0.35129881 0
0.18093133 -0.41366673 -0.34203875 0
0.2644608 -0.41216111 -0.33816183 0
0.36260223 -0.39245272 -0.34205103 0
0.43758941 -0.41684031 -0.33529294 0
0.55426717 -0.40307307 -0.33122337 0
0.68105841 -0.38341212 -0.33727467 0
0.74865079 -0.38757801 -0.31847632 0
0.91238022 -0.3833921 -0.32214892 0
0.99233484 -0.34976292 -0.36990702 0
0.089736938 -0.33660889 -0.36705828 0
0.15945864 -0.32311535 -0.35514975 0
0.28085637 -0.29625607 -0.3587904 0
0.37635875 -0.30771232 -0.34754193 0
0.45916152 -0.31242275 -0.34556627 0
0.56477809 -0.29148293 -0.33927774 0
0.77124715 -0.3056097 -0.3450588 0
0.061704636 -0.25751948 -0.37626755 0
0.16654682 -0.2115438 -0.37352717 0
0.27198172 -0.21748877 -0.37029171 0
0.36101627 -0.21687865 -0.36452353 0
0.45855021 -0.21277189 -0.35681474 0
0.57318997 -0.18583655 -0.35452354 0
0.63219976 -0.22458053 -0.34407902 0
0.81066704 -0.21452141 -0.36113656 0
0.85897541 -0.14572573 -0.37904453 0
0.17957783 -0.15454865 -0.37980783 0
0.27237701 -0.10180187 -0.38477075 0
0.36950898 -0.11356235 -0.38084638 0
0.46861458 -0.11591983 -0.37330973 0
0.56683302 -0.093046665 -0.37090743 0
0.68237138 -0.11420989 -0.36395991 0
0.8570416 -0.074441433 -0.38030732 0
0.24859428 0.0012612343 -0.39762449 0
0.35766244 0.0066380501 -0.39491951 0
0.46515393 -0.017477036 -0.38596976 0
0.61274672 0.0053884983 -0.37279725 0
0.69733095 0.0012583733 -0.37151182 0
0.71999383 0.010804176 -0.3803395 0
0.85359001 0.024698257 -0.38311136 0
0.39776826 0.12972474 -0.40265954 0
0.49355984 0.087355614 -0.40096939 0
0.58974814 0.10247946 -0.40337873 0
0.67008352 0.10435843 -0.38657928 0
0.83743143 0.097370148 -0.38106585 0
0.22872925 0.1408391 -0.39956975 0
0.35320473 0.18059254 -0.40925086 0
0.45654941 0.21521854 -0.40776408 0
0.57330012 0.1997261 -0.41478705 0
0.65592003 0.21326518 -0.39878416 0
0.77011013 0.19661522 -0.40568745 0
0.88534927 0.20608425 -0.40568137 0
0.023973942 0.28099942 -0.39523077 0
0.11992431 0.32444477 -0.40572238 0
0.21955538 0.32981086 -0.41306877 0
0.34935904 0.30435276 -0.4134953 0
0.46398115 0.31598687 -0.41870987 0
0.57142305 0.31518412 -0.41194856 0
0.66256833 0.31861162 -0.40966344 0
0.75015068 0.29234147 -0.40549898 0
0.85502529 0.30563617 -0.40307057 0
-0.1014924 0.36993361 -0.36026657 0
-0.017825127 0.36172867 -0.38837826 0
0.067067862 0.38353133 -0.3936795 0
0.1800878 0.42409396 -0.40993428 0
0.29579163 0.40383101 -0.41858244 0
0.43722844 0.40185022 -0.42303145 0
0.5460608 0.41112852 -0.42335272 0
0.64286041 0.41903543 -0.41251636 0
0.72644305 0.39718843 -0.40707314 0
0.84845185 0.41690469 -0.411273 0
0.94826555 0.45667481 -0.40859663 0
-0.16572881 0.48691106 -0.35132933 0
-0.04599309 0.4729228 -0.3737452 0
0.048266888 0.4865725 -0.38596535 0
0.12373066 0.4791944 -0.39738822 0
0.3614943 0.47750401 -0.42097795 0
0.52900314 0.48041081 -0.4137454 0
0.81158686 0.48869753 -0.40582514 0
0.78297782 -0.48651338 -0.265836 0
0.88953066 -0.48149419 -0.24019361 0
0.89477062 -0.41820049 -0.26343346 0
0.91274428 -0.48343229 -0.18392563 0
-0.46605015 -0.43043411 -0.32373571 0
-0.389781 -0.41721427 -0.33007967 0
-0.27655077 -0.44964778 -0.33910024 0
-0.15820956 -0.41688395 -0.35311711 0
-0.052403688 -0.4323647 -0.35787523 0
0.021872044 -0.41959882 -0.3584305 0
-0.45626807 -0.32622409 -0.33188486 0
-0.37799954 -0.32472301 -0.33892131 0
-0.27270842 -0.32128668 -0.35015726 0
-0.1650641 -0.32756519 -0.36087823 0
-0.050153732 -0.33205628 -0.3640027 0
0.045182467 -0.31081939 -0.37259591 0
0.12910748 -0.2904613 -0.3764658 0
-0.4615643 -0.2338829 -0.3346554 0
-0.37174082 -0.22302032 -0.34693551 0
-0.29395795 -0.22127581 -0.35402834 0
-0.17523026 -0.22926497 -0.36705184 0
-0.077820539 -0.1960454 -0.38087261 0
0.022024155 -0.2403574 -0.38232648 0
0.12151623 -0.21466732 -0.38782728 0
-0.46297073 -0.12790871 -0.34049642 0
-0.36693144 -0.12920308 -0.3463645 0
-0.23135281 -0.1086731 -0.36283016 0
-0.17366052 -0.14333248 -0.37005782 0
-0.068455696 -0.11980844 -0.38560772 0
0.038536549 -0.11327672 -0.39332461 0
0.1131103 -0.11647511 -0.39661956 0
-0.35757232 -0.029832363 -0.35192978 0
-0.27255249 -0.0086698532 -0.36335266 0
-0.17505813 -0.039782047 -0.37437284 0
-0.058847666 -0.019433737 -0.38485324 0
0.047500372 0.001496315 -0.39797151 0
0.15723205 -0.00038480759 -0.40853024 0
0.17595959 -0.060265303 -0.40968895 0
0.029208899 0.12447286 -0.40394866 0
0.13610673 0.098124027 -0.41119242 0
0.10632944 -0.49393749 -0.34032023 0
0.38535261 -0.48191261 -0.33332491 0
0.69635963 -0.49672627 -0.33306718 0
0.11759281 -0.40676451 -0.35297298 0
0.20955777 -0.41990423 -0.3406707 0
0.31502438 -0.3996923 -0.33885026 0
0.44495487 -0.40155911 -0.33893609 0
0.57442665 -0.38246775 -0.33680356 0
0.63507962 -0.40172911 -0.33426976 0
0.73146915 -0.4061954 -0.33739614 0
0.9040637 -0.37183952 -0.35956061 0
0.12676001 -0.34304786 -0.3594538 0
0.2304697 -0.3046546 -0.36505163 0
0.34577489 -0.29852796 -0.34737873 0
0.46643162 -0.2936933 -0.34359121 0
0.56800795 -0.29526138 -0.34171069 0
0.67200065 -0.29589438 -0.33696103 0
0.89307308 -0.28249764 -0.36308646 0
0.11956835 -0.17758346 -0.3803159 0
0.22957373 -0.22274733 -0.37494826 0
0.3503685 -0.18624878 -0.37231684 0
0.43342495 -0.2049706 -0.35771012 0
0.5652647 -0.22564077 -0.34517562 0
0.64240503 -0.18710756 -0.34925258 0
0.95525932 -0.17083168 -0.3921423 0
-0.51353669 -0.092466116 -0.32395887 0
0.20060039 -0.11342359 -0.38827133 0
0.30433226 -0.11138368 -0.38543808 0
0.42913508 -0.099491119 -0.37370968 0
0.51259756 -0.13017583 -0.37006867 0
0.63253641 -0.09529233 -0.35779881 0
0.95075679 -0.08629179 -0.39707601 0
-0.54292345 -0.035186768 -0.31680048 0
-0.44116592 -0.029041052 -0.33546841 0
-0.18673182 0.023949623 -0.36891103 0
0.22551608 -0.005589962 -0.406165 0
0.29925966 0.011694908 -0.40178514 0
0.42147017 0.0013315678 -0.39840722 0
0.5366807 7.2717667e-05 -0.38802612 0
0.64557815 0.0085251331 -0.38946843 0
0.71518183 0.024494648 -0.3760556 0
0.88988042 0.017724752 -0.38747013 0
-0.6989696 0.097300529 -0.26844025 0
-0.58311701 0.058852911 -0.30378497 0
-0.46162033 0.052677631 -0.3280952 0
-0.3796711 0.065752745 -0.34580672 0
-0.29849076 0.060210228 -0.35360038 0
-0.21824932 0.078047991 -0.36302435 0
-0.096837521 0.087966204 -0.38181579 0
0.0014133453 0.061122656 -0.3877728 0
0.21379924 0.084606647 -0.41092539 0
0.28562975 0.079084635 -0.4036175 0
0.40299058 0.11624241 -0.40490341 0
0.48166656 0.093594551 -0.40803039 0
0.60769844 0.088651419 -0.39487684 0
0.72274137 0.10483456 -0.38474655 0
0.88288927 0.11354971 -0.39620245 0
-0.74912572 0.20446372 -0.25827777 0
-0.6947813 0.17484593 -0.27021527 0
-0.59955001 0.16514063 -0.29278994 0
-0.49350262 0.15951991 -0.31871462 0
-0.37724948 0.17335391 -0.3365761 0
-0.26535153 0.17306066 -0.36119246 0
-0.16550159 0.17579722 -0.36726987 0
-0.074965239 0.18041706 -0.38659191 0
0.026223421 0.14904308 -0.39224374 0
0.069240093 0.20542097 -0.40018129 0
0.19940853 0.18213391 -0.41642439 0
0.30151772 0.18918777 -0.4207257 0
0.37516546 0.18821144 -0.41377139 0
0.52042437 0.19145536 -0.41064346 0
0.62855792 0.18557858 -0.3987664 0
0.75130606 0.19911408 -0.40300322 0
0.86125231 0.20245957 -0.39969361 0
-0.84280539 0.28187895 -0.23161542 0
-0.77315784 0.2611618 -0.24650693 0
-0.68640566 0.26751161 -0.26211405 0
-0.58115411 0.26744723 -0.28684461 0
-0.49774146 0.27960062 -0.29834235 0
-0.41062284 0.2606802 -0.32388413 0
-0.29549265 0.27824903 -0.34535646 0
-0.18435168 0.25494814 -0.36941969 0
-0.09287858 0.28460145 -0.3801626 0
0.0052683353 0.28119922 -0.39403939 0
0.13990688 0.29275036 -0.40963507 0
0.19556117 0.24104953 -0.42204118 0
0.30382776 0.31548524 -0.42534351 0
0.40043974 0.295156 -0.42372561 0
0.49781251 0.28122449 -0.41810513 0
0.62955523 0.30265045 -0.41228068 0
0.7481389 0.3152585 -0.41516471 0
0.82107472 0.31284809 -0.3995316 0
-0.87043619 0.35224831 -0.23160648 0
-0.76536393 0.35919356 -0.24793911 0
-0.68636489 0.37102962 -0.25932813 0
-0.58125448 0.37568235 -0.27684081 0
-0.49514985 0.36598992 -0.29689932 0
-0.38178325 0.37842488 -0.31640494 0
-0.28210425 0.37963057 -0.33954573 0
-0.20413899 0.36769009 -0.35284925 0
-0.092668772 0.37678337 -0.37936068 0
0.002204895 0.3949604 -0.38918841 0
0.085695028 0.3597939 -0.40029263 0
0.22546673 0.40652537 -0.42221701 0
0.33860064 0.38221407 -0.42399549 0
0.42626309 0.39756227 -0.42356694 0
0.50947928 0.39486718 -0.42051792 0
0.61040592 0.40964723 -0.41932571 0
0.69008899 0.44865251 -0.41295791 0
0.78338265 0.41092515 -0.41923869 0
-0.88429308 0.46107793 -0.24250698 0
-0.67676282 0.43882346 -0.26056445 0
-0.59572482 0.43250704 -0.27091396 0
-0.49506545 0.4750495 -0.29058683 0
-0.40122414 0.47527599 -0.308079 0
-0.28804827 0.47610521 -0.32752883 0
-0.16904163 0.45763659 -0.35268962 0
-0.025686502 0.45991993 -0.37738049 0
0.10995603 0.47870803 -0.39506745 0
0.40250897 0.4924612 -0.43571973 0
0.48348427 0.49837017 -0.42524314 0
0.78188825 0.49053144 -0.40969396 0
0.74326229 -0.48014784 -0.29011953 0
0.85174322 -0.47672987 -0.2567029 0
0.8774333 -0.40851331 -0.30496728 0
0.9259429 -0.39857841 -0.27137291 0
-0.87257981 0.30244207 -0.22428048 0
0.88766956 0.35234165 -0.38945174 0
-0.89789057 0.38431418 -0.22696757 0
-0.80303121 0.40668797 -0.23763096 0
-0.68901086 0.3903389 -0.25028598 0
0.89406824 0.42324972 -0.40080392 0
-0.95556164 0.49033034 -0.22397125 0
-0.8500998 0.46329677 -0.2382977 0
-0.78274775 0.48636377 -0.24394822 0
-0.68577909 0.4729526 -0.25426114 0
0.86633039 0.47650433 -0.39876926 0
0.8719008 -0.49850082 -0.198367 0
0.94081116 -0.47896791 -0.18136322 0
-0.4711144 -0.49826407 -0.31448567 0
-0.27829385 -0.48965681 -0.3362819 0
-0.069647789 -0.49276376 -0.35272157 0
0.013996124 -0.49846053 -0.34698021 0
-0.97225285 -0.41826022 -0.24897718 0
-0.89184356 -0.43797934 -0.27152157 0
-0.79315758 -0.4098711 -0.27941322 0
-0.66962171 -0.40582836 -0.30366194 0
-0.57136512 -0.42833555 -0.31704462 0
-0.4920423 -0.42549372 -0.32011116 0
-0.35971284 -0.41343641 -0.3368901 0
-0.27764988 -0.39706469 -0.33871317 0
-0.15365863 -0.42205501 -0.34772766 0
-0.10979676 -0.39574242 -0.36569333 0
0.0018091202 -0.38577366 -0.37066686 0
-0.9653163 -0.32053816 -0.24634099 0
-0.88355184 -0.33234334 -0.25891912 0
-0.79950261 -0.29798222 -0.27118123 0
-0.70642543 -0.31294072 -0.29502785 0
-0.56693411 -0.32194591 -0.32209897 0
-0.47056174 -0.31210661 -0.33779991 0
-0.38764167 -0.32594109 -0.3451786 0
-0.2876699 -0.2855854 -0.35651767 0
-0.18790555 -0.30672574 -0.36012745 0
-0.11989617 -0.26020145 -0.37603331 0
-0.029487848 -0.29831243 -0.37738383 0
0.079511404 -0.25964189 -0.39391661 0
-0.958426 -0.22540021 -0.24469972 0
-0.89281368 -0.26165509 -0.25318515 0
-0.80966306 -0.21594119 -0.26759744 0
-0.70434499 -0.21148241 -0.28872728 0
-0.58919311 -0.2227037 -0.3151809 0
-0.46956873 -0.22431135 -0.33596933 0
-0.41073132 -0.18693924 -0.34410763 0
-0.33357167 -0.21528506 -0.35557723 0
-0.21497583 -0.20174694 -0.36204875 0
-0.062730551 -0.19759846 -0.37719953 0
0.0047981739 -0.20959902 -0.38648498 0
0.080015182 -0.21307254 -0.3992722 0
-0.75809431 -0.15227509 -0.28167105 0
-0.58698297 -0.13615966 -0.31139231 0
-0.48349428 -0.10744238 -0.33269501 0
-0.38350177 -0.088573933 -0.35142124 0
-0.28032398 -0.09751296 -0.36312068 0
-0.18492103 -0.10987425 -0.37054157 0
-0.0028324127 -0.13399887 -0.39270377 0
-0.51945305 -0.041835308 -0.3261807 0
-0.43764091 -0.010181427 -0.34124255 0
-0.31393218 -0.0059306622 -0.36209404 0
-0.1913867 -0.030644417 -0.37756431 0
-0.087138891 -0.033154488 -0.38843 0
0.036353827 -0.01674509 -0.40823817 0
-0.0027108192 -0.43820262 -0.34690559 0
0.18006897 -0.46919775 -0.34569788 0
0.30852914 -0.47389817 -0.3468163 0
0.45206094 -0.4729414 -0.3383491 0
0.55201316 -0.43479562 -0.33855438 0
0.010115862 -0.33979464 -0.36141789 0
0.10755777 -0.40767169 -0.35801935 0
0.21401024 -0.3770895 -0.35107195 0
0.34558964 -0.37023282 -0.35147238 0
0.44666958 -0.38313413 -0.34762919 0
0.5386591 -0.37293124 -0.34209561 0
0.11254907 -0.31189561 -0.36962223 0
0.22314596 -0.2786622 -0.36987829 0
0.31509924 -0.26590347 -0.36209905 0
0.41235685 -0.31026363 -0.34477472 0
0.49889994 -0.26385379 -0.35460269 0
-0.99028444 -0.20417678 -0.22660768 0
0.12979245 -0.18598986 -0.38956034 0
0.22211647 -0.16283083 -0.39302719 0
0.3066144 -0.16030288 -0.38084352 0
0.41412711 -0.17417622 -0.37233305 0
0.54498243 -0.16481781 -0.36904335 0
-0.99001575 -0.10840988 -0.22629666 0
-0.89527345 -0.13156378 -0.24646735 0
-0.79973984 -0.099573612 -0.26535046 0
-0.73073959 -0.132761 -0.27694166 0
-0.62658548 -0.070309639 -0.3029803 0
-0.098853827 -0.097997904 -0.37663913 0
0.0051326752 -0.10000062 -0.38739395 0
0.11403942 -0.10210013 -0.39417434 0
0.21690989 -0.066894293 -0.40270984 0
0.26965332 -0.078432083 -0.3878063 0
0.40198302 -0.058743238 -0.38770759 0
0.53276706 -0.062048197 -0.37676346 0
-0.87435555 -0.019221544 -0.24415505 0
-0.80111456 -0.0094599724 -0.2613678 0
-0.7077198 -0.0038228035 -0.27991068 0
-0.58172989 -0.0098600388 -0.30742335 0
-0.52168226 0.036448479 -0.31690896 0
-0.36165357 0.040203571 -0.35137367 0
-0.24115777 -0.00094151497 -0.36430681 0
-0.13056374 0.028506517 -0.38151097 0
0.0054736137 0.03339839 -0.40432036 0
0.091280937 0.031863689 -0.40397286 0
0.18854856 0.013732433 -0.41367424 0
0.29156208 0.0062286854 -0.40566003 0
0.4209199 0.031441212 -0.4051075 0
0.46096325 0.076132774 -0.40635812 0
0.56209183 0.032582998 -0.39799678 0
-0.90769935 0.095005274 -0.2351352 0
-0.79756236 0.087450981 -0.25580609 0
-0.67830467 0.089451075 -0.28261662 0
-0.60419393 0.082657099 -0.30053961 0
-0.5375464 0.087995768 -0.31644034 0
-0.39850974 0.11354852 -0.347368 0
-0.28039479 0.11275005 -0.36526668 0
-0.19875598 0.098494768 -0.37544549 0
-0.087972879 0.13249564 -0.38639855 0
0.013519049 0.12477803 -0.40508664 0
0.067721128 0.11554599 -0.40754962 0
0.17769337 0.14123535 -0.41756201 0
0.28119349 0.1197319 -0.41766596 0
0.35800862 0.1076808 -0.41240811 0
0.44742751 0.1333437 -0.40990031 0
0.57898164 0.12661362 -0.41559911 0
-0.9929831 0.18422925 -0.22498357 0
-0.91121078 0.1954298 -0.2334429 0
-0.80772114 0.19166708 -0.24727893 0
-0.6993742 0.18381405 -0.27364671 0
-0.62114954 0.21927857 -0.28247702 0
-0.53250122 0.17792225 -0.30826068 0
-0.44866133 0.18896866 -0.31770349 0
-0.30215406 0.20143509 -0.35790861 0
-0.18737841 0.2159977 -0.37605178 0
-0.13345337 0.20491242 -0.38131452 0
-0.021786213 0.2254324 -0.39374387 0
0.11299706 0.20776486 -0.40619469 0
0.2275579 0.20741844 -0.41247952 0
0.28796291 0.25577307 -0.42503309 0
0.38979864 0.21866846 -0.42088926 0
0.49694896 0.20828176 -0.41252244 0
-0.91701007 0.29089141 -0.22915924 0
-0.82146001 0.2729249 -0.24138272 0
-0.69382048 0.30618119 -0.26321733 0
-0.57470298 0.31258988 -0.29019141 0
-0.48733425 0.27285099 -0.31470931 0
-0.42720628 0.30743814 -0.31908929 0
-0.30298424 0.28737879 -0.34757078 0
-0.20669913 0.28652906 -0.36854708 0
-0.12059999 0.31597567 -0.37491024 0
0.082413197 0.28991604 -0.4085952 0
0.20852399 0.33482623 -0.42590833 0
0.32535386 0.3205409 -0.43237114 0
0.42191339 0.36842823 -0.43592358 0
0.47923827 0.32292938 -0.42371047 0
-0.99879622 0.38660312 -0.22774959 0
-0.89217782 0.38905895 -0.23633647 0
-0.81234741 0.38080764 -0.23858416 0
-0.71596003 0.40663028 -0.25598013 0
-0.61795115 0.3938477 -0.26781952 0
-0.51602459 0.40853715 -0.29109955 0
-0.44860268 0.3674891 -0.30078351 0
-0.31247282 0.40759182 -0.33918178 0
-0.20314336 0.40010309 -0.3609432 0
-0.10959244 0.40434599 -0.36516809 0
0.0033082962 0.40545154 -0.38724828 0
0.072633028 0.40443921 -0.39440322 0
0.17455435 0.40718317 -0.41308296 0
0.26103163 0.38669682 -0.42244303 0
0.38027549 0.4332664 -0.4326508 0
0.48292446 0.44916606 -0.43269742 0
-0.99586415 0.48840761 -0.23047578 0
-0.91255355 0.48604977 -0.24049807 0
-0.82997918 0.47104251 -0.24707615 0
-0.75409484 0.47171092 -0.25347638 0
-0.55485606 0.4780829 -0.28284752 0
-0.060492039 0.4736681 -0.36429119 0
0.16602206 0.48923731 -0.41065049 0
0.65977812 -0.40806222 -0.336128 0
0.71183753 -0.46497393 -0.3216877 0
0.82362461 -0.46222615 -0.27404642 0
0.89980316 -0.39548969 -0.30326521 0
0.63381958 -0.33032036 -0.34009051 0
0.73970366 -0.35523152 -0.33491993 0
0.78608179 -0.39163351 -0.30910957 0
0.61264682 -0.26133871 -0.34295201 0
0.74744034 -0.23392224 -0.35157609 0
0.63485813 -0.16649365 -0.36123776 0
0.70174885 -0.14643192 -0.34982026 0
0.63298202 -0.058350801 -0.37293255 0
0.71472979 -0.055340767 -0.36484766 0
0.63434958 0.08012104 -0.39000785 0
0.70980358 0.043281794 -0.39283383 0
0.90315533 0.09504652 -0.39620149 0
0.97135615 0.04370451 -0.40863097 0
0.71627617 0.13653946 -0.400406 0
0.90225959 0.17670298 -0.4100126 0
0.6329813 0.26548147 -0.41524684 0
0.70486307 0.23561025 -0.41027796 0
0.8337369 0.28984332 -0.40554178 0
0.85706639 0.23253798 -0.4041394 0
0.61209249 0.3491838 -0.42129385 0
0.67367983 0.35921621 -0.4077028 0
0.81369281 0.34658337 -0.4083246 0
0.8634913 0.39665222 -0.38867664 0
-0.66638517 0.44388485 -0.2595644 0
0.5338819 0.46989417 -0.41590166 0
0.61258745 0.45239425 -0.43785286 0
0.66422081 0.45925689 -0.42087531 0
0.78599954 0.44108605 -0.4150238 0
0.88551927 -0.44756079 -0.25941145 0
0.92419839 -0.42542243 -0.23747861 0
0.97769451 -0.44724822 -0.17753565 0
-0.78898883 -0.49247539 -0.28772855 0
-0.68559146 -0.4784385 -0.30791867 0
-0.50144029 -0.49367654 -0.31732237 0
-0.31254196 -0.49474633 -0.32458949 0
-0.09002924 -0.44742107 -0.35265326 0
-0.013073444 -0.47264338 -0.35698557 0
0.12071896 -0.457057 -0.34752393 0
-0.91038513 -0.41379607 -0.26677787 0
-0.81748414 -0.38625133 -0.28613412 0
-0.71298289 -0.40057266 -0.29986489 0
-0.59390402 -0.40597868 -0.31780052 0
-0.50398636 -0.41755724 -0.32252455 0
-0.37782812 -0.40324533 -0.33982646 0
-0.29263496 -0.38040304 -0.34677291 0
-0.19290209 -0.39889836 -0.35181117 0
-0.10659099 -0.37202573 -0.3582716 0
-0.0028333664 -0.36601043 -0.36775839 0
0.090387344 -0.37014103 -0.36663842 0
0.16012287 -0.35219359 -0.36063802 0
-0.90013409 -0.31638801 -0.25349641 0
-0.80508566 -0.29457724 -0.27305102 0
-0.69395328 -0.31914389 -0.29502678 0
-0.57979846 -0.33037913 -0.32169974 0
-0.50887585 -0.29952216 -0.32946265 0
-0.42331386 -0.32608771 -0.33545208 0
-0.33623624 -0.2982893 -0.34425521 0
-0.19522834 -0.28678536 -0.35909021 0
-0.090510607 -0.28419805 -0.37657583 0
0.0083503723 -0.27828145 -0.38486993 0
0.079006195 -0.26646447 -0.37935829 0
-0.99689603 -0.19552612 -0.2311852 0
-0.91136098 -0.19260991 -0.24490166 0
-0.83428741 -0.22169638 -0.26099229 0
-0.70200038 -0.21194482 -0.29156172 0
-0.5959363 -0.18260455 -0.31384349 0
-0.48521304 -0.18128467 -0.3343662 0
-0.39305234 -0.228755 -0.34695899 0
-0.35885668 -0.16310406 -0.35582745 0
-0.25060177 -0.2025311 -0.3619628 0
-0.14645839 -0.19013882 -0.37314892 0
-0.032944441 -0.18091226 -0.38705635 0
0.096211672 -0.15445805 -0.40313971 0
0.167804 -0.16025448 -0.39417183 0
-0.77412438 -0.084475279 -0.28047764 0
-0.71107125 -0.10723138 -0.28871858 0
-0.59247375 -0.093893528 -0.30919671 0
-0.43926692 -0.10460162 -0.33793759 0
-0.31175423 -0.10763049 -0.35604787 0
-0.19836831 -0.085425377 -0.37248182 0
-0.11395168 -0.094550371 -0.37499726 0
0.023014307 -0.060575485 -0.39567697 0
0.15499258 -0.081714153 -0.40345633 0
-0.61827707 -0.0040414333 -0.31159246 0
-0.48248863 0.0055773258 -0.33882487 0
-0.38847113 0.0071451664 -0.34872949 0
-0.33174515 0.013576746 -0.35681319 0
-0.21182537 0.019434929 -0.37337935 0
-0.128299 -0.021386385 -0.38215351 0
0.29400086 -0.43449855 -0.34834409 0
0.36471987 -0.47747779 -0.3435477 0
0.50470829 -0.41075182 -0.34255743 0
0.58006716 -0.45683622 -0.33839965 0
0.70005441 -0.42956519 -0.34095335 0
0.13238573 -0.31468463 -0.35773551 0
0.20793462 -0.3847239 -0.33890414 0
0.316221 -0.329669 -0.3524127 0
0.42280531 -0.33836627 -0.34825146 0
0.54267454 -0.30604172 -0.35389793 0
0.69056368 -0.30883932 -0.3594631 0
0.13717246 -0.25468373 -0.36893284 0
0.2695837 -0.26861548 -0.36715782 0
0.40348482 -0.2590065 -0.3553133 0
0.50349092 -0.22689438 -0.35515785 0
0.58826447 -0.24113369 -0.34102464 0
0.19533968 -0.1614995 -0.37131226 0
0.28975868 -0.17236304 -0.37960517 0
0.41400719 -0.15880036 -0.37530696 0
0.49479985 -0.13564014 -0.36776757 0
0.57929325 -0.11442113 -0.35987294 0
-0.9067781 -0.08450532 -0.24195886 0
0.12278175 -0.054810286 -0.39808178 0
0.26299071 -0.062060833 -0.399701 0
0.38754439 -0.057641506 -0.38437402 0
0.4982841 -0.052919149 -0.38309443 0
0.56025195 -0.035859823 -0.36756372 0
-0.90396404 0.0046787262 -0.23731506 0
-0.80335259 0.0070874691 -0.25982904 0
-0.71648765 0.017949581 -0.28083038 0
-0.43802476 0.049678087 -0.33916986 0
-0.23658943 0.052205801 -0.35993922 0
-0.073915005 0.072518826 -0.38755667 0
-0.03899169 0.01256609 -0.38835788 0
0.085341692 0.037902594 -0.40257788 0
0.20661569 0.072969198 -0.41576672 0
0.28905296 0.037564516 -0.41329813 0
0.38677406 0.063178062 -0.40554774 0
0.47456408 0.066904306 -0.39694762 0
0.57049346 0.036165953 -0.38341999 0
-0.90502954 0.109411 -0.23465431 0
-0.84006333 0.095699072 -0.24815083 0
-0.72733665 0.11100435 -0.2705431 0
-0.60431075 0.096682549 -0.30048263 0
-0.49678493 0.091275692 -0.32554591 0
-0.39705658 0.14806652 -0.34572423 0
-0.30859613 0.13472152 -0.36167669 0
-0.25983882 0.11070085 -0.36232567 0
-0.10950661 0.12151861 -0.38483357 0
-0.038718224 0.16876125 -0.38738894 0
0.052194357 0.12937021 -0.40836954 0
0.20756269 0.13928652 -0.42807829 0
0.28015995 0.15054131 -0.4240042 0
0.36340356 0.15227246 -0.4149251 0
0.47021246 0.15661669 -0.41230261 0
0.59367943 0.1396668 -0.40927315 0
-0.92347622 0.20713425 -0.22607553 0
-0.80931258 0.20175934 -0.24660397 0
-0.72290063 0.21106887 -0.26750934 0
-0.64111876 0.20810986 -0.28157306 0
-0.52013707 0.17089581 -0.30901182 0
-0.43153596 0.2130363 -0.32438731 0
-0.27695704 0.25787401 -0.35624945 0
-0.21641684 0.2031281 -0.36571002 0
-0.13889241 0.18206167 -0.38619316 0
-0.05499649 0.22539711 -0.39260888 0
0.043061495 0.25087595 -0.39872682 0
0.16658092 0.22384667 -0.41735518 0
0.24617624 0.20453095 -0.42373872 0
0.36861181 0.25371051 -0.42389309 0
0.44530106 0.22190952 -0.41724086 0
0.54564047 0.22080231 -0.41030693 0
-0.90848589 0.32818794 -0.23259139 0
-0.81375933 0.30115628 -0.24221349 0
-0.71888208 0.31522965 -0.25755894 0
-0.6279912 0.30154467 -0.27554464 0
-0.55901504 0.3126204 -0.28844488 0
-0.42342043 0.30638647 -0.31856263 0
-0.21861291 0.33355093 -0.36199069 0
-0.099579334 0.32739758 -0.38390243 0
-0.063892841 0.32264853 -0.37989533 0
0.076924801 0.34640098 -0.40044999 0
0.14943194 0.29940033 -0.41288424 0
0.29141974 0.35420465 -0.43205857 0
0.390903 0.35836649 -0.42752981 0
0.52007222 0.34267473 -0.42653954 0
-0.93004799 0.41065538 -0.23550272 0
-0.83614159 0.37097144 -0.23897719 0
-0.74005246 0.37761259 -0.25280118 0
-0.61280966 0.39765477 -0.27493608 0
-0.40727282 0.41145587 -0.31819844 0
-0.23021793 0.43385816 -0.35115516 0
-0.096915245 0.42890215 -0.3652333 0
0.0049462318 0.4081161 -0.39126861 0
0.079865217 0.46127534 -0.39224362 0
0.14944339 0.40358543 -0.40047181 0
0.38893747 0.45306015 -0.44581914 0
-0.1302011 0.48945999 -0.36758327 0
0.003869772 0.49778557 -0.37784326 0
0.29514241 0.49630976 -0.42774343 0
0.72320151 -0.43101311 -0.3018564 0
0.83032942 -0.4224658 -0.28811979 0
0.89098287 -0.39287996 -0.28928995 0
0.72080564 -0.33828807 -0.32739449 0
0.93773627 -0.34313536 -0.34554124 0
0.73193741 -0.18634605 -0.35751975 0
0.76607442 -0.26154637 -0.35320354 0
0.68698072 -0.12848973 -0.3551228 0
0.9843657 -0.11336994 -0.39449573 0
0.6917274 -0.033519745 -0.37301779 0
0.89802504 -0.01317811 -0.39093578 0
0.65634203 0.076065302 -0.38147581 0
0.79019737 0.12258244 -0.38847077 0
0.85690331 0.080764294 -0.39981782 0
0.68425298 0.18283939 -0.40936208 0
0.77591348 0.17883039 -0.39426482 0
0.52212691 0.28216577 -0.4152447 0
0.63905501 0.23300171 -0.40567386 0
0.75404549 0.24000382 -0.39938879 0
0.47630382 0.39807677 -0.4248023 0
0.56608248 0.35128784 -0.40777516 0
0.6655333 0.32441139 -0.43159568 0
0.74376512 0.34925175 -0.41868961 0
0.86345792 0.36993408 -0.41518378 0
-0.88857055 0.41144836 -0.23072386 0
-0.789397 0.43253636 -0.24770069 0
-0.7183392 0.4633882 -0.25480747 0
-0.66665363 0.427145 -0.26387429 0
-0.53581285 0.45322227 -0.28670156 0
-0.41905594 0.4578042 -0.29907775 0
0.45047188 0.46016884 -0.42990458 0
0.53881955 0.44640613 -0.41940343 0
0.66393614 0.47041368 -0.42076743 0
0.77535415 0.4835999 -0.41385794 0
0.8895216 0.49425364 -0.40493917 0
0.93461967 -0.4913702 -0.17497277 0
0.89256668 -0.42321873 -0.22958755 0
-0.91461444 -0.44625008 -0.26805532 0
-0.80713654 -0.45084894 -0.28915727 0
-0.71227813 -0.4567436 -0.3006866 0
-0.60996866 -0.44196033 -0.31646693 0
-0.53924131 -0.47461689 -0.31328547 0
-0.85954785 -0.40130675 -0.27558088 0
-0.4993701 -0.44048226 -0.31851065 0
-0.37529445 -0.44526052 -0.32635951 0
-0.2707212 -0.40671134 -0.34118736 0
-0.22799826 -0.45215082 -0.34638226 0
-0.093291521 -0.42910361 -0.36699629 0
-0.03204155 -0.44617152 -0.35807633 0
0.083528757 -0.41626811 -0.36797595 0
0.16910362 -0.40427399 -0.35401428 0
0.29973578 -0.4228816 -0.34795928 0
-0.95679307 -0.35331213 -0.24630189 0
-0.80951381 -0.32543266 -0.27632248 0
-0.71302199 -0.34361506 -0.29497898 0
-0.60202742 -0.30876255 -0.31810391 0
-0.52230048 -0.34829044 -0.32669139 0
-0.38448262 -0.35828543 -0.3386364 0
-0.2990818 -0.32088995 -0.3478812 0
-0.17749906 -0.30862904 -0.3631928 0
-0.13701534 -0.34577513 -0.36869514 0
-0.053255081 -0.3242619 -0.37453139 0
0.066594362 -0.31771255 -0.37237298 0
0.17781043 -0.29093695 -0.37433648 0
0.24505138 -0.3195188 -0.37243199 0
-0.91259336 -0.2412498 -0.24494576 0
-0.72418904 -0.23716581 -0.28657472 0
-0.60497761 -0.19879293 -0.31536317 0
-0.54493666 -0.26517177 -0.32618237 0
-0.41260409 -0.23269415 -0.3437382 0
-0.35999537 -0.25934839 -0.34022808 0
-0.21359396 -0.21816921 -0.36897326 0
-0.10415173 -0.21112084 -0.38068724 0
-0.0008699894 -0.20041299 -0.38585281 0
0.051552296 -0.24703908 -0.39236307 0
0.165133 -0.20900393 -0.38759804 0
-0.82841754 -0.13359344 -0.26059711 0
-0.66986513 -0.16097999 -0.29916 0
-0.60810113 -0.14229274 -0.30277956 0
-0.50622725 -0.18261695 -0.3300755 0
-0.43969512 -0.11299706 -0.3406744 0
-0.30711126 -0.11846423 -0.3582058 0
-0.22875237 -0.087311268 -0.36593223 0
-0.17138219 -0.13440132 -0.37468541 0
-0.043381453 -0.1172297 -0.38945663 0
0.08655858 -0.12635922 -0.39759243 0
0.19927025 -0.11463904 -0.40202653 0
-0.9443512 -0.067963362 -0.23493254 0
-0.80698371 -0.04867363 -0.26935768 0
-0.70277739 -0.019901276 -0.2898736 0
-0.60899282 -0.023123026 -0.31059849 0
-0.5558877 -0.044942379 -0.31464326 0
-0.41699839 0.012063265 -0.34803689 0
-0.31934214 -0.032169104 -0.35934782 0
-0.17924953 0.021795511 -0.37550879 0
-0.11445236 -0.031053782 -0.38467956 0
-0.022005081 0.0091357231 -0.39262831 0
0.035013437 -0.030222416 -0.40171838 0
0.18290639 -0.034329891 -0.41458666 0
-0.33485007 0.045222521 -0.35876024 0
-0.22684598 0.066262484 -0.36999297 0
0.15539098 0.035367727 -0.4212811 0
0.49778032 -0.4977529 -0.34413445 0
0.72716117 -0.48448491 -0.31344247 0
0.41649556 -0.38835764 -0.34297562 0
0.48020148 -0.35784006 -0.33083057 0
0.5698061 -0.40115452 -0.34739065 0
0.70668006 -0.39408922 -0.33754253 0
0.74899149 -0.34574223 -0.33585465 0
0.96501112 -0.33847427 -0.35396314 0
0.28811097 -0.32274938 -0.35504639 0
0.39767718 -0.2939415 -0.35723245 0
0.49384785 -0.26020122 -0.3556819 0
0.62387466 -0.25927567 -0.35554504 0
0.76966882 -0.2736609 -0.35685825 0
0.28929114 -0.23107195 -0.37454867 0
0.33948994 -0.22007227 -0.3559618 0
0.50121403 -0.19900799 -0.37089264 0
0.58895302 -0.21074486 -0.35610235 0
0.69251704 -0.16162801 -0.36116481 0
0.24766135 -0.12060595 -0.38603067 0
0.36927772 -0.11021066 -0.38821197 0
0.48384976 -0.10502172 -0.38625181 0
0.58611917 -0.10642648 -0.37803257 0
0.66447449 -0.063795567 -0.37474918 0
-0.91539788 -0.028656483 -0.23582196 0
0.25687122 -0.01964879 -0.4106096 0
0.38204765 -0.03110528 -0.39124179 0
0.5036881 0.031111479 -0.38510978 0
0.59918308 0.023575544 -0.39316094 0
0.64413691 -0.0026783943 -0.38260186 0
-0.99945974 0.074394464 -0.2197876 0
-0.90911674 0.044660568 -0.23104227 0
-0.7981782 0.067116499 -0.26203966 0
-0.73470402 0.055711508 -0.27209938 0
-0.63966417 0.092949867 -0.29012299 0
-0.52990389 0.05549264 -0.31934524 0
-0.45674276 0.10458136 -0.33179438 0
-0.30165195 0.10529494 -0.35535717 0
-0.098126173 0.066115856 -0.38153148 0
0.083534241 0.080976248 -0.40968728 0
0.20406508 0.059636831 -0.41276157 0
0.27614546 0.082288027 -0.40404713 0
0.37053394 0.070015669 -0.41050029 0
0.4803021 0.072669506 -0.40619302 0
-0.92597079 0.17261267 -0.23017967 0
-0.80894947 0.17762947 -0.24952495 0
-0.7075994 0.16459584 -0.27132666 0
-0.5494566 0.16783857 -0.31303656 0
-0.46590281 0.22325897 -0.3265748 0
-0.31678772 0.19861913 -0.3559854 0
-0.19573498 0.17841196 -0.3756125 0
-0.12371731 0.18296003 -0.384323 0
-0.029271603 0.19024825 -0.39967299 0
0.051580429 0.17582941 -0.40714753 0
0.14610958 0.16793537 -0.4195019 0
0.28313231 0.1944077 -0.43126512 0
0.37523508 0.19509816 -0.4226836 0
0.50405788 0.20896268 -0.42601204 0
-0.92450905 0.276914 -0.23350239 0
-0.83180594 0.28943992 -0.23589981 0
-0.7278316 0.26327705 -0.26302302 0
-0.58317852 0.25746036 -0.29648173 0
-0.50301647 0.30817795 -0.30806589 0
-0.3813169 0.27243519 -0.33816111 0
-0.35482454 0.3107605 -0.32926738 0
-0.24312878 0.25739098 -0.35122454 0
-0.041384459 0.27874851 -0.38958311 0
0.10245442 0.31826115 -0.40806293 0
0.17001843 0.27065063 -0.41640854 0
0.35548258 0.31026292 -0.42614496 0
0.43982935 0.30001187 -0.42941475 0
-0.94601512 0.37434077 -0.23091161 0
-0.68823981 0.38052368 -0.26637053 0
-0.61740136 0.3456583 -0.28064525 0
-0.43395066 0.35533214 -0.31471944 0
-0.30050278 0.38225746 -0.33711314 0
-0.13594842 0.37803888 -0.36899936 0
-0.0073974133 0.37145209 -0.38895047 0
0.079327106 0.42787504 -0.39463603 0
0.21135283 0.39995956 -0.42465985 0
0.30295324 0.34664512 -0.43760133 0
0.37674379 0.41681743 -0.43969584 0
-0.16721153 0.45630741 -0.36312652 0
0.79587507 -0.47788525 -0.26115847 0
0.88735151 -0.44112563 -0.25287557 0
0.84314823 -0.39037585 -0.31258416 0
0.9174161 -0.40548992 -0.24792743 0
0.93654156 -0.14698005 -0.38627422 0
0.82100296 -0.073366165 -0.37310755 0
0.79071379 0.013689995 -0.38622415 0
0.60306954 0.11350703 -0.39729178 0
0.71787214 0.12486863 -0.39100742 0
0.76157761 0.073572397 -0.39156175 0
0.90950489 0.13618016 -0.40170968 0
0.56168246 0.21148157 -0.40867007 0
0.71243572 0.19579315 -0.40589678 0
0.86768889 0.21027803 -0.40960479 0
0.54117894 0.32483554 -0.42988539 0
0.67187214 0.30300689 -0.42050529 0
0.78530908 0.30168295 -0.40913701 0
0.87810969 0.34575963 -0.40149045 0
-0.9048121 0.41609907 -0.23213553 0
-0.84072804 0.37778926 -0.24204755 0
-0.76085663 0.41230011 -0.2517513 0
-0.61885333 0.39538193 -0.26838517 0
-0.42431259 0.4162209 -0.30831587 0
0.45910382 0.44732547 -0.43691063 0
0.56987429 0.41205239 -0.43248892 0
0.74902701 0.4270618 -0.43057823 0
0.83285356 0.4146328 -0.40689349 0
-0.92378831 0.48614633 -0.24239671 0
-0.83561277 0.45304477 -0.23972142 0
-0.72383523 0.48612356 -0.2577461 0
-0.54212785 0.45205879 -0.28213358 0
-0.3042655 0.49151397 -0.33226085 0
-0.026688337 0.47521138 -0.37653232 0
0.28077984 0.45425963 -0.42257476 0
0.47545528 0.49905968 -0.43456244 0
0.64575338 0.49524498 -0.41995144 0
0.9368577 -0.47625351 -0.18109322 0
0.95244956 0.44252253 -0.40544736 0
-0.65564013 -0.43268609 -0.31126571 0
-0.57041526 -0.45778584 -0.33131456 0
-0.47806072 -0.43012929 -0.33056772 0
-0.38296533 -0.47170448 -0.33786881 0
-0.30989027 -0.42775607 -0.34585154 0
-0.2032299 -0.44831061 -0.36050916 0
-0.092585325 -0.43797636 -0.36505461 0
0.044309139 -0.42917609 -0.36640179 0
-0.34307528 -0.37363172 -0.34873474 0
0.15087199 -0.48589945 -0.35067463 0
0.22950649 -0.47156191 -0.34725547 0
0.62274289 -0.49029422 -0.34033239 0
0.69771862 -0.49521089 -0.32230365 0
-0.59032607 -0.41834629 -0.31153738 0
0.12181377 -0.40594268 -0.36317599 0
0.20569468 -0.38673306 -0.3457092 0
0.3226192 -0.41674662 -0.35170758 0
0.37623286 -0.35763144 -0.34684467 0
0.50241113 -0.39116526 -0.35353005 0
0.69654703 -0.43210101 -0.34069002 0
-0.82574558 -0.29717326 -0.27889919 0
-0.68139744 -0.35545278 -0.31702185 0
-0.60122919 -0.34290075 -0.32374156 0
-0.48167372 -0.32695031 -0.34138048 0
-0.38227582 -0.32140708 -0.34961379 0
-0.27250338 -0.34115028 -0.35458601 0
-0.15520144 -0.34064865 -0.3619175 0
-0.049252987 -0.2881124 -0.37813234 0
0.0069363117 -0.34471536 -0.37912416 0
0.11547351 -0.31755829 -0.37189758 0
0.25372124 -0.28504872 -0.36955416 0
0.37272453 -0.27697372 -0.36839581 0
0.51066256 -0.29087281 -0.34923196 0
0.71804142 -0.33854175 -0.37302363 0
-0.94205928 -0.24240351 -0.249493 0
-0.82608294 -0.2094667 -0.27400935 0
-0.69711256 -0.2683816 -0.30530989 0
-0.58534789 -0.23575926 -0.32803881 0
-0.50336003 -0.20343113 -0.34036899 0
-0.41293836 -0.2197144 -0.35312355 0
-0.30498195 -0.23848581 -0.36970615 0
-0.2240963 -0.24783087 -0.36528754 0
-0.11047745 -0.22953391 -0.37591374 0
0.027376175 -0.24614692 -0.38240945 0
0.11455107 -0.21845579 -0.38575292 0
0.23371482 -0.21464157 -0.38438177 0
0.30845165 -0.19966865 -0.37431836 0
0.41352606 -0.19917226 -0.36748207 0
-0.70773673 -0.1650269 -0.30177188 0
-0.61433029 -0.14723086 -0.31661379 0
-0.46263742 -0.13805246 -0.34642756 0
-0.37803125 -0.10238552 -0.35535824 0
-0.29042506 -0.13110518 -0.3736515 0
-0.1883409 -0.13770676 -0.37684405 0
-0.019095421 -0.13606405 -0.39831626 0
0.075333834 -0.13061953 -0.40037727 0
0.18205118 -0.13650513 -0.39372015 0
0.29065084 -0.099946737 -0.39879107 0
0.41189194 -0.090812922 -0.39880359 0
-0.56269598 -0.073346853 -0.32886326 0
-0.44307518 -0.03122139 -0.35297918 0
-0.2678237 -0.02259779 -0.36971343 0
-0.12427115 -0.041596413 -0.39264715 0
-0.012232304 -0.040755987 -0.40025628 0
0.20808125 0.00020766258 -0.42375934 0
0.27755833 -0.020429134 -0.41890204 0
-0.097384214 0.025685549 -0.39365518 0
0.099375486 0.035340071 -0.42045188 0
0.75484943 -0.49609494 -0.27409458 0
0.84939837 -0.45185041 -0.26232314 0
0.90228415 -0.44601607 -0.22558331 0
0.73993826 -0.39524865 -0.32072043 0
0.89450002 -0.37336969 -0.30364501 0
0.76168013 -0.29994893 -0.35473526 0
0.97463512 -0.24365473 -0.38423145 0
0.51673341 -0.21607447 -0.35622013 0
0.62202835 -0.18101335 -0.35431266 0
0.85018873 -0.16747522 -0.37590384 0
-0.99752784 -0.12222493 -0.23418176 0
-0.8820529 -0.14528084 -0.25876033 0
-0.72634053 -0.091311932 -0.29208827 0
0.48281026 -0.11065936 -0.37897933 0
0.61215901 -0.065798998 -0.38639891 0
0.73287487 -0.064469099 -0.37737465 0
-0.99883485 -0.011233568 -0.22952628 0
-0.85180378 -0.036770105 -0.26255643 0
-0.6876328 -0.019698143 -0.30090785 0
-0.58638549 0.015082836 -0.31910574 0
-0.39048481 0.011154652 -0.35548615 0
0.33187366 0.028066635 -0.41447437 0
0.38858128 -0.0021882057 -0.3987174 0
0.52832985 0.048788071 -0.40086997 0
0.60347867 0.018282652 -0.39069688 0
0.72012305 0.023277521 -0.38144088 0
0.9891901 -0.0046367645 -0.4180485 0
-0.98194146 0.066892385 -0.23509586 0
-0.87889266 0.065944672 -0.2482394 0
-0.75943542 0.064106703 -0.27545857 0
-0.67729354 0.11443233 -0.29173017 0
-0.48699975 0.076488256 -0.34155762 0
-0.37291741 0.11955976 -0.36374342 0
-0.26252007 0.080980062 -0.38457084 0
-0.18409801 0.087555408 -0.38564384 0
-0.0010988712 0.09490037 -0.40893185 0
0.20348811 0.11248112 -0.42315614 0
0.28978944 0.093789339 -0.42328858 0
0.38062644 0.11203575 -0.42077482 0
0.49692631 0.11602092 -0.41393733 0
0.61745572 0.12074137 -0.40670633 0
0.75121403 0.14162326 -0.40620184 0
0.90849996 0.1566143 -0.41164017 0
-0.58098769 0.14624882 -0.30773997 0
-0.37440133 0.20170283 -0.36077738 0
-0.19883728 0.17991042 -0.39169109 0
-0.076203823 0.16532469 -0.39332187 0
0.065889597 0.13702703 -0.40895367 0
0.15081906 0.20934844 -0.42168617 0
0.27972078 0.14889836 -0.40702522 0
0.35945272 0.22172284 -0.41288447 0
0.48987722 0.22407103 -0.42675018 0
0.57064486 0.19178772 -0.4175632 0
0.66543722 0.22917223 -0.41359258 0
-0.57231927 0.23722959 -0.31128049 0
-0.32670832 0.24736285 -0.36029065 0
-0.25917983 0.29747987 -0.36559117 0
-0.12194276 0.26019144 -0.39256907 0
-0.046374321 0.32298803 -0.40193474 0
0.048046589 0.26111341 -0.40964377 0
0.21688175 0.30368376 -0.4373877 0
0.30995727 0.24757242 -0.44420803 0
0.36875534 0.30746627 -0.44157684 0
0.46624017 0.32741475 -0.43505073 0
0.60665083 0.32990909 -0.43172336 0
0.055489779 0.34385157 -0.40776622 0
0.30121231 0.36899686 -0.44432735 0
0.3893888 0.41381836 -0.44419205 0
0.9512763 -0.47262001 -0.18523204 0
0.99923635 -0.46531343 -0.1548562 0
-0.99985313 0.19202375 -0.23326421 0
-0.93509388 0.17626739 -0.23746753 0
-0.80277562 0.17785668 -0.25761271 0
0.81615067 0.22225714 -0.41092467 0
-0.89049006 0.2923038 -0.24208903 0
-0.77331495 0.25623035 -0.25733101 0
-0.69258523 0.31139493 -0.27155864 0
-0.53451586 0.27803969 -0.30852151 0
0.69517446 0.3623023 -0.42783689 0
0.76665449 0.32092357 -0.4095546 0
-0.99864435 0.38030899 -0.23519993 0
-0.90439177 0.4295274 -0.24688709 0
-0.83378816 0.3917048 -0.24692345 0
-0.75205064 0.40758753 -0.25810671 0
-0.60344052 0.40111542 -0.28516793 0
-0.42499256 0.37052822 -0.32620275 0
-0.20499635 0.40037012 -0.36920059 0
-0.088597775 0.38210869 -0.38147056 0
0.12224936 0.40502977 -0.41020596 0
0.52013922 0.38768506 -0.42987931 0
0.59899712 0.41086483 -0.42132592 0
0.7703743 0.44481969 -0.42968631 0
0.8538754 0.4442358 -0.40494502 0
-0.93969107 0.46749187 -0.24891269 0
-0.68349695 0.45815086 -0.26883578 0
-0.57186627 0.48796868 -0.28536642 0
-0.43644929 0.46862602 -0.31458068 0
0.006793499 0.47464204 -0.40155828 0
0.20887971 0.4868207 -0.42308879 0
0.38821483 0.49218225 -0.43290782 0
0.49656487 0.49092269 -0.43519902 0
-0.10720682 -0.49711132 -0.35810471 0
-0.038652897 -0.47078657 -0.35831642 0
0.69561028 -0.49385691 -0.29165351 0
-0.56376028 -0.43851388 -0.31961167 0
-0.35880184 -0.44521832 -0.32741261 0
-0.19115829 -0.45836282 -0.34549987 0
0.021672249 -0.45936418 -0.34525216 0
0.1911993 -0.44592118 -0.34563148 0
0.37753344 -0.48395681 -0.33551252 0
0.45437002 -0.40921569 -0.33992946 0
0.65365887 -0.44146967 -0.34228015 0
0.69107533 -0.43503213 -0.31171203 0
-0.61224461 -0.38465381 -0.31919611 0
-0.51220393 -0.3781153 -0.32547605 0
-0.3872335 -0.36381221 -0.34043097 0
-0.29611278 -0.3609395 -0.34288085 0
-0.22363853 -0.323452 -0.34957767 0
-0.13893342 -0.38081121 -0.35654747 0
0.0021824837 -0.3967669 -0.35944057 0
0.080071688 -0.3700645 -0.35622156 0
0.21255136 -0.34043503 -0.35184753 0
0.33181763 -0.38640976 -0.35267615 0
0.3658042 -0.35410881 -0.33485198 0
0.53962493 -0.35188532 -0.34139061 0
0.68741941 -0.37120843 -0.33397388 0
-0.72416687 -0.30731523 -0.30079436 0
-0.58598161 -0.26493454 -0.32066905 0
-0.40425706 -0.27360296 -0.34814262 0
-0.2543726 -0.24478459 -0.36268425 0
-0.1100173 -0.25604749 -0.371387 0
0.0052323341 -0.27083707 -0.37887204 0
0.18929148 -0.26856661 -0.36928034 0
0.30175638 -0.23674226 -0.35713768 0
-0.48392344 -0.20371485 -0.33261406 0
-0.33619165 -0.18639064 -0.35629153 0
-0.24886227 -0.12835622 -0.36969733 0
-0.13129592 -0.1716783 -0.37646711 0
0.10402012 -0.18069816 -0.39155412 0
0.17157769 -0.16550112 -0.38449192 0
0.018840313 -0.08061409 -0.40162909 0
0.85133791 -0.47809458 -0.22960889 0
0.72492909 -0.40843153 -0.29056227 0
0.8124423 -0.42129159 -0.26360583 0
0.88831902 -0.39747 -0.24423742 0
0.60181737 -0.28287053 -0.34150171 0
0.73315763 -0.33479881 -0.31895125 0
0.7924943 -0.29536676 -0.34999478 0
0.87884402 -0.34950829 -0.3053664 0
-0.88102651 -0.23214614 -0.26514649 0
0.44240403 -0.19352841 -0.36880398 0
0.49301171 -0.23377562 -0.34946859 0
0.6520524 -0.17887712 -0.35265219 0
-0.80940151 -0.15859497 -0.27365375 0
-0.70741415 -0.17783093 -0.29183757 0
-0.57046866 -0.12816787 -0.32467556 0
-0.46172523 -0.12414336 -0.33762145 0
0.25564528 -0.1493175 -0.37526774 0
0.39929032 -0.12018371 -0.38341415 0
0.48938966 -0.13549614 -0.36410773 0
0.59137392 -0.11814451 -0.35980117 0
0.82193756 -0.12490582 -0.37203634 0
-0.76130176 -0.072426081 -0.27919495 0
-0.55980325 -0.060792446 -0.32405448 0
-0.36764145 -0.070984125 -0.35261512 0
-0.32471418 -0.016134977 -0.35460925 0
-0.16889977 -0.068082809 -0.38189387 0
-0.10354209 -0.024410248 -0.38536131 0
0.10231066 -0.070726395 -0.39959848 0
0.23356056 -0.057543755 -0.40072167 0
0.30069089 -0.0026910305 -0.40073729 0
0.37776804 -0.02720952 -0.39295626 0
0.49440241 -0.055221081 -0.37613773 0
0.62649083 0.029064655 -0.37947392 0
0.66144943 -0.04891777 -0.35984933 0
-0.74147868 0.018163681 -0.2869091 0
-0.6372726 0.056735754 -0.30654633 0
-0.42961454 0.018228054 -0.34734142 0
-0.33674645 0.095598698 -0.35785365 0
-0.23812652 0.019501686 -0.3624475 0
-0.063794374 0.07484293 -0.39950562 0
0.065378666 0.0065455437 -0.41349292 0
0.17619228 0.037218094 -0.41874182 0
0.2781167 0.069493294 -0.41989958 0
0.35302615 0.052941084 -0.39804232 0
0.48134661 0.057580233 -0.39612377 0
0.60896373 0.10486245 -0.40238225 0
-0.3096447 0.18020678 -0.36644709 0
-0.18908811 0.12722063 -0.38222671 0
-0.12534285 0.18501139 -0.38712215 0
0.02492547 0.13110328 -0.4091152 0
0.079585791 0.19250369 -0.41146374 0
0.19507861 0.1477356 -0.41045558 0
0.36827922 0.15280557 -0.4194361 0
0.16899085 0.28685379 -0.43263054 0
0.36432719 0.2277 -0.4285202 0
0.92307043 -0.4646008 -0.16405284 0
0.92702723 -0.39793634 -0.20852458 0
-0.9319644 -0.010948896 -0.23960435 0
0.79195786 0.020689726 -0.3738873 0
-0.9401083 0.085057735 -0.22299206 0
-0.6104033 0.087651491 -0.30156112 0
0.72672939 0.10801125 -0.38963604 0
-0.93274951 0.19694352 -0.23396075 0
-0.77374673 0.1844244 -0.26587498 0
-0.52106047 0.15449357 -0.32193947 0
0.56184602 0.19862461 -0.40585887 0
0.65122437 0.1634562 -0.39330792 0
0.80543542 0.18727279 -0.39468336 0
-0.9062562 0.23715043 -0.23206961 0
-0.76269817 0.28750205 -0.26649499 0
-0.48891139 0.25948024 -0.32469332 0
-0.29898143 0.23019958 -0.35596621 0
-0.21584487 0.30000305 -0.36983407 0
-0.010693312 0.2895956 -0.40437317 0
0.29089618 0.28978896 -0.43349349 0
0.40614748 0.29979634 -0.42609191 0
0.46703744 0.22668982 -0.41392934 0
0.53596735 0.30666351 -0.41927278 0
0.64377904 0.30910897 -0.40442121 0
0.7434907 0.24992442 -0.40436769 0
0.88731575 0.29595137 -0.41469407 0
-0.43353868 0.32978034 -0.32145476 0
-0.16679311 0.36873746 -0.37523496 0
-0.045198679 0.38196921 -0.38300359 0
0.1701684 0.37931108 -0.41777098 0
0.3358233 0.35228777 -0.42915893 0
0.48070455 0.38712955 -0.43606675 0
0.60249352 0.38205719 -0.4220283 0
0.71782231 0.43229246 -0.42883742 0
0.76610589 0.35906172 -0.41207516 0
-0.20428324 0.42786741 -0.35860693 0
0.00080323219 0.46821523 -0.38960993 0
0.286237 0.49670124 -0.4324919 0
0.37102652 0.43155932 -0.42841959 0
0.46671176 0.48060608 -0.42909896 0
0.61703968 0.48233414 -0.42623913 0
-0.91754961 0.3008877 -0.22964001 0
-0.73375082 0.31466651 -0.26009023 0
-0.89230752 0.38114071 -0.23842871 0
-0.81558847 0.4115361 -0.24398804 0
-0.71229172 0.36991954 -0.25808132 0
-0.63236713 0.42930245 -0.27320981 0
-0.42072272 0.39485002 -0.31825733 0
0.82489944 0.43587661 -0.40850341 0
-0.90606689 0.47899699 -0.23749125 0
-0.78210497 0.49097788 -0.24514198 0
-0.65578365 0.48492837 -0.26347363 0
-0.46818924 0.47031808 -0.30486131 0
0.7134676 0.49623823 -0.40832579 0
-0.42244554 -0.46577477 -0.32685304 0
-0.15664554 -0.44203377 -0.35727072 0
0.70115042 -0.49210191 -0.2906146 0
-0.5768187 -0.44949043 -0.31192219 0
-0.52568936 -0.42785823 -0.30799186 0
-0.3567791 -0.43886065 -0.32799125 0
-0.076322556 -0.46049714 -0.34959197 0
0.039001942 -0.44983387 -0.35021544 0
0.076172113 -0.42111468 -0.33734894 0
0.21364164 -0.43951082 -0.35087466 0
0.3293221 -0.40410304 -0.34452438 0
0.40953064 -0.47561979 -0.34348369 0
0.5025332 -0.40600014 -0.35020781 0
0.71053028 -0.42144203 -0.33841372 0
-0.60371876 -0.39371777 -0.31798685 0
-0.525805 -0.34410226 -0.32886159 0
-0.42114401 -0.37477696 -0.32705879 0
-0.19992447 -0.36549735 -0.36567557 0
-0.10933256 -0.37164354 -0.36511004 0
0.0074408054 -0.35960102 -0.37018633 0
0.078742743 -0.33857369 -0.36368585 0
0.16512489 -0.36180902 -0.34608674 0
0.26319218 -0.32869554 -0.35102439 0
0.40618181 -0.34260058 -0.34580219 0
0.56695175 -0.34952474 -0.34616649 0
0.73803806 -0.34944129 -0.34982538 0
-0.72335815 -0.3057425 -0.29987037 0
-0.56969166 -0.2805748 -0.33133328 0
-0.52035689 -0.26021767 -0.32903683 0
-0.40106916 -0.28156924 -0.34548974 0
-0.27592373 -0.28838062 -0.35484993 0
-0.16250896 -0.29368353 -0.37200594 0
-0.07861948 -0.26237488 -0.37612665 0
0.082401752 -0.25626254 -0.3904525 0
0.18294954 -0.2710011 -0.36494207 0
0.33171582 -0.2344265 -0.36264873 0
-0.45448804 -0.20018435 -0.340137 0
-0.43148255 -0.12584043 -0.34398568 0
-0.28851628 -0.16495037 -0.36061513 0
-0.18529844 -0.21467233 -0.3617934 0
-0.078546286 -0.15095639 -0.38143134 0
-6.5088272e-05 -0.21275282 -0.38383698 0
0.069283485 -0.15630436 -0.38936937 0
0.18400121 -0.17601418 -0.39126301 0
-0.15303612 -0.079677582 -0.38141835 0
0.032350302 -0.094167709 -0.39940381 0
0.1606667 -0.054402828 -0.41649628 0
0.68447447 -0.49620652 -0.24759722 0
0.82903385 -0.49144197 -0.21709371 0
0.71785879 -0.41397142 -0.28420508 0
0.83676147 -0.41461062 -0.26831663 0
0.87145233 -0.38697195 -0.2643584 0
0.64106178 -0.28134513 -0.34896517 0
0.79634714 -0.30114841 -0.34386885 0
-0.85984683 -0.25466454 -0.26644337 0
0.43136954 -0.20264983 -0.3609705 0
0.504246 -0.24128604 -0.34726405 0
0.65529346 -0.17565823 -0.35200703 0
-0.92590594 -0.13133883 -0.25044572 0
-0.78998303 -0.16225791 -0.27771318 0
-0.61387873 -0.14957833 -0.3152597 0
0.26375985 -0.13742685 -0.37899041 0
0.38628769 -0.13989425 -0.3716774 0
0.49950743 -0.12488389 -0.36770916 0
0.58521509 -0.12642932 -0.35319328 0
0.89630008 -0.11809134 -0.38916993 0
-0.75586843 -0.070208788 -0.28019059 0
-0.54942584 -0.064478159 -0.32513237 0
-0.4472034 -0.012953043 -0.34501064 0
-0.3077352 -0.040374041 -0.3631233 0
0.1941936 -0.046140194 -0.39360917 0
0.33025217 -0.03763485 -0.39348602 0
0.41933584 0.00021910667 -0.39248562 0
0.45555282 -0.072600365 -0.37563896 0
0.59316254 -0.014832973 -0.37392938 0
0.69573975 -0.034968615 -0.369789 0
0.82595944 0.0054044724 -0.37425697 0
-0.70003557 0.022113323 -0.28940916 0
-0.54960012 0.097398758 -0.32010055 0
-0.37055016 0.040697813 -0.35634053 0
-0.29004526 0.095390797 -0.36842918 0
-0.1868391 0.036569595 -0.3788805 0
-0.038794041 0.031569719 -0.40408003 0
0.050147295 0.003636837 -0.40702438 0
0.14953589 0.061709404 -0.41856992 0
0.29194283 0.072623491 -0.42207766 0
0.39525557 0.075940609 -0.41327679 0
0.5086205 0.061519623 -0.40127933 0
0.56967402 0.074110508 -0.380638 0
-0.44551754 0.15251303 -0.34179211 0
-0.30118823 0.17071223 -0.36455405 0
-0.1879313 0.12151384 -0.37938678 0
-0.092832565 0.18445873 -0.39352274 0
0.027944803 0.12663698 -0.40688896 0
0.077651978 0.18180156 -0.40604854 0
0.19563746 0.12241125 -0.41637504 0
0.2770102 0.15849209 -0.41435397 0
0.41948795 0.16343355 -0.41673529 0
0.38756084 0.23558307 -0.43432844 0
0.85402584 -0.49933982 -0.1536535 0
0.94907355 -0.44943452 -0.15220261 0
