# .PCD v0.7 - Point Cloud Data file format
VERSION 0.7
FIELDS x y z intensity
SIZE 4 4 4 4
TYPE F F F F
COUNT 1 1 1 1
WIDTH 1294
HEIGHT 1
VIEWPOINT 0 0 0 1 0 0 0
POINTS 1294
DATA ascii
0.22262192 -0.38199425 0.54364192 0
0.30253029 -0.35480595 0.53356719 0
0.19922829 -0.43564558 0.59219837 0
0.088006973 -0.48017216 0.52795851 0
0.11874104 -0.42769241 0.51801014 0
0.16767406 -0.41056395 0.54179633 0
0.24078941 -0.37960052 0.54875541 0
-0.11594677 -0.473032 0.5846436 0
-0.061009407 -0.46354246 0.55684257 0
0.1482811 -0.49645567 0.62996876 0
-0.14255428 -0.39873362 0.57291436 0
0.064087868 -0.38915968 0.64620972 0
0.043087959 -0.48274612 0.67751765 0
0.12755108 -0.47230291 0.68071389 0
-0.042625427 -0.41125679 0.63388348 0
0.16876507 -0.41652012 0.49817932 0
-0.052376747 -0.47007942 0.55576348 0
0.089792252 -0.46413088 0.51089835 0
0.1442318 -0.49562597 0.55504668 0
-0.029577255 -0.42865705 0.55092394 0
0.10221672 -0.42885447 0.50639689 0
0.16831398 -0.4071269 0.53974462 0
0.24596024 -0.36893034 0.55546761 0
-0.15706062 -0.48613644 0.61305261 0
-0.10031605 -0.46758604 0.59099066 0
0.11033726 -0.48190165 0.66614592 0
0.17800808 -0.4868741 0.68660569 0
-0.16280842 -0.38007021 0.59821332 0
-0.10372353 -0.40315676 0.584885 0
0.019460678 -0.40738773 0.64618802 0
-0.15541744 -0.30199289 0.57701385 0
-0.28745174 -0.49853468 0.62391675 0
-0.18947983 -0.4796443 0.63901031 0
-0.24476433 -0.40619802 0.62235367 0
-0.22124004 -0.42314005 0.6288873 0
0.092624664 -0.47312975 0.5178901 0
0.14361858 -0.44623327 0.5236901 0
0.24004555 -0.48481226 0.53538489 0
0.1823597 -0.4029541 0.53252411 0
0.24255466 -0.3833518 0.54547811 0
-0.10882187 -0.42847013 0.58637738 0
-0.070012093 -0.4566021 0.5749681 0
0.15757656 -0.44672394 0.56187284 0
0.21676731 -0.48035717 0.59356475 0
-0.12588787 -0.36889982 0.57890034 0
-0.044850349 -0.41362095 0.55032694 0
0.21441936 -0.37868834 0.56159043 0
-0.13942623 -0.29448938 0.57124567 0
-0.31070328 -0.49960279 0.62277985 0
-0.2625618 -0.47407866 0.6315155 0
-0.15082264 -0.46444607 0.62091529 0
0.12723351 -0.46004486 0.68364966 0
-0.23322392 -0.39960814 0.61754119 0
-0.16248417 -0.37093973 0.60050523 0
-0.1698885 -0.30233526 0.58483791 0
0.88744926 -0.40738249 -0.34411645 0
0.90368652 -0.2841258 -0.34293294 0
0.99601269 -0.27623463 -0.33524799 0
0.86232567 -0.22271061 -0.34101176 0
0.85874176 -0.13431311 -0.34071565 0
0.88745785 -0.062171459 -0.34367943 0
0.85770798 0.0085916519 -0.34788942 0
0.92926979 -0.040980339 -0.34040117 0
0.997715 0.019421577 -0.33871078 0
0.86295509 0.097661972 -0.35107803 0
0.98006153 0.081363678 -0.34046197 0
0.84265327 0.17294025 -0.35322237 0
0.95000839 0.19858551 -0.34386325 0
0.84279346 0.28402901 -0.35701203 0
0.95103264 0.2895999 -0.34706736 0
0.79949093 0.39443922 -0.36131954 0
0.91443253 0.38750601 -0.35085344 0
0.88843727 0.44587708 -0.35338044 0
0.092214584 -0.46601343 0.52237165 0
0.17481232 -0.47305584 0.53174686 0
0.18490601 -0.40479136 0.53719747 0
-0.098658562 -0.46620417 0.59095109 0
-0.045497894 -0.45224619 0.55926621 0
0.18857098 -0.46980381 0.58012688 0
0.23466587 -0.4497242 0.60685027 0
-0.19128323 -0.34861088 0.59733582 0
-0.12333107 -0.38160563 0.58773637 0
0.17842102 -0.40946484 0.56967485 0
-0.14000893 -0.30512428 0.58279669 0
-0.190732 -0.48518658 0.63944328 0
-0.13876534 -0.46399832 0.62666774 0
0.093207359 -0.45452309 0.67314947 0
-0.21330643 -0.37902403 0.61240888 0
-0.15009212 -0.4029007 0.62057781 0
0.48184299 -0.42209339 -0.35497403 0
0.64869404 -0.40954924 -0.35347199 0
0.65932274 -0.43787098 -0.35332584 0
0.79267502 -0.39883566 -0.34963679 0
0.93902779 -0.38493729 -0.34381509 0
0.97970486 -0.41369772 -0.34510732 0
0.50205421 -0.34096813 -0.35679936 0
0.62594223 -0.285326 -0.3523345 0
0.66187286 -0.35267639 -0.35333061 0
0.77059364 -0.31382513 -0.34840226 0
0.93648815 -0.29765701 -0.34339762 0
0.53611183 -0.22293043 -0.36223173 0
0.6474762 -0.16439486 -0.35733533 0
0.72559357 -0.20076561 -0.35009885 0
0.9079628 -0.20349121 -0.34248233 0
0.53186035 -0.1312542 -0.36708617 0
0.58890247 -0.091850281 -0.36645651 0
0.70464134 -0.10471678 -0.35652614 0
0.89845943 -0.10234499 -0.34312844 0
0.59318733 0.00047302246 -0.37215757 0
0.67168999 0.037133694 -0.3685596 0
0.76334572 -0.018364906 -0.35738587 0
0.89253998 -0.0021209717 -0.34847617 0
0.56223965 0.10287905 -0.3784132 0
0.69885921 0.10288906 -0.36954832 0
0.79775143 0.085126877 -0.36304498 0
0.88069534 0.10787344 -0.3532567 0
0.63059616 0.20341158 -0.37630153 0
0.71345329 0.19440889 -0.37160397 0
0.7927351 0.18796015 -0.36144328 0
0.91519737 0.18878508 -0.35036564 0
0.98412991 0.17314434 -0.34408116 0
0.63777447 0.28506994 -0.37885737 0
0.72744846 0.30141973 -0.37123036 0
0.83232021 0.28055811 -0.35958219 0
0.92902946 0.29824066 -0.34898567 0
0.9865675 0.28053951 -0.34820366 0
0.69391537 0.40091038 -0.3755033 0
0.80062675 0.38809156 -0.36420178 0
0.92294216 0.42291784 -0.35443807 0
0.96090412 0.37329626 -0.35209823 0
0.76871395 0.49285221 -0.36914468 0
0.24766445 -0.49646473 -0.36391664 0
0.46253967 -0.47207308 -0.35194731 0
0.23730183 -0.41316891 -0.36148477 0
0.34157562 -0.44923592 -0.3593328 0
0.37521648 -0.41785908 -0.35924792 0
0.48566246 -0.3887558 -0.35591865 0
0.2244482 -0.30880308 -0.35947633 0
0.37219143 -0.31432724 -0.35945868 0
0.49154282 -0.31760073 -0.35790873 0
0.24249268 -0.20889997 -0.36302519 0
0.40147877 -0.20590305 -0.36426759 0
0.2449007 -0.11900043 -0.36699486 0
0.27067852 -0.14781523 -0.36565018 0
0.39921665 -0.10756016 -0.368613 0
0.20218563 0.020931244 -0.36458492 0
0.27255249 -0.023311615 -0.36863232 0
0.40079975 -0.016863823 -0.37251663 0
0.11808491 0.12464905 -0.35839963 0
0.18550396 0.10316563 -0.36178732 0
0.31240368 0.14076996 -0.366997 0
0.37299442 0.078368664 -0.3711729 0
0.082522392 0.21428585 -0.35542107 0
0.19263268 0.22058916 -0.35944009 0
0.27085209 0.19151545 -0.36391354 0
0.48910046 0.19140863 -0.3740561 0
0.030924797 0.26485014 -0.35823107 0
0.068199158 0.28788757 -0.359689 0
0.17668724 0.29964495 -0.35759568 0
0.33400631 0.31812096 -0.3640573 0
0.38941383 0.26348209 -0.36789799 0
0.51555443 0.32363367 -0.37257457 0
0.579669 0.30473948 -0.37584376 0
0.096812248 0.39149046 -0.3706522 0
0.17084694 0.38761473 -0.36362886 0
0.27968693 0.39732265 -0.36289454 0
0.41818142 0.44397354 -0.36508036 0
0.47853565 0.3915987 -0.36912537 0
0.62671089 0.44370508 -0.37500596 0
0.096636772 0.48224688 -0.38435435 0
0.18074226 0.49244213 -0.37728906 0
0.25631428 0.47237873 -0.37137437 0
0.37850666 0.48010111 -0.36689353 0
0.5889616 0.47365427 -0.37252831 0
0.11649227 -0.43323088 0.50594985 0
0.18740559 -0.41049767 0.50515771 0
-0.078751564 -0.46076679 0.57485056 0
-0.042626381 -0.45308018 0.5591644 0
0.11230659 -0.47155857 0.52892995 0
0.17952442 -0.46590233 0.5629952 0
-0.058782578 -0.39466 0.56819117 0
0.18950653 -0.39915514 0.54844689 0
0.24750233 -0.38867903 0.5789746 0
-0.32059479 -0.48861551 0.61767197 0
-0.21696472 -0.45142317 0.63435042 0
-0.13293839 -0.46362257 0.61112869 0
-0.19897842 -0.36834526 0.60760999 0
-0.14391613 -0.35729122 0.59106636 0
-0.1611681 -0.29383039 0.5761193 0
0.74814701 -0.48223543 -0.34931421 0
0.91923141 -0.45347691 -0.34417439 0
0.92920971 -0.38738489 -0.34445763 0
0.89427757 -0.31238079 -0.34378004 0
0.38765144 -0.48828268 -0.35463548 0
0.54650879 -0.46723509 -0.35037255 0
-0.15920544 -0.42548037 -0.35879803 0
-0.028000832 -0.40167999 -0.36299849 0
0.11036301 -0.40563679 -0.36192822 0
0.19429874 -0.40887833 -0.36074471 0
0.23777103 -0.44552755 -0.36075568 0
0.41917992 -0.39980078 -0.35778236 0
0.55589485 -0.41014147 -0.35293341 0
0.72355366 -0.41341782 -0.34861279 0
-0.029415131 -0.29364395 -0.36003327 0
0.092280388 -0.30463123 -0.35937142 0
0.21448994 -0.29569149 -0.35786748 0
0.39821339 -0.30215216 -0.35833001 0
0.51461124 -0.2834816 -0.35602355 0
0.53613377 -0.3245945 -0.35377264 0
0.70253754 -0.30203247 -0.34809732 0
-0.12734127 -0.19123888 -0.36443233 0
-0.04860878 -0.21202421 -0.35944295 0
0.062742233 -0.20501518 -0.35946202 0
0.20137882 -0.21693039 -0.36063075 0
0.38500023 -0.19887733 -0.36288095 0
0.57048225 -0.18957663 -0.36061049 0
0.67523003 -0.21750641 -0.3495295 0
0.8520813 -0.19937611 -0.34326315 0
-0.067174911 -0.15398598 -0.36026907 0
0.041931152 -0.1091218 -0.35778165 0
0.1892643 -0.11069632 -0.36404324 0
0.40299702 -0.090246201 -0.36746192 0
0.59172249 -0.098186493 -0.36561465 0
0.69983673 -0.078167915 -0.35731483 0
0.78429127 -0.10657263 -0.3492353 0
0.83618355 -0.080574036 -0.34741187 0
0.98345375 -0.087530136 -0.33615994 0
0.08585453 0.01920557 -0.35713816 0
0.15048409 -0.02531147 -0.36105084 0
0.29943562 0.019435406 -0.36727643 0
0.40104866 -0.0068125725 -0.37093568 0
0.59171391 -0.014491081 -0.37067914 0
0.69478321 0.0082101822 -0.36271977 0
0.80968189 0.015773296 -0.353755 0
0.27375317 0.096428394 -0.36409998 0
0.57297516 0.087050438 -0.37570238 0
0.70571041 0.1090641 -0.36854696 0
0.81167603 0.11682129 -0.35859609 0
0.96591473 0.096247673 -0.34421849 0
0.1714201 0.18707609 -0.35724378 0
0.24000263 0.16972923 -0.3606627 0
0.37186718 0.2324667 -0.36566114 0
0.46759987 0.18262339 -0.37116957 0
0.68830681 0.20150852 -0.37245131 0
0.79818249 0.21837521 -0.36271691 0
0.90229511 0.19825268 -0.34848428 0
0.24310493 0.313519 -0.35781074 0
0.34074497 0.27664852 -0.36307716 0
0.55964565 0.32493114 -0.37236762 0
0.64727306 0.28055954 -0.37556767 0
0.76618958 0.31186771 -0.36686182 0
0.87572289 0.30517387 -0.35332704 0
-0.16518974 0.43819809 -0.40756655 0
0.057534218 0.43548822 -0.38188386 0
0.1735487 0.42267132 -0.36810803 0
0.24592304 0.38927507 -0.35886145 0
0.3742609 0.43819809 -0.36103344 0
0.46330357 0.38503361 -0.36644578 0
0.70914936 0.38560057 -0.37055469 0
0.84795189 0.39976454 -0.35794401 0
-0.23167038 0.48804569 -0.42074275 0
-0.13276577 0.4828496 -0.41021061 0
-0.040345192 0.49434137 -0.40130115 0
0.045799255 0.49255371 -0.39083242 0
0.12547112 0.48729944 -0.38045883 0
0.23495197 0.47175455 -0.3704586 0
0.6869278 0.45272875 -0.37396264 0
0.83730316 0.48659372 -0.36231875 0
0.9693327 0.49414492 -0.34858966 0
-0.35333157 -0.41017389 -0.34939957 0
-0.20913601 -0.38675213 -0.3535924 0
-0.28966904 -0.31248379 -0.35692453 0
-0.20710754 -0.30651951 -0.35549378 0
-0.17165279 -0.26448298 -0.35880017 0
-0.25476551 -0.20829773 -0.36578655 0
-0.1736908 -0.21730614 -0.36237884 0
-0.2348299 -0.095163822 -0.36939073 0
-0.12656879 -0.10418892 -0.36335754 0
-0.041276932 -0.078948498 -0.35878491 0
-0.29548931 -0.0018630028 -0.3698349 0
-0.24166584 -0.010016441 -0.36878061 0
-0.13592052 -0.0054821968 -0.36421371 0
-0.005396843 0.0036549568 -0.35791659 0
-0.23909569 0.10386181 -0.37371397 0
-0.13610458 0.092645645 -0.36354828 0
-0.018284798 0.091684818 -0.35957956 0
0.05769062 0.098942757 -0.35512638 0
-0.23598766 0.18605423 -0.38272595 0
-0.1229105 0.19450712 -0.37072802 0
-0.030502319 0.21039581 -0.36167145 0
0.049075127 0.19212723 -0.35527134 0
0.16013527 0.23785162 -0.35536218 0
-0.23886967 0.28696775 -0.39541936 0
-0.14741993 0.28873491 -0.38498902 0
-0.023776054 0.29491234 -0.37040377 0
0.086544037 0.28494978 -0.35500002 0
0.12301922 0.33862495 -0.35979223 0
-0.22772503 0.38159275 -0.40567136 0
-0.099386215 0.38785028 -0.39257336 0
-0.044836044 0.38896513 -0.38563085 0
0.058844566 0.36754704 -0.37083721 0
0.11979771 0.40081835 -0.36863708 0
-0.004108429 -0.4235177 0.55791724 0
0.090922356 -0.45111084 0.5278815 0
0.17324162 -0.44731855 0.54785669 0
0.24534893 -0.49243212 0.53432596 0
0.21340466 -0.38326311 0.56195199 0
0.23310757 -0.39332581 0.5431031 0
-0.24834347 -0.45344687 0.63002396 0
-0.1358366 -0.44544792 0.61601245 0
-0.069561005 -0.47266006 0.58066356 0
-0.19193745 -0.37764549 0.6205827 0
-0.13776875 -0.34994841 0.59210217 0
-0.14129734 -0.28277493 0.58255255 0
-0.21388435 -0.45637465 0.65391231 0
0.19736004 -0.49603748 -0.37332964 0
0.37331963 -0.49001598 -0.3664372 0
0.57643223 -0.49904919 -0.35929227 0
0.17987251 -0.40479088 -0.37097287 0
0.37883091 -0.39470911 -0.36847448 0
0.60108566 -0.39118004 -0.36323571 0
0.80549431 -0.37784958 -0.35583901 0
0.85560226 -0.40866518 -0.35708237 0
0.37947464 -0.28261232 -0.37016964 0
0.57300091 -0.28173208 -0.36398792 0
0.84083652 -0.28791904 -0.35683393 0
0.18204784 -0.16850519 -0.37339854 0
0.38965988 -0.18446922 -0.37456059 0
0.59844494 -0.18124056 -0.36859703 0
0.78222752 -0.19333458 -0.35650682 0
0.99901962 -0.18189096 -0.34773445 0
0.18424416 -0.11582851 -0.37572098 0
0.39380264 -0.096601963 -0.3783896 0
0.61614323 -0.13004446 -0.37116003 0
0.62489891 -0.085823536 -0.37350392 0
0.77737236 -0.099400043 -0.36027241 0
0.97220135 -0.087286949 -0.34825611 0
0.39971256 -0.010848999 -0.38203883 0
0.61455154 0.022025108 -0.37989473 0
0.63261509 -0.0359025 -0.37624574 0
0.79031658 0.0030760765 -0.36601162 0
0.9572525 0.010602474 -0.35242319 0
0.29818535 0.10930634 -0.37634468 0
0.34087467 0.060807228 -0.37952232 0
0.5961504 0.076819897 -0.38351274 0
0.6313839 0.15450001 -0.38692808 0
0.77456951 0.12101936 -0.37189627 0
0.91290283 0.13812208 -0.35747933 0
0.94926739 0.098927498 -0.35597134 0
0.57497501 0.21897507 -0.38689351 0
0.74837875 0.21951914 -0.37578464 0
0.91024399 0.19701767 -0.35986924 0
0.36726284 0.3080039 -0.37532306 0
0.47617817 0.28351116 -0.3808322 0
0.71488667 0.34573174 -0.38135195 0
0.71981049 0.30136824 -0.3793354 0
0.87663555 0.30106163 -0.36445785 0
0.67366982 0.4055686 -0.38435745 0
0.83269024 0.42824173 -0.37063003 0
0.99119568 0.40740442 -0.35486555 0
0.56469059 0.46954107 -0.38098097 0
-0.46995354 -0.48636913 -0.35586452 0
-0.2003336 -0.45777559 -0.36946702 0
-0.4029932 -0.39880419 -0.36184955 0
-0.38071632 -0.35378313 -0.36582899 0
-0.23950863 -0.37981653 -0.36342335 0
-0.0097904205 -0.3955574 -0.37264967 0
0.026501656 -0.44714594 -0.37512207 0
-0.33429527 -0.29102135 -0.37054348 0
-0.21186829 -0.30097103 -0.36690044 0
-0.010130882 -0.30246496 -0.37097001 0
0.14439869 -0.29884386 -0.36841989 0
-0.27002335 -0.19219589 -0.37821126 0
-0.16332722 -0.2023983 -0.37376094 0
-0.025904655 -0.1979394 -0.36963296 0
0.16040993 -0.23301792 -0.37058902 0
-0.31619358 -0.080985069 -0.381037 0
-0.26447964 -0.11971951 -0.38144684 0
-0.16647816 -0.10128546 -0.37611318 0
-0.055342674 -0.097737312 -0.37049913 0
0.1401825 -0.075414181 -0.37317228 0
-0.29191685 -0.010647297 -0.38250256 0
-0.24138832 -0.00015735626 -0.38000703 0
-0.1767931 -0.015296936 -0.37729764 0
-0.083641052 0.0069289207 -0.37187743 0
0.09300518 -0.0076961517 -0.36936259 0
-0.23415756 0.091549873 -0.38378453 0
-0.13282394 0.080489159 -0.37284255 0
-0.0065565109 0.081478119 -0.36704779 0
0.074179649 0.068395615 -0.36762691 0
-0.24536705 0.18376923 -0.3936038 0
-0.13672924 0.19616413 -0.38188839 0
-0.012613297 0.19377661 -0.37028503 0
0.10155296 0.21024084 -0.364995 0
0.16636467 0.17209196 -0.36887169 0
0.25886154 0.16301632 -0.37315083 0
-0.27052402 0.298594 -0.41008925 0
-0.14185905 0.29367161 -0.39428115 0
-0.031099319 0.29660797 -0.38152409 0
0.085967064 0.27185774 -0.36639595 0
-0.24245262 0.40873337 -0.42210531 0
-0.17869663 0.37775183 -0.4093039 0
-0.054645538 0.38940048 -0.39682388 0
0.050262451 0.37162495 -0.38219142 0
0.12111092 0.40613842 -0.38002253 0
0.26732159 0.41485023 -0.372123 0
0.31845284 0.35865784 -0.37171316 0
-0.15135765 0.49421501 -0.42389727 0
-0.044379234 0.48741198 -0.41140437 0
0.038237572 0.49878025 -0.40291262 0
0.26929951 0.48774099 -0.38182759 0
0.14034176 -0.43797255 0.51982331 0
0.18101215 -0.39592314 0.54171658 0
0.21640873 -0.40024328 0.5043745 0
0.29523849 -0.35826349 0.54130363 0
-0.10548592 -0.49893284 0.59798729 0
-0.091518402 -0.45416069 0.56955576 0
0.17119026 -0.45999527 0.57276654 0
-0.15271759 -0.35016775 0.58020747 0
-0.11188316 -0.39566231 0.5995506 0
0.21908569 -0.38883924 0.55967557 0
-0.54528332 -0.41757441 0.64382005 0
-0.46440983 -0.47842121 0.62566006 0
-0.26761341 -0.46994352 0.61645806 0
-0.1802845 -0.46218061 0.62091804 0
-0.64284515 -0.37769651 0.62083769 0
-0.55035305 -0.38523912 0.63868582 0
-0.50012112 -0.39173126 0.6322484 0
-0.19501591 -0.37611866 0.60570157 0
-0.56503582 -0.46094465 0.65802896 0
-0.35491371 -0.47671652 0.70295286 0
0.99102879 -0.28447676 -0.35027647 0
0.26763058 -0.48301411 -0.37548447 0
0.39686489 -0.49297619 -0.3622508 0
0.76608658 -0.46679354 -0.36179233 0
0.23134708 -0.41927195 -0.37404633 0
0.4346056 -0.4062562 -0.36632514 0
0.67311668 -0.37359524 -0.36018205 0
0.73025513 -0.40225697 -0.36124992 0
0.4761734 -0.28065062 -0.37208366 0
0.62071991 -0.25701189 -0.36035419 0
0.67574501 -0.29885626 -0.360744 0
0.4894619 -0.18206024 -0.37639523 0
0.68240166 -0.17404842 -0.36421895 0
0.94201183 -0.19518566 -0.35135508 0
0.48081207 -0.087750912 -0.38038254 0
0.6642828 -0.11163473 -0.36796689 0
0.88852692 -0.071794987 -0.35347033 0
0.43562889 -0.014281273 -0.38346982 0
0.66874981 0.011782646 -0.37542129 0
0.90305805 0.017669201 -0.35870886 0
0.46905708 0.066684723 -0.38670373 0
0.6492815 0.10618591 -0.38165355 0
0.86617565 0.11859274 -0.36413002 0
0.60951042 0.20892668 -0.38650918 0
0.67982292 0.18418837 -0.38501 0
0.84475803 0.2355051 -0.36967683 0
0.43353271 0.29329205 -0.38092661 0
0.60832691 0.26574516 -0.38925886 0
0.778862 0.30131102 -0.37346745 0
0.95190525 0.32883692 -0.35598207 0
0.68421841 0.43908119 -0.38187933 0
0.74819088 0.38119173 -0.37795544 0
0.94635105 0.43026972 -0.36166286 0
-0.0049085617 -0.4661684 -0.37840271 0
-0.021807671 -0.38970709 -0.37666512 0
0.19040871 -0.38168478 -0.37236643 0
-0.15467453 -0.2747221 -0.36868501 0
-0.044999123 -0.32256269 -0.37503791 0
0.14007282 -0.28755045 -0.37055707 0
-0.26672077 -0.14974499 -0.38184881 0
-0.10343552 -0.18628836 -0.37390852 0
0.13515759 -0.1804924 -0.37380481 0
-0.2510004 -0.059386253 -0.38364172 0
-0.1409626 -0.096161366 -0.37525225 0
0.03699398 -0.082242489 -0.37085724 0
0.14640236 -0.10456085 -0.37621498 0
-0.13494015 0.016717911 -0.37778711 0
-0.01332283 0.015491009 -0.36982322 0
-0.18101692 0.061632633 -0.37848711 0
-0.045969009 0.12178469 -0.37252998 0
0.23018265 0.1374917 -0.37475705 0
0.35981274 0.10155916 -0.38155913 0
-0.19542408 0.23603821 -0.3924253 0
-0.13400459 0.21217442 -0.38308454 0
-0.077219963 0.21493292 -0.37751818 0
0.050977707 0.21206522 -0.36742592 0
-0.2465601 0.33322859 -0.41085505 0
-0.18323231 0.314538 -0.40061212 0
-0.056583405 0.29357624 -0.38168335 0
0.060815811 0.3483119 -0.37698269 0
0.17666531 0.36008644 -0.36910677 0
0.30408001 0.34144449 -0.37361407 0
-0.2748909 0.39598417 -0.42238092 0
-0.14701843 0.42593336 -0.41265273 0
-0.058088303 0.4064517 -0.39852762 0
0.042118073 0.39423227 -0.38437128 0
0.21610737 0.42311192 -0.3751533 0
-0.26345634 0.49250078 -0.43331671 0
0.20585918 0.49828768 -0.385849 0
-0.46252823 -0.49102736 -0.35787511 0
-0.42317867 -0.41802645 -0.36090636 0
-0.37219143 -0.35628939 -0.36548495 0
-0.33504009 -0.28823233 -0.37125134 0
-0.28392696 -0.20368052 -0.37799978 0
-0.29684639 -0.08996439 -0.38249779 0
-0.32085133 0.019752502 -0.38501883 0
-0.29979897 0.11537075 -0.391886 0
-0.21143818 0.10554266 -0.38014913 0
-0.31983471 0.18110466 -0.39977622 0
-0.24608326 0.20684147 -0.39543462 0
-0.30195808 0.25937414 -0.4076283 0
0.11056232 -0.43242025 0.50799215 0
0.17911816 -0.39027119 0.51845026 0
-0.10173607 -0.44920778 0.56151617 0
0.11589813 -0.44645309 0.55055523 0
0.18760681 -0.41195583 0.57263279 0
-0.14648819 -0.27553797 0.56563485 0
-0.14063644 -0.4923315 0.62348688 0
-0.31140709 -0.46824694 0.60685635 0
-0.19359875 -0.42283487 0.61784852 0
-0.12388229 -0.42726374 0.5982039 0
-0.1960001 -0.34681749 0.59185576 0
-0.13586617 -0.3577733 0.58644736 0
-0.70328617 -0.41660786 0.63504839 0
-0.61839199 -0.43857241 0.65300882 0
-0.53057575 -0.42138433 0.6562593 0
-0.63395119 -0.33799362 0.65115249 0
-0.51280403 -0.36916876 0.63122952 0
-0.59798336 -0.24810266 0.64720023 0
-0.59521198 -0.49334812 0.70338535 0
-0.52328396 -0.43868589 0.7748059 0
-0.48713017 -0.38370562 0.81380761 0
-0.64655685 -0.30956841 0.6816839 0
-0.52858448 -0.43938875 0.81444025 0
0.59147835 -0.48286581 -0.35304022 0
0.98858929 -0.4595952 -0.34496975 0
0.55220222 -0.39495516 -0.35753059 0
0.83743572 -0.34200811 -0.34908748 0
0.93126392 -0.42049885 -0.34776115 0
0.51829624 -0.28811359 -0.36143923 0
0.75240517 -0.26817656 -0.35048795 0
0.68409348 -0.16579485 -0.35524511 0
0.65287399 -0.055109501 -0.36474514 0
0.94835186 -0.075749397 -0.34343052 0
0.86936855 0.035472393 -0.35296464 0
0.79759407 0.11919785 -0.36069226 0
0.78494167 0.19517803 -0.36626291 0
0.95577049 0.2384901 -0.34797573 0
0.94541836 0.32292223 -0.35458469 0
-0.0034646988 -0.44371176 -0.37131333 0
0.30319023 -0.49355936 -0.36307502 0
0.16473866 -0.35828209 -0.36437225 0
0.26183414 -0.40863085 -0.36570406 0
0.056062698 -0.2781024 -0.36329341 0
0.48639107 -0.2528224 -0.36469007 0
0.40233517 -0.1425705 -0.36953378 0
0.44609737 -0.19639683 -0.36764073 0
0.27913666 -0.040133476 -0.37300801 0
0.37640667 -0.064081192 -0.3723259 0
0.596982 0.0097498894 -0.37150764 0
0.59244537 0.10830164 -0.37983966 0
0.71973896 0.23929214 -0.37081146 0
0.65254116 0.3158145 -0.377949 0
0.8460331 0.35464716 -0.35949588 0
0.74711418 0.4573245 -0.37021208 0
0.81319523 0.41976213 -0.36545444 0
-0.52245617 -0.37309933 -0.35904503 0
-0.27764034 -0.34102678 -0.35635853 0
-0.52117062 -0.32115746 -0.36421514 0
-0.49601364 -0.26275635 -0.368999 0
-0.30616856 -0.2834363 -0.36313033 0
-0.30227566 -0.32878542 -0.3585434 0
-0.48356247 -0.17764997 -0.37676048 0
-0.26681042 -0.1895709 -0.37070346 0
-0.044980049 -0.16835117 -0.36405993 0
-0.48280621 -0.086912632 -0.38450456 0
-0.32928085 -0.03972435 -0.37830257 0
-0.28496361 -0.099217415 -0.37607145 0
-0.12605858 -0.079654694 -0.36757588 0
-0.47408867 -0.003557682 -0.39119911 0
-0.38412857 0.029109955 -0.38313413 0
-0.24417782 0.035367012 -0.37268925 0
-0.17411232 -0.016819 -0.3702426 0
-0.022491455 0.0060143471 -0.3613317 0
-0.47058773 0.11306 -0.40556383 0
-0.3773613 0.12255669 -0.39331794 0
-0.26882553 0.12185955 -0.37955928 0
-0.14502335 0.11296749 -0.36700606 0
-0.027082443 0.076303005 -0.36458611 0
0.0024623871 0.13736486 -0.35816145 0
-0.47034168 0.21149063 -0.41975307 0
-0.38879013 0.21338081 -0.4051578 0
-0.28499889 0.21574783 -0.39202738 0
-0.16178989 0.22079277 -0.37766361 0
-0.031672478 0.21926498 -0.36339235 0
-0.46272087 0.31963778 -0.43580484 0
-0.39671516 0.32321644 -0.41964364 0
-0.28794575 0.33322382 -0.40717959 0
-0.15863037 0.32868528 -0.39116383 0
-0.051678658 0.32638931 -0.37667513 0
0.094333649 0.32753181 -0.35998869 0
-0.50862789 0.42567253 -0.44748831 0
-0.44692612 0.3892951 -0.43786836 0
-0.39707184 0.45055056 -0.43531823 0
-0.26843166 0.43723345 -0.4180994 0
-0.19430637 0.39305162 -0.40230775 0
-0.053442001 0.43909168 -0.39314938 0
0.12522984 0.4214468 -0.37039447 0
-0.58218765 -0.46533394 -0.35203576 0
-0.54657364 -0.38865519 -0.35846758 0
-0.48749256 0.033983231 -0.39621067 0
-0.53031349 0.46306467 -0.44947004 0
0.09054184 -0.49684334 0.55083334 0
0.1731205 -0.49511957 0.53190994 0
-0.067694664 -0.41489315 0.55770254 0
0.09003067 -0.41678476 0.49941278 0
0.17299938 -0.38786793 0.55329883 0
-0.32878971 -0.45829153 0.61115658 0
-0.13937473 -0.4552865 0.61178136 0
-0.20725632 -0.34364748 0.60634696 0
-0.15283394 -0.37225246 0.59211111 0
-0.54570961 -0.45018482 0.65320969 0
-0.43991375 -0.48050022 0.64781725 0
-0.20965195 -0.4186945 0.63729668 0
-0.65267944 -0.35074043 0.63330936 0
-0.53135777 -0.36192465 0.64248657 0
-0.60002708 -0.23501825 0.63663471 0
-0.66766644 -0.45797586 0.66486299 0
-0.58204174 -0.45711327 0.69843829 0
-0.50979042 -0.42912245 0.77395129 0
-0.65980053 -0.35550213 0.66553259 0
-0.63102818 -0.27351046 0.66984773 0
-0.59664345 -0.26878214 0.64997649 0
-0.55187225 -0.48468733 0.79907215 0
-0.5093708 -0.41065311 0.7960192 0
-0.49169636 -0.37721014 0.79917824 0
0.88525295 -0.33413363 -0.34414077 0
0.19347 -0.45364094 -0.36283517 0
0.60756779 -0.45251417 -0.35085273 0
0.44293499 -0.3380003 -0.35771203 0
0.56040955 -0.37135124 -0.35556507 0
0.30263233 -0.27531719 -0.35939956 0
0.65785313 -0.17162275 -0.35341167 0
0.7513237 -0.21783257 -0.34845948 0
0.61437511 -0.082562923 -0.36269236 0
0.82888031 -0.068189144 -0.34532285 0
0.94102859 -0.10182238 -0.34055018 0
0.53614426 -0.0058803558 -0.37218881 0
0.77364826 0.041823864 -0.35739851 0
0.69805813 0.12170172 -0.36697125 0
0.65146637 0.19294691 -0.37407422 0
0.94185257 0.20123577 -0.34755969 0
0.71440411 0.36616516 -0.36909008 0
0.81404495 0.32344294 -0.36210155 0
0.89525032 0.27662134 -0.35546398 0
0.91295147 0.43446112 -0.34986806 0
0.091760635 -0.34983778 -0.36361575 0
-0.21682167 -0.23125029 -0.36176753 0
-0.17907906 -0.26297188 -0.357548 0
-0.2604208 -0.1835351 -0.36740017 0
0.22109413 -0.17704201 -0.36244631 0
-0.15322208 -0.061059475 -0.36360526 0
-0.017995834 -0.11215973 -0.35965872 0
-0.031682968 0.052789688 -0.35821915 0
0.18635273 0.38793612 -0.35937071 0
-0.84309006 -0.49407721 -0.40179157 0
-0.76113415 -0.47948456 -0.38372922 0
-0.67314529 -0.47023678 -0.36165357 0
-0.51889229 -0.47416258 -0.34583759 0
-0.82718563 -0.3903904 -0.41137123 0
-0.77454281 -0.39591742 -0.39911318 0
-0.68973351 -0.38761711 -0.3780477 0
-0.61473465 -0.33819103 -0.36992049 0
-0.49381065 -0.38445616 -0.35349846 0
-0.81327438 -0.30949783 -0.41957784 0
-0.76334953 -0.278584 -0.41479802 0
-0.67994404 -0.28161907 -0.39201045 0
-0.60614014 -0.26793242 -0.37768698 0
-0.50208569 -0.27174997 -0.3643887 0
-0.77655983 -0.19306612 -0.43368125 0
-0.67582989 -0.17832279 -0.41089392 0
-0.57136631 -0.16545534 -0.38270187 0
-0.50123501 -0.1872344 -0.37217927 0
-0.74977684 -0.10841656 -0.44541717 0
-0.65435791 -0.080566406 -0.42481923 0
-0.56526661 -0.082361698 -0.39975071 0
-0.50362206 -0.071076393 -0.38509107 0
-0.32778168 -0.035651684 -0.37605572 0
-0.30504417 -0.098078728 -0.37276578 0
-0.7277956 -0.023055553 -0.45766497 0
-0.65857983 0.014308453 -0.44159865 0
-0.54334831 0.029777527 -0.40994334 0
-0.47291565 0.012945175 -0.39151144 0
-0.38517189 0.023306847 -0.38097477 0
-0.26558399 0.042201519 -0.3704505 0
-0.71916008 0.11226273 -0.47753406 0
-0.65651608 0.10575247 -0.45534134 0
-0.57077312 0.11357594 -0.42962456 0
-0.45901203 0.12988853 -0.40576863 0
-0.40677452 0.16502857 -0.40038323 0
-0.29065037 0.13129711 -0.38062835 0
-0.15927124 0.15629101 -0.36681509 0
-0.082968712 0.12342548 -0.36303854 0
-0.75514889 0.23128223 -0.49187541 0
-0.66055393 0.22285366 -0.47780848 0
-0.56059265 0.22076082 -0.45072579 0
-0.47832966 0.21846247 -0.41976833 0
-0.36642551 0.23615074 -0.40321755 0
-0.29803276 0.2227459 -0.39310598 0
-0.15638065 0.22229481 -0.3753686 0
-0.031097412 0.26652431 -0.36464286 0
0.0063142776 0.229877 -0.35885334 0
-0.82996368 0.32738209 -0.49264836 0
-0.76118946 0.31646919 -0.48438549 0
-0.68240738 0.30772161 -0.47606897 0
-0.58168221 0.30708933 -0.46193933 0
-0.47088718 0.31074953 -0.43576741 0
-0.36366653 0.31601095 -0.40979195 0
-0.17362022 0.31395626 -0.38876867 0
-0.035440445 0.3464613 -0.37587237 0
-0.96328926 0.42567825 -0.50223684 0
-0.8803091 0.39876604 -0.48960805 0
-0.75442219 0.41826534 -0.4762423 0
-0.66288567 0.40600967 -0.46268082 0
-0.54704475 0.41208696 -0.44976926 0
-0.46050835 0.40014505 -0.43848205 0
-0.3483057 0.42247915 -0.42365193 0
-0.19377327 0.42345142 -0.40572309 0
-0.054961205 0.42807102 -0.38958573 0
0.15582848 0.43780565 -0.36721921 0
-0.86385918 0.48700762 -0.48198724 0
-0.67126942 0.49980068 -0.45614147 0
0.10765362 -0.44614077 0.53734601 0
0.2587738 -0.34900188 0.56099844 0
-0.12549496 -0.46601534 0.60949874 0
-0.070853233 -0.43515539 0.58437991 0
0.18963337 -0.45379734 0.59187531 0
-0.12829781 -0.35828924 0.58904135 0
0.21203232 -0.38350439 0.58217859 0
-0.1450882 -0.27283096 0.57966208 0
-0.41883373 -0.46857977 0.64632273 0
-0.2320652 -0.44676924 0.63401031 0
-0.17413902 -0.45308685 0.63004494 0
-0.18642044 -0.36897135 0.61024785 0
-0.71941662 -0.4434371 0.64687073 0
-0.65729332 -0.48019838 0.67126393 0
-0.56381321 -0.44221067 0.67726827 0
-0.63442612 -0.33800793 0.66265976 0
-0.53943253 -0.3759346 0.64551032 0
-0.61941528 -0.27392817 0.65729606 0
-0.5934515 -0.24115515 0.66951537 0
-0.53969002 -0.44963741 0.79247653 0
-0.52149296 -0.42442513 0.78714108 0
0.93498135 -0.4721694 -0.34473968 0
0.27406502 -0.41876459 -0.36215758 0
0.34882355 -0.47048092 -0.35804892 0
0.77383614 -0.37234831 -0.34964919 0
0.53748608 -0.28392649 -0.35495353 0
0.52528 -0.20714664 -0.36231804 0
0.94006062 -0.20771503 -0.34071589 0
0.75949001 -0.073428631 -0.35255742 0
0.67132092 0.020693302 -0.36488438 0
0.88048935 0.14004326 -0.35257101 0
-0.0386343 -0.12906933 -0.35879755 0
0.77596855 0.19171762 -0.36075735 0
0.89553356 0.36462212 -0.35473967 0
0.79117012 0.41821671 -0.36391044 0
-0.94276237 -0.47128582 -0.43182874 0
-0.86410332 -0.46428967 -0.40966678 0
-0.74487019 -0.4766407 -0.38038206 0
-0.67253304 -0.45947838 -0.36442685 0
-0.53661442 -0.44259262 -0.34902453 0
-0.94584656 -0.37480164 -0.44495201 0
-0.85306263 -0.36648321 -0.42027974 0
-0.80836201 -0.40847826 -0.40528512 0
-0.69061661 -0.38020372 -0.38030434 0
-0.55309582 -0.35818958 -0.35737777 0
-0.96440029 -0.28054428 -0.47125578 0
-0.86153126 -0.26827955 -0.44241643 0
-0.77759838 -0.27352095 -0.4201932 0
-0.67681599 -0.27102041 -0.39668489 0
-0.56998825 -0.25627136 -0.36930442 0
-0.26019287 -0.25735331 -0.36022019 0
-0.95041752 -0.17625046 -0.49016809 0
-0.86044216 -0.17801714 -0.46657276 0
-0.78430271 -0.15976143 -0.44490504 0
-0.67784977 -0.18593884 -0.40819764 0
-0.5685091 -0.14819574 -0.38817239 0
-0.30128002 -0.15113783 -0.37101007 0
-0.9394455 -0.070960999 -0.50844669 0
-0.85583973 -0.081546307 -0.48436069 0
-0.75585842 -0.074439526 -0.4549377 0
-0.66124153 -0.074026108 -0.42953587 0
-0.59101009 -0.06559515 -0.40822363 0
-0.49027729 -0.047298908 -0.38966155 0
-0.40560436 -0.10791969 -0.37651587 0
-0.13659573 -0.077893734 -0.36329079 0
-0.9171896 0.021868706 -0.52554011 0
-0.85828876 0.022742748 -0.50629807 0
-0.77151489 0.025978088 -0.48181725 0
-0.66602135 0.031497955 -0.45122743 0
-0.58095169 0.033490658 -0.42291594 0
-0.46811676 0.060567856 -0.3981185 0
-0.28942776 0.040820599 -0.37285852 0
-0.19798088 -0.0056219101 -0.36859775 0
-0.022986412 0.073618412 -0.35888529 0
-0.96091175 0.10316181 -0.5302465 0
-0.86597252 0.13765097 -0.51734519 0
-0.76370811 0.11441135 -0.49460506 0
-0.67780113 0.11385727 -0.46596551 0
-0.5515852 0.14724779 -0.43348765 0
-0.48383808 0.1393013 -0.40769649 0
-0.34161377 0.16836596 -0.39095592 0
-0.31821251 0.11331463 -0.38212824 0
-0.15555859 0.14493513 -0.36700225 0
-0.96408653 0.21244001 -0.52713776 0
-0.87597275 0.22559357 -0.51010537 0
-0.77436066 0.21731329 -0.49819851 0
-0.67502785 0.21758318 -0.47949386 0
-0.5590744 0.23727608 -0.45021248 0
-0.47098446 0.22734451 -0.42094827 0
-0.34575653 0.24444199 -0.40155959 0
-0.18806839 0.24829149 -0.38155818 0
0.044179916 0.23295641 -0.35635424 0
-0.96415997 0.30185699 -0.51587296 0
-0.87212372 0.32106352 -0.50194502 0
-0.757967 0.31869793 -0.48540783 0
-0.6435318 0.33158064 -0.47184944 0
-0.57261276 0.31802225 -0.46250415 0
-0.47817707 0.32673597 -0.44261146 0
-0.37920666 0.32566071 -0.41493797 0
-0.23455143 0.35622406 -0.39958835 0
-0.21933651 0.30632782 -0.39160275 0
-0.05865097 0.33570385 -0.37438917 0
0.0076599121 0.29443026 -0.36402011 0
-0.97060299 0.41231728 -0.51089478 0
-0.88532639 0.42079401 -0.49389911 0
-0.79377747 0.41772461 -0.47988415 0
-0.66725731 0.40301228 -0.46817684 0
-0.555933 0.44552231 -0.45239115 0
-0.46687317 0.43433094 -0.44203448 0
-0.38641453 0.42180395 -0.42934012 0
-0.24537086 0.45857096 -0.4157989 0
-0.22220421 0.41539097 -0.40723848 0
-0.046959877 0.42961359 -0.38794065 0
0.1923542 0.41268635 -0.36243224 0
-0.64621544 0.48514986 -0.45743561 0
-0.5483408 0.48889732 -0.44126606 0
-0.2571516 0.49946404 -0.42316771 0
-0.027293205 0.49744272 -0.39707041 0
0.20864296 0.49182034 -0.3711307 0
-0.93474388 0.46101475 -0.49868536 0
-0.89757538 0.44965124 -0.48408413 0
-0.79474449 0.47660637 -0.47184157 0
0.086882591 -0.43832827 0.51460636 0
0.22995377 -0.36152077 0.53400528 0
-0.11515617 -0.47855043 0.59057856 0
-0.10193157 -0.41475725 0.58065462 0
-0.038265228 -0.40343237 0.56021714 0
0.16633701 -0.43004942 0.57299256 0
0.19739056 -0.36269426 0.55960238 0
-0.46080208 -0.46683455 0.64403903 0
-0.22024918 -0.41975164 0.6284765 0
-0.1329813 -0.4057641 0.61454642 0
-0.14485264 -0.32168484 0.58843231 0
-0.55700302 -0.49564552 0.72176099 0
-0.65433979 -0.37971783 0.64800572 0
-0.55166817 -0.40740061 0.65801024 0
-0.62678051 -0.31768847 0.66017234 0
-0.61174965 -0.24941301 0.67024446 0
-0.53355503 -0.44189405 0.77629292 0
-0.51946068 -0.41942072 0.8056252 0
-0.52939224 -0.39806318 0.82895064 0
0.75993729 -0.49534464 -0.35215092 0
0.95733738 -0.29046631 -0.34657121 0
0.63162994 -0.15684843 -0.36014748 0
0.93703365 -0.036970615 -0.3450551 0
0.83580112 0.016416073 -0.35465479 0
0.98434544 0.22377062 -0.34619451 0
0.86848831 0.30699635 -0.35943103 0
-0.98893642 -0.45948696 -0.44511986 0
-0.87930965 -0.45202684 -0.42080736 0
-0.77588177 -0.46837616 -0.38853788 0
-0.69565487 -0.45687962 -0.37172365 0
-0.98337173 -0.38577652 -0.45437717 0
-0.88882065 -0.38792992 -0.42857981 0
-0.8132143 -0.38727093 -0.40987325 0
-0.70605278 -0.34681463 -0.39425945 0
-0.61225891 -0.3628664 -0.36962342 0
-0.96266365 -0.26450253 -0.47356701 0
-0.87583828 -0.28958321 -0.44408607 0
-0.78870296 -0.27709293 -0.4221139 0
-0.71188831 -0.27538729 -0.4035573 0
-0.61074638 -0.26282263 -0.38219094 0
-0.29375267 -0.23973751 -0.36668348 0
-0.20795059 -0.30553341 -0.35822535 0
-0.98163128 -0.18648148 -0.49336267 0
-0.8649292 -0.18232012 -0.46599126 0
-0.78288937 -0.16366529 -0.44472599 0
-0.68878078 -0.16524792 -0.41734672 0
-0.60207844 -0.15204096 -0.39648199 0
-0.41097164 -0.11230135 -0.38132215 0
-0.33250618 -0.1376195 -0.37673926 0
-0.93787193 -0.11585808 -0.50164223 0
-0.88987541 -0.074272633 -0.49656916 0
-0.79640484 -0.079192162 -0.46392417 0
-0.67939568 -0.069262505 -0.43712282 0
-0.59878254 -0.079428196 -0.40753508 0
-0.51500893 -0.038962841 -0.39037657 0
-0.88796711 0.01736927 -0.51346898 0
-0.7829504 0.03692627 -0.48652458 0
-0.69015598 0.035158157 -0.45953703 0
-0.60436726 0.034941673 -0.43272281 0
-0.5141573 0.052165031 -0.40394187 0
-0.31267738 0.054944515 -0.38016868 0
-0.13271713 -0.0022621155 -0.37134647 0
-0.98010921 0.13071871 -0.53516412 0
-0.87251949 0.1152153 -0.5234127 0
-0.75861931 0.12562609 -0.49392843 0
-0.73753548 0.13434362 -0.4839108 0
-0.61261845 0.14668322 -0.45571756 0
-0.49328899 0.15332031 -0.41844034 0
-0.36909485 0.18012285 -0.39917755 0
-0.32836533 0.14229107 -0.39134455 0
-0.1256752 0.16840792 -0.37145472 0
-0.0060892105 0.10477972 -0.36374807 0
-0.90031528 0.22917938 -0.51701403 0
-0.79662991 0.22564459 -0.50171423 0
-0.67080498 0.22106075 -0.48323059 0
-0.56696415 0.19800425 -0.44906116 0
-0.49880981 0.24130201 -0.43342471 0
-0.40015984 0.24371767 -0.41010785 0
-0.20378399 0.25131655 -0.38731003 0
-0.98601437 0.30604124 -0.52717662 0
-0.84334087 0.31392193 -0.50391316 0
-0.7699976 0.33524275 -0.49086952 0
-0.71340084 0.33226585 -0.48165178 0
-0.60981846 0.33854437 -0.46605682 0
-0.51163769 0.31648922 -0.45303345 0
-0.42161179 0.33713007 -0.42543626 0
-0.23076439 0.35792542 -0.40431786 0
0.035067558 0.35516071 -0.37180376 0
-0.52679634 0.43275213 -0.44399571 0
-0.41075611 0.41466045 -0.43798614 0
-0.28442478 0.40937805 -0.41575742 0
-0.0074691772 0.4565258 -0.39091945 0
-0.82811356 0.36949062 -0.49473691 0
-0.90941811 0.42876005 -0.50142598 0
-0.79263592 0.45166349 -0.48053718 0
-0.71373177 0.46057272 -0.46881604 0
-0.59620476 0.45592403 -0.45663857 0
0.11958122 -0.42172575 0.52688885 0
-0.16255283 -0.40651226 0.5815475 0
-0.099103928 -0.4375453 0.57811487 0
0.16940022 -0.4610672 0.5795747 0
0.18917084 -0.37949419 0.56587625 0
-0.10863209 -0.3097105 0.56865823 0
-0.14933109 -0.49568939 0.62574744 0
-0.2591362 -0.41097212 0.63935208 0
-0.17839813 -0.390203 0.61763334 0
-0.13037586 -0.4433012 0.62072909 0
-0.18613338 -0.30925465 0.58822858 0
-0.6099968 -0.49231386 0.66901755 0
-0.68650246 -0.38593817 0.64111078 0
-0.61814785 -0.40419626 0.6625843 0
-0.54020119 -0.43617964 0.69154263 0
-0.66243076 -0.35508156 0.61913157 0
-0.631464 -0.30403614 0.65256286 0
-0.59426975 -0.2310009 0.65149438 0
-0.54669476 -0.47298193 0.78728032 0
-0.52913952 -0.41775608 0.7839582 0
-0.61412811 -0.28734636 0.69144034 0
0.85573006 0.063633442 -0.35724306 0
0.97273827 0.036390781 -0.35190415 0
0.97169685 0.46685696 -0.35652208 0
-0.2209692 -0.23027897 -0.37061167 0
-0.18140316 -0.18052197 -0.37439775 0
-0.097352982 0.45482492 -0.40668392 0
-0.90156174 -0.46416903 -0.42839122 0
-0.80817223 -0.46611929 -0.40497017 0
-0.70084572 -0.45955706 -0.38104653 0
-0.58365726 -0.47607517 -0.35589981 0
-0.97814655 -0.39224815 -0.45559549 0
-0.88141441 -0.37323093 -0.43357062 0
-0.76377869 -0.35626411 -0.410882 0
-0.67284679 -0.37467432 -0.38560677 0
-0.45548534 -0.40858936 -0.35903597 0
-0.37672997 -0.36047268 -0.36205745 0
-0.90715218 -0.26708889 -0.46422052 0
-0.78903675 -0.27434158 -0.42821383 0
-0.64497852 -0.28850508 -0.39104033 0
-0.63265896 -0.22722816 -0.39550805 0
-0.26686668 -0.27756596 -0.36714053 0
-0.8920145 -0.18758535 -0.47192073 0
-0.7784462 -0.17392969 -0.44784951 0
-0.71552944 -0.19420099 -0.4224453 0
-0.63600349 -0.18908644 -0.39884567 0
-0.22636127 -0.11947489 -0.37874699 0
-0.84278107 -0.096972942 -0.48006153 0
-0.77470398 -0.12693357 -0.45288539 0
-0.66805077 -0.069470882 -0.43898296 0
-0.57579708 -0.099759579 -0.4052124 0
-0.3470192 -0.077482224 -0.38279796 0
-0.79372501 0.021458626 -0.49143767 0
-0.66280365 0.022964001 -0.45400667 0
-0.54943752 0.011455059 -0.41557837 0
-0.4892683 -0.0012731552 -0.40186119 0
-0.40615463 -0.0050320625 -0.38817382 0
-0.76506805 0.1155405 -0.50096226 0
-0.68023777 0.10718918 -0.46971512 0
-0.58924389 0.16587257 -0.45640707 0
-0.51066685 0.12119579 -0.42593551 0
-0.40370083 0.10874033 -0.39993429 0
-0.15391636 0.18063259 -0.37620878 0
-0.10720825 0.11986351 -0.36966681 0
-0.86976242 0.23849297 -0.5113647 0
-0.77668285 0.18737745 -0.50786138 0
-0.69180679 0.22439909 -0.48853469 0
-0.59000874 0.22864151 -0.46425128 0
-0.510396 0.22804928 -0.43866301 0
-0.39069557 0.21422482 -0.41108108 0
-0.15131283 0.23062468 -0.38170195 0
-0.9673605 0.33774185 -0.51908302 0
-0.90231991 0.31782389 -0.50699377 0
-0.78581619 0.31292391 -0.49565053 0
-0.65607357 0.35031509 -0.47679782 0
-0.58124638 0.30944777 -0.47280335 0
-0.47422504 0.31501341 -0.44765615 0
-0.38223076 0.31781197 -0.42275953 0
-0.14509773 0.34575224 -0.39485788 0
-0.13093281 0.30742931 -0.38956809 0
-0.80167675 0.44476604 -0.48620605 0
-0.72237778 0.38008165 -0.48004365 0
-0.59702969 0.4193182 -0.46078992 0
-0.49055386 0.41409016 -0.44846678 0
-0.40624428 0.41286755 -0.43490005 0
-0.68682289 0.4889822 -0.46824813 0
-0.93611336 0.39171982 -0.50336313 0
0.12695026 -0.47605944 0.54781866 0
0.17359066 -0.49170399 0.52813339 0
0.12388706 -0.40417671 0.50425935 0
0.17581272 -0.39531565 0.54609406 0
-0.10255241 -0.45634031 0.57584214 0
-0.13230038 -0.36707306 0.56823277 0
-0.15660954 -0.31080914 0.55879068 0
-0.14786434 -0.2810564 0.58127809 0
-0.30129147 -0.47484159 0.61974657 0
-0.16814709 -0.44854546 0.60579395 0
-0.15396786 -0.49844933 0.61228716 0
-0.19208241 -0.37421513 0.60515082 0
-0.56257343 -0.4739809 0.66421223 0
-0.48492146 -0.47491312 0.67394984 0
-0.64374733 -0.35465097 0.63807678 0
-0.54294014 -0.37407303 0.64036882 0
-0.61782932 -0.2696538 0.65072715 0
-0.56284046 -0.47618341 0.75596189 0
-0.65312386 -0.34983778 0.6773833 0
-0.50948143 -0.40431738 0.79254055 0
-0.64892578 -0.30727816 0.67942834 0
0.84061432 -0.18301058 -0.35049558 0
-0.027424812 0.45821476 -0.39847541 0
-0.83205318 -0.058160305 -0.48510551 0
-0.52319431 -0.02750349 -0.40260744 0
-0.086615562 -0.06747961 -0.36745787 0
-0.81876373 0.0014605522 -0.4885056 0
-0.69835186 0.018406391 -0.46129274 0
-0.604002 0.0581007 -0.43546343 0
-0.50015831 0.040905476 -0.40567899 0
-0.26249313 0.073376179 -0.37651205 0
-0.17828178 0.034979343 -0.37351131 0
-0.76245785 0.11588097 -0.49539256 0
-0.67799473 0.1494751 -0.4696238 0
-0.58509827 0.14138746 -0.44940758 0
-0.48714924 0.10985518 -0.40929317 0
-0.22493172 0.13641405 -0.37942314 0
-0.8230772 0.22116709 -0.50112224 0
-0.62424469 0.24647045 -0.47558403 0
-0.50269985 0.23619652 -0.4365797 0
-0.4231081 0.18915844 -0.41332269 0
-0.16967487 0.210495 -0.38307381 0
-0.13304996 0.27508068 -0.38665223 0
-0.75417137 0.35774231 -0.48263669 0
-0.69871616 0.31194687 -0.47978544 0
-0.52240753 0.31414127 -0.45229745 0
-0.37962341 0.3147974 -0.42167306 0
-0.10107708 0.35753107 -0.3920424 0
-0.58579826 0.40194082 -0.45846033 0
-0.33425903 0.43420982 -0.43050647 0
-0.8902092 -0.48945665 -0.42094851 0
-0.757617 -0.46203089 -0.39421463 0
-0.65905857 -0.45566845 -0.3661499 0
-0.97124767 -0.39401293 -0.4556942 0
-0.88899994 -0.3832202 -0.4339478 0
-0.82364082 -0.36756754 -0.42107177 0
-0.70942688 -0.37418127 -0.3942337 0
-0.61513424 -0.3879118 -0.36620927 0
-0.45946026 -0.36488533 -0.36370039 0
-0.97078991 -0.29403591 -0.47506785 0
-0.87248707 -0.28398943 -0.44895077 0
-0.78869629 -0.30121708 -0.42206597 0
-0.67050648 -0.27601147 -0.39502406 0
-0.94071579 -0.22595263 -0.47724104 0
-0.89848995 -0.1730566 -0.47940564 0
-0.80436134 -0.18877935 -0.45188332 0
-0.70669746 -0.19082069 -0.42497468 0
-0.59800339 -0.16152143 -0.39797211 0
-0.85933304 -0.11941957 -0.48185015 0
-0.74500751 -0.096413136 -0.45560098 0
-0.65318584 -0.10147476 -0.42796397 0
-0.59797478 -0.06663084 -0.41532135 0
-0.63930988 -0.0058951378 -0.43227386 0
-0.91363907 0.31584454 -0.50565934 0
-0.98766422 0.39927053 -0.51123834 0
-0.86205101 0.44689894 -0.48879337 0
-0.79559994 0.41172743 -0.48600388 0
-0.91770267 0.47870111 -0.49169707 0
-0.70633221 0.49151802 -0.46587992 0
0.16814804 -0.47813892 0.57337821 0
-0.068024635 -0.45252991 0.54804766 0
0.14206505 -0.40756655 0.52830005 0
-0.19438457 -0.4110899 0.60080886 0
-0.12335777 -0.43148756 0.58024549 0
-0.22214794 -0.35765076 0.60099351 0
-0.1480484 -0.28767109 0.57794416 0
-0.55337143 -0.38844967 0.63276577 0
-0.27083588 -0.42968798 0.62891316 0
-0.71478271 -0.4332118 0.64625502 0
-0.64521599 -0.42534971 0.64601159 0
-0.55529499 -0.42544746 0.65534341 0
-0.664258 -0.34628773 0.66844702 0
-0.61566162 -0.27107954 0.63601601 0
-0.59488106 -0.24303436 0.66033542 0
-0.54402447 -0.44922495 0.78236508 0
-0.20108318 0.20475674 -0.38704681 0
-0.14726067 0.26556873 -0.38774848 0
-0.3535614 0.38877296 -0.42988205 0
-0.058636665 0.35274887 -0.38912296 0
-0.29423237 0.45276785 -0.43173528 0
0.0099964142 0.41405201 -0.38966584 0
-0.69312954 -0.36299515 -0.39163327 0
-0.98755836 -0.27719641 -0.48755431 0
-0.8661356 -0.27248764 -0.45013809 0
-0.7575388 -0.28781891 -0.42198277 0
-0.73104191 -0.24320841 -0.42104173 0
-0.60571671 -0.23751211 -0.38906097 0
-0.96583843 -0.183393 -0.50442052 0
-0.90278721 -0.17444563 -0.48828411 0
-0.77659893 -0.16621208 -0.45020366 0
-0.69900894 -0.18813086 -0.41976905 0
-0.54040432 -0.14828968 -0.38832116 0
-0.99654579 -0.10959387 -0.53063083 0
-0.88490677 -0.066843987 -0.50636935 0
-0.80810165 -0.076142788 -0.48098421 0
-0.7087822 -0.065318584 -0.45074797 0
-0.587533 -0.055840969 -0.42048645 0
-0.44271088 -0.065300465 -0.38732052 0
-0.93217564 -0.010295391 -0.53337598 0
-0.81185341 0.027932644 -0.50001621 0
-0.66403389 0.015487671 -0.45190525 0
-0.65343857 0.059490204 -0.4525466 0
-0.54882812 0.045040131 -0.42111135 0
-0.40808678 -0.0033245087 -0.38588858 0
-0.31198406 0.080411434 -0.38670897 0
-0.93534851 0.070258141 -0.53481269 0
-0.81869984 0.13277912 -0.51146245 0
-0.71867275 0.10472775 -0.48486304 0
-0.60314751 0.13505459 -0.45456243 0
-0.50531387 0.12924242 -0.42257595 0
-0.24921894 0.14700079 -0.38686013 0
-0.90680504 0.22880316 -0.51337314 0
-0.68941593 0.21947575 -0.48852301 0
-0.56727791 0.21637011 -0.45693159 0
-0.46883774 0.19392109 -0.42409062 0
-0.43568802 0.25672293 -0.42578006 0
-0.99247646 0.31055069 -0.51589489 0
-0.79924488 0.30896759 -0.49145818 0
-0.58892632 0.36617422 -0.46286368 0
-0.55366516 0.3009944 -0.45989013 0
-0.42651939 0.30872822 -0.42724466 0
-0.92674541 0.42168522 -0.49642038 0
-0.8685894 0.3839221 -0.49450397 0
-0.69455242 0.46114874 -0.4679935 0
-0.65782738 0.4077692 -0.46511769 0
-0.76173973 0.49989653 -0.47053313 0
-0.884305 -0.45981884 -0.42567158 0
-0.63852024 -0.44761086 -0.36416578 0
-0.97479916 -0.40792322 -0.45210505 0
-0.89974594 -0.38082266 -0.43673086 0
-0.81967258 -0.35575294 -0.42212892 0
-0.7146244 -0.37589884 -0.39114046 0
0.11575317 -0.431952 0.50380242 0
0.13006401 -0.44493008 0.54996419 0
0.22076035 -0.44516802 0.60404563 0
-0.2402668 -0.49635267 0.63813543 0
-0.18721581 -0.43016577 0.59694564 0
-0.15450191 -0.47992086 0.61812544 0
-0.15092945 -0.34972525 0.58070183 0
-0.56833935 -0.45714521 0.6531359 0
-0.64473343 -0.36285353 0.63456607 0
-0.59325504 -0.28823566 0.63992751 0
-0.67386913 -0.41763973 0.65633976 0
-0.53034401 -0.48174524 0.76827741 0
-0.51688576 -0.43530035 0.78063202 0
-0.65828896 -0.35634947 0.67823291 0
-0.53595734 -0.44381952 0.81091845 0
-0.93548203 -0.13880205 -0.50338078 0
-0.93913364 -0.044505596 -0.52262211 0
-0.83775997 -0.042953014 -0.49315548 0
-0.77080917 -0.018298626 -0.47927475 0
-0.96728516 0.046699524 -0.54201102 0
-0.86742401 0.029439926 -0.51197505 0
-0.73922825 0.067550182 -0.4837389 0
-0.65440464 0.028391361 -0.45234275 0
-0.22094536 0.1217165 -0.37701392 0
-0.13950157 0.059744358 -0.37034678 0
-0.85315037 0.12249231 -0.51735234 0
-0.72877407 0.17026758 -0.49001884 0
-0.60099792 0.15159845 -0.45862174 0
-0.15618134 0.20478249 -0.37987137 0
-0.9298048 0.20714617 -0.52278304 0
-0.77597332 0.26208782 -0.49655056 0
-0.59846115 0.25142193 -0.46494985 0
-0.46239185 0.26441526 -0.42868161 0
-0.15803337 0.242661 -0.38128376 0
-0.67848969 0.33707666 -0.47259259 0
-0.4148531 0.36600542 -0.43444562 0
-0.067354202 0.3423028 -0.38539672 0
-0.0094881058 0.40983009 -0.38742518 0
-0.435215 0.43133593 -0.4398849 0
0.04414463 0.47254801 -0.38943911 0
-0.95680046 -0.46553802 -0.43732643 0
-0.81246758 -0.42298412 -0.40331531 0
-0.78809166 -0.44136047 -0.40388989 0
-0.64014053 -0.42307997 -0.36724997 0
-0.9493084 -0.35767794 -0.45810437 0
-0.88786221 -0.33589649 -0.43993735 0
-0.75076389 -0.3347559 -0.40532207 0
-0.58467674 -0.31511116 -0.36871624 0
-0.93425465 -0.26624346 -0.46959734 0
-0.82500076 -0.25192356 -0.44207454 0
-0.69089699 -0.23849964 -0.40779877 0
-0.86685944 -0.16001749 -0.47325349 0
-0.7710638 -0.15867186 -0.44478083 0
-0.62410927 -0.15954971 -0.41032028 0
-0.60703278 -0.11546898 -0.41131973 0
-0.69076824 -0.05256176 -0.44864297 0
-0.56824684 -0.037261009 -0.41395831 0
-0.53939056 0.073081017 -0.4188199 0
-0.51091576 0.1604023 -0.42316198 0
-0.99540997 0.24442434 -0.52588534 0
-0.88675213 0.29637003 -0.50054193 0
-0.94086552 0.34562111 -0.50481248 0
-0.78397655 0.37294292 -0.47746062 0
-0.95919132 0.41176414 -0.50986052 0
-0.86164761 0.46026754 -0.48579597 0
-0.5375185 0.47236395 -0.44598675 0
0.13755512 -0.44202375 0.50808191 0
0.13962841 -0.40557957 0.51364911 0
-0.071310997 -0.45490885 0.58076835 0
0.17005157 -0.4735961 0.56253815 0
0.18920612 -0.39434004 0.56335378 0
-0.45986176 -0.48895741 0.62816274 0
-0.22033596 -0.47026157 0.62873685 0
-0.13025951 -0.4501071 0.60481095 0
-0.21771145 -0.36412144 0.61070478 0
-0.15824509 -0.37498331 0.59361255 0
-0.18618774 -0.3030715 0.5822711 0
-0.64931297 -0.48419666 0.66823256 0
-0.54388428 -0.47004557 0.65246272 0
-0.67028427 -0.36427021 0.65838337 0
-0.58018398 -0.39963293 0.65277302 0
-0.61442375 -0.26900005 0.66462719 0
-0.57738304 -0.24986982 0.63459635 0
-0.54361725 -0.47562027 0.74518597 0
-0.52014828 -0.44387865 0.79388881 0
-0.65054607 -0.33997822 0.69782615 0
-0.96478271 -0.3577013 -0.45965338 0
-0.88927364 -0.33631372 -0.4426651 0
-0.93246841 -0.25954056 -0.47585464 0
-0.87192631 -0.24682188 -0.45860457 0
-0.67000961 -0.21005726 -0.40897942 0
-0.99724293 -0.18458366 -0.50769377 0
-0.88124752 -0.17040205 -0.47459054 0
-0.75273323 -0.18342686 -0.44157767 0
-0.62724686 -0.15627909 -0.40803099 0
-0.95074177 -0.11225939 -0.50799727 0
-0.90384007 -0.050245285 -0.50895166 0
-0.776021 -0.059931755 -0.47607827 0
-0.66494846 -0.063388348 -0.44080448 0
-0.55797577 -0.059577465 -0.40720892 0
-0.96683788 -0.021255493 -0.54233837 0
-0.84782124 0.028363228 -0.51072121 0
-0.77203083 0.0028557777 -0.47579432 0
