# .PCD v0.7 - Point Cloud Data file format
VERSION 0.7
FIELDS x y z intensity
SIZE 4 4 4 4
TYPE F F F F
COUNT 1 1 1 1
WIDTH 1290
HEIGHT 1
VIEWPOINT 0 0 0 1 0 0 0
POINTS 1290
DATA ascii
0.68910694 -0.16102505 -0.62920952 0
0.54555893 -0.24470234 -0.62401342 0
0.56589699 -0.16173077 -0.59910536 0
0.63362598 -0.072289467 -0.59932375 0
0.51168537 -0.10060215 -0.5692811 0
0.55398273 -0.027267456 -0.5708003 0
0.59863186 0.052721977 -0.57388449 0
0.46532249 -0.021921158 -0.54743814 0
0.48907757 0.03586483 -0.54713583 0
0.53688431 0.092586517 -0.54766464 0
0.4319315 0.11483574 -0.51524591 0
0.45714569 0.15126991 -0.49841738 0
0.38214302 0.17082787 -0.47126579 0
0.39609528 0.23650932 -0.48282862 0
0.42704582 0.31546688 -0.47864199 0
0.48301601 0.41273594 -0.51235437 0
0.32674599 0.3046236 -0.45988274 0
0.38012218 0.37036133 -0.46399736 0
0.42705917 0.45642281 -0.48241997 0
0.27752686 0.36353207 -0.43156672 0
0.29658318 0.42481327 -0.4258256 0
0.21788216 0.43011665 -0.4008441 0
0.23849773 0.49352551 -0.39261484 0
0.15872955 0.47267914 -0.36384487 0
0.96822643 -0.43282986 -0.78146505 0
0.89830589 -0.36838531 -0.7450695 0
0.932271 -0.3127079 -0.73477125 0
0.84599876 -0.31261826 -0.71116924 0
0.86903286 -0.25214386 -0.70085287 0
0.94119453 -0.18538666 -0.72823668 0
0.97419453 -0.091440201 -0.74900961 0
0.80178642 -0.19241238 -0.66524982 0
0.85849667 -0.1065197 -0.67252493 0
0.90293121 -0.030392647 -0.69290495 0
0.96749973 0.071382523 -0.72408915 0
0.73252392 -0.12407875 -0.62511826 0
0.78113747 -0.054538727 -0.63570881 0
0.84514713 0.024271965 -0.66725779 0
0.8894558 0.11292076 -0.6925354 0
0.93730164 0.19387817 -0.71863413 0
0.99322701 0.26122856 -0.74558115 0
0.67198753 -0.063606262 -0.59880686 0
0.70265579 -0.0016002655 -0.60649109 0
0.76706028 0.087797165 -0.63580036 0
0.82456207 0.16175079 -0.66634512 0
0.87186146 0.25304317 -0.69087791 0
0.92885494 0.32100391 -0.72180462 0
0.97595406 0.40557289 -0.7419548 0
0.6075058 0.0017004013 -0.56573677 0
0.64171028 0.064447403 -0.57921505 0
0.70811081 0.12640667 -0.61099195 0
0.78926563 0.24225712 -0.64643908 0
0.8749361 0.39289951 -0.68268299 0
0.90897655 0.49311256 -0.70955086 0
0.58246899 0.12841225 -0.49781752 0
0.65065002 0.19611359 -0.50182676 0
0.71422958 0.2832613 -0.54965544 0
0.77164555 0.37881374 -0.58976221 0
0.5189867 0.17261696 -0.45795107 0
0.62620163 0.36305904 -0.50211716 0
0.6235733 0.4705801 -0.57127714 0
0.41087151 0.18341923 -0.44113636 0
0.45746326 0.24126816 -0.42295122 0
0.47918034 0.33534813 -0.45701885 0
0.53705978 0.4098053 -0.50423765 0
0.55683613 0.49962616 -0.54775333 0
0.38966465 0.28067398 -0.41193581 0
0.42628384 0.31827545 -0.43235922 0
0.48757839 0.46525383 -0.50978804 0
0.9536171 0.4883461 -0.70617247 0
0.67245102 0.29042244 -0.5086832 0
0.5490284 0.21769524 -0.41198683 0
0.60421276 0.25133419 -0.45677471 0
0.5125761 0.24576664 -0.3861599 0
0.55979252 0.29788208 -0.41864538 0
0.95027447 -0.43352985 -0.79018831 0
0.82385921 -0.4499712 -0.76875973 0
0.86485958 -0.37601185 -0.76325655 0
0.68146706 -0.45717049 -0.73425198 0
0.73995304 -0.39116859 -0.7421999 0
0.7921772 -0.33014011 -0.74279261 0
0.62769699 -0.3864603 -0.71842289 0
0.66080189 -0.32960606 -0.71044254 0
0.52528572 -0.31854343 -0.67544508 0
0.57205009 -0.27182007 -0.67175579 0
0.47352409 -0.25277424 -0.64111996 0
0.38327885 -0.21054554 -0.59978914 0
0.32160664 -0.16885853 -0.57633352 0
0.98307514 -0.38320827 -0.78408146 0
0.9040451 -0.33277607 -0.75470352 0
0.9344511 -0.2754221 -0.74320841 0
0.82095718 -0.28277874 -0.72322178 0
0.87553787 -0.22420311 -0.71543884 0
0.67877102 -0.28088856 -0.69034767 0
0.74554729 -0.22109795 -0.68497562 0
0.80790997 -0.18357372 -0.67909718 0
0.61768818 -0.22977066 -0.65921402 0
0.65864754 -0.16391182 -0.64695501 0
0.52604485 -0.18197346 -0.62441015 0
0.5824337 -0.11789799 -0.61026049 0
0.41751575 -0.17554569 -0.59737253 0
0.46842766 -0.12003231 -0.58754063 0
0.32872105 -0.13001442 -0.55760241 0
0.38690758 -0.069087029 -0.55005503 0
0.24708652 -0.069042206 -0.51757336 0
0.32289791 -0.010347366 -0.52717495 0
0.12742043 -0.05550766 -0.48241282 0
0.1799221 -0.0025701523 -0.49224043 0
0.23428154 0.043524742 -0.4969039 0
-0.011683464 -0.065736771 -0.342031 0
0.080321312 -0.032628059 -0.44140005 0
0.1216383 0.062375069 -0.46603394 0
0.15773296 0.091855049 -0.48279428 0
-0.040699005 -0.067013741 -0.32560539 0
-0.13622475 0.28568649 -0.41158152 0
-0.16189766 0.31032658 -0.40805769 0
0.86231613 -0.18063831 -0.69428825 0
0.95100594 -0.13750553 -0.74911165 0
0.79386139 -0.13214493 -0.66176081 0
0.88683701 -0.049016953 -0.70568466 0
0.9549408 0.038777351 -0.73995876 0
0.69454479 -0.10676384 -0.62921 0
0.74234581 -0.049473763 -0.62768269 0
0.81296635 0.024303436 -0.65486193 0
0.85601139 0.067289352 -0.67539024 0
0.61800766 -0.061151505 -0.59981155 0
0.68472481 -0.00095176697 -0.61121941 0
0.72842121 0.060883522 -0.624156 0
0.48557091 -0.04944706 -0.56199169 0
0.53450489 -0.032074928 -0.57398176 0
0.59672356 0.049741745 -0.5773716 0
0.41351891 -0.021222115 -0.54059029 0
0.47246265 0.038043022 -0.55059576 0
0.51432323 0.1143446 -0.55132437 0
0.33243561 0.037156105 -0.51823568 0
0.3854351 0.11084461 -0.51915884 0
0.4282341 0.17895603 -0.52406883 0
0.26685333 0.095360756 -0.49625397 0
0.31181145 0.17653275 -0.49868679 0
0.34750748 0.22887039 -0.49712324 0
0.16025639 0.084895134 -0.46366405 0
0.17964172 0.15170002 -0.47482443 0
0.2215662 0.24125767 -0.47533703 0
-0.103302 -0.053923607 -0.27189875 0
-0.044466972 -0.025341988 -0.29114914 0
0.090724945 0.14251709 -0.44640827 0
0.096818924 0.21554089 -0.45553017 0
0.14679909 0.2895422 -0.45556307 0
-0.21822071 -0.033599854 -0.18518162 0
-0.15516853 -0.017912865 -0.2199955 0
-0.084513664 0.017519951 -0.24627256 0
0.01761055 0.26619816 -0.43784189 0
0.074565887 0.33741951 -0.43129301 0
-0.26668644 -0.0141325 -0.1522975 0
-0.22924328 0.0235672 -0.17001629 0
-0.1046629 0.29251385 -0.40407467 0
-0.049476624 0.32588196 -0.40968752 0
0.00022506714 0.3832407 -0.40590525 0
-0.3946209 -0.0019512177 -0.076267719 0
-0.34604359 0.025342941 -0.1070652 0
-0.17584515 0.32988358 -0.38472891 0
-0.12098217 0.38903236 -0.37607765 0
-0.46658802 0.024738312 -0.04557848 0
-0.4073782 0.037920952 -0.071833134 0
-0.26087475 0.38456631 -0.33161163 0
-0.20106506 0.42932415 -0.33199453 0
-0.55564499 0.096375465 -0.034882069 0
-0.37480927 0.39319515 -0.27898169 0
-0.329566 0.42729759 -0.2861371 0
-0.61839676 0.14645004 -0.028287411 0
-0.49698067 0.41064262 -0.19377375 0
-0.4461298 0.42536259 -0.22586346 0
-0.38502312 0.45676422 -0.24657679 0
-0.71111107 0.2068491 -0.012447834 0
-0.55474091 0.41807365 -0.15515518 0
-0.77442837 0.26867867 -0.0099458694 0
-0.74870586 0.27059841 -0.056939125 0
-0.87269115 0.32994366 0.0024271011 0
-0.99702835 0.33338928 0.051176548 0
-0.9531889 0.36027908 0.037652016 0
0.93515015 0.10577774 -0.71550941 0
0.85069942 0.11972713 -0.67824411 0
0.90605927 0.18323612 -0.70569611 0
0.98480892 0.26989365 -0.74872208 0
0.73877048 0.1213131 -0.62613058 0
0.77322578 0.1915102 -0.64556408 0
0.86454391 0.24669552 -0.69120741 0
0.88103676 0.34807682 -0.70350981 0
0.99244499 0.39638233 -0.7575078 0
0.62792015 0.11706066 -0.57910061 0
0.65934086 0.15890503 -0.59372616 0
0.74040222 0.22240639 -0.63575459 0
0.86115742 0.40053463 -0.69747782 0
0.55009842 0.17202759 -0.51015902 0
0.46853638 0.20138454 -0.48135233 0
0.35243893 0.23250961 -0.45811653 0
0.3939209 0.25902081 -0.45914555 0
0.28717422 0.28182316 -0.46454477 0
0.32365894 0.33011627 -0.46751833 0
0.37932301 0.40241528 -0.4722414 0
0.19662189 0.33425522 -0.44973898 0
0.2472868 0.38970947 -0.44238615 0
0.10333252 0.38975811 -0.41256809 0
0.16180515 0.44601536 -0.4063921 0
0.026404381 0.43896294 -0.38528252 0
-0.38548756 0.060474396 -0.089962959 0
-0.11655235 0.45622921 -0.34301519 0
-0.46834469 0.055753708 -0.039433956 0
-0.42733479 0.093619347 -0.063057423 0
-0.2417717 0.45046234 -0.3032341 0
-0.17379379 0.49567509 -0.30507135 0
-0.53122997 0.10507584 -0.019051075 0
-0.30162525 0.48513985 -0.26554203 0
-0.60138512 0.16425419 -0.0047388077 0
-0.59162712 0.20587254 -0.0059046745 0
-0.43332672 0.46441078 -0.17410469 0
-0.6872921 0.22372437 0.016499996 0
-0.64761162 0.24565125 0.011632442 0
-0.5549593 0.45983315 -0.11413717 0
-0.48168087 0.49821186 -0.11725044 0
-0.75693893 0.28754234 0.033461094 0
-0.74010372 0.32652664 0.017009258 0
-0.67935944 0.45184517 -0.055487156 0
-0.6144352 0.48501396 -0.062588215 0
-0.83413792 0.36199665 0.055510521 0
-0.79671574 0.3885107 0.063691616 0
-0.7342968 0.49403191 -0.0094151497 0
-0.91740131 0.41654873 0.080091 0
-0.85118008 0.43459034 0.088481903 0
-0.99914551 0.45494938 0.10381699 0
-0.95186234 0.49900532 0.096642017 0
0.95845127 0.46009922 -0.73876953 0
0.88801765 0.48173141 -0.70734453 0
0.4999609 0.24449921 -0.42667341 0
0.62049389 0.34940434 -0.49094343 0
0.4363451 0.30751801 -0.39690161 0
0.47733688 0.38423061 -0.4289875 0
0.49546528 0.4565134 -0.49322414 0
0.38919449 0.34046936 -0.42438507 0
0.40828037 0.42461967 -0.46961451 0
0.30111408 0.49035168 -0.43199492 0
0.18823814 0.48593998 -0.39258862 0
-0.82882023 0.42736721 0.096268177 0
-0.90132618 0.46607208 0.12762213 0
-0.86264515 0.47515106 0.11393404 0
0.76625538 -0.49787331 -0.7723527 0
0.64552689 -0.42672062 -0.75282478 0
0.54420471 -0.45903873 -0.72983789 0
0.55871201 -0.38899231 -0.72973251 0
0.4587059 -0.41350555 -0.71199036 0
0.49327087 -0.35351086 -0.69466829 0
0.32733631 -0.44973087 -0.65840149 0
0.38822842 -0.36592484 -0.6860404 0
0.39180565 -0.31046867 -0.68287373 0
0.21441078 -0.47548676 -0.58722067 0
0.25577927 -0.41334915 -0.62674475 0
0.30868816 -0.32308197 -0.6460886 0
0.13468742 -0.43423271 -0.55569458 0
0.17532444 -0.34213638 -0.58144188 0
0.22816086 -0.2778244 -0.60050726 0
0.070260048 -0.36727524 -0.52693319 0
0.1008091 -0.29677391 -0.53432655 0
-0.017894745 -0.31947041 -0.47065639 0
0.0029163361 -0.27240372 -0.47497749 0
-0.12839699 -0.32323456 -0.40690851 0
-0.090679169 -0.2945385 -0.4263258 0
-0.17059994 -0.29304123 -0.38397503 0
-0.17649555 -0.25538445 -0.38508463 0
-0.24215317 -0.25089741 -0.35582161 0
-0.24389935 -0.22566986 -0.36549759 0
-0.32013416 -0.2065239 -0.32556629 0
0.87169838 -0.48489475 -0.7850008 0
0.90157986 -0.40864754 -0.78943586 0
0.78038311 -0.44253826 -0.77318621 0
0.8194046 -0.36756325 -0.77079964 0
0.697752 -0.38043499 -0.74870253 0
0.74036407 -0.31534958 -0.73883152 0
0.60342503 -0.3341732 -0.71919966 0
0.65554142 -0.2796669 -0.71674728 0
0.52803135 -0.28296757 -0.68260956 0
0.5726347 -0.23461723 -0.6838789 0
0.44639778 -0.25819492 -0.65510941 0
0.33139324 -0.27144909 -0.6392107 0
0.35411358 -0.22073555 -0.62239361 0
0.23406219 -0.22339439 -0.5927639 0
0.28118038 -0.16772652 -0.58051968 0
0.097863197 -0.23751354 -0.52426958 0
0.15167427 -0.17749691 -0.54520559 0
0.20602608 -0.13714123 -0.55262375 0
0.035826683 -0.21618557 -0.48636198 0
0.07410717 -0.12283134 -0.49512672 0
0.13161469 -0.084915161 -0.51588249 0
-0.078132629 -0.24227333 -0.42736053 0
-0.046938896 -0.1790638 -0.43951941 0
-0.0069656372 -0.089515686 -0.45288849 0
-0.1694231 -0.20418549 -0.38681746 0
-0.11873531 -0.12278652 -0.40450001 0
-0.064522743 -0.085504532 -0.42749071 0
-0.25488567 -0.14988136 -0.34998751 0
-0.18753529 -0.095871925 -0.36833572 0
-0.34824467 -0.17623138 -0.32153225 0
-0.32598019 -0.1166029 -0.3072648 0
-0.43646526 -0.12144184 -0.23734188 0
-0.38237572 -0.10484409 -0.26426935 0
-0.54622841 -0.12720585 -0.15082073 0
-0.4932785 -0.12670326 -0.19552898 0
-0.6185894 -0.12345791 -0.10741425 0
-0.7191143 -0.12700844 -0.038060665 0
0.93844509 -0.34531689 -0.78332949 0
0.9840498 -0.28958511 -0.78266287 0
0.86062717 -0.31002903 -0.75469685 0
0.88740158 -0.24912643 -0.73463821 0
0.78900146 -0.25199127 -0.72358847 0
0.81494331 -0.20254707 -0.7090826 0
0.68802357 -0.22280121 -0.69108629 0
0.53978634 -0.22519779 -0.65799093 0
0.59965038 -0.16377544 -0.65549803 0
0.51268196 -0.13827705 -0.62504339 0
0.40295792 -0.14931488 -0.60342884 0
0.42838955 -0.095013618 -0.59162092 0
0.30956459 -0.10618401 -0.56342554 0
0.34823704 -0.050731659 -0.5515337 0
0.22934723 -0.059427261 -0.52845097 0
0.28130245 0.0039243698 -0.53256369 0
0.15184021 -0.021360397 -0.50404263 0
0.19585037 0.047669411 -0.50563049 0
0.032572746 -0.051722527 -0.42792034 0
0.1045208 0.055065155 -0.48035288 0
0.10558891 0.078525543 -0.48485994 0
-0.078396797 -0.058325768 -0.34145212 0
-0.031544685 -0.058428764 -0.38668585 0
-0.207304 -0.063595772 -0.2719183 0
-0.15850925 -0.060318947 -0.30257416 0
-0.28752804 -0.069385529 -0.23016453 0
-0.39626598 -0.082182884 -0.16151094 0
-0.32785702 -0.054836273 -0.17215681 0
-0.52413845 -0.084700584 -0.094183922 0
-0.46934605 -0.078070641 -0.11096001 0
-0.65470982 -0.11520672 -0.029455185 0
-0.5945816 -0.086764336 -0.045703888 0
-0.71169567 -0.10124397 0.019346714 0
-0.64006233 -0.051436424 0.011385441 0
-0.65236568 0.093263626 -0.058026791 0
-0.61935139 0.18881035 -0.13919926 0
-0.60870457 0.20829964 -0.14520979 0
-0.82648563 -0.11653137 0.084067345 0
-0.77018833 -0.088066101 0.075918198 0
-0.68532753 0.11653042 -0.055155277 0
-0.70505524 0.18971443 -0.083621979 0
-0.89379883 -0.092952728 0.12617779 0
-0.98863029 -0.067562103 0.16284704 0
0.90442467 -0.21542263 -0.72233248 0
0.92025566 -0.103652 -0.74376202 0
0.95243454 -0.044057846 -0.76957512 0
0.83844185 -0.15591908 -0.69384718 0
0.9212389 -0.0080699921 -0.74135447 0
0.75643063 -0.1110239 -0.66499138 0
0.65229607 -0.11709023 -0.64397383 0
0.6704216 -0.061922073 -0.62694597 0
0.54306889 -0.065199852 -0.59706688 0
0.59310818 -0.019853592 -0.60020494 0
0.45911598 -0.036978722 -0.57414627 0
0.50141525 0.035038948 -0.57119846 0
0.39142799 0.017501831 -0.55119419 0
0.42101097 0.095685959 -0.54712391 0
0.30174446 0.059120178 -0.52318096 0
0.32833385 0.13056183 -0.51791954 0
0.22012329 0.099711418 -0.50453854 0
0.25504494 0.18402004 -0.49902201 0
0.13312531 0.13733959 -0.47684669 0
0.16285038 0.23497486 -0.48322105 0
-0.065582275 -0.0082349777 -0.29206324 0
-0.041760445 0.031214714 -0.28838253 0
0.097351074 0.19893456 -0.45763159 0
0.067630768 0.26761818 -0.45842218 0
-0.19546795 -0.031932831 -0.22591972 0
-0.12020493 0.0055761337 -0.25389051 0
-0.05346489 0.28312016 -0.43942642 0
-0.012657166 0.30831623 -0.43694687 0
-0.24108505 -0.013955116 -0.19007111 0
-0.19464111 0.024641991 -0.20229197 0
-0.13388252 0.32607174 -0.41111708 0
-0.098723412 0.34823799 -0.41383696 0
-0.37612438 -0.034240723 -0.12501717 0
-0.31823158 0.0066137314 -0.13949919 0
-0.21152878 0.37288189 -0.38275957 0
-0.16864204 0.38630581 -0.3866992 0
-0.4458065 -0.0056200027 -0.074039936 0
-0.39625549 0.064374924 -0.092258453 0
-0.2749567 0.40432167 -0.33905697 0
-0.55578232 -0.027524948 -0.023697376 0
-0.52310848 0.045636177 -0.039111614 0
-0.49413395 0.10826778 -0.045940876 0
-0.37495232 0.42790699 -0.28699732 0
-0.70567608 -0.038984299 0.05412674 0
-0.64505577 -0.018835068 0.016369343 0
-0.59474277 0.093647957 -0.030323029 0
-0.58571243 0.14873409 -0.044730663 0
-0.60928154 0.23012924 -0.14195108 0
-0.4643755 0.44686699 -0.22997189 0
-0.43282413 0.44498634 -0.24588633 0
-0.81837177 -0.064138412 0.12482834 0
-0.75426674 -0.024488449 0.084841251 0
-0.69192314 0.1930275 0.0065288544 0
-0.66963768 0.2054224 -0.044327736 0
-0.62674141 0.21825981 -0.13117647 0
-0.87046623 -0.043359756 0.16331911 0
-0.83390236 0.0070838928 0.13620806 0
-0.71526051 0.21062851 0.025550365 0
-0.74818325 0.26059246 -0.029421806 0
-0.95175934 -0.014907837 0.21051645 0
-0.90359211 0.056322098 0.17887592 0
-0.82338238 0.31925678 -0.017595768 0
-0.8439579 0.33507824 -0.056586742 0
-0.99118996 0.089910507 0.2334938 0
-0.90814686 0.37213993 0.0098719597 0
-0.86599827 0.37805939 -0.016499519 0
-0.99956322 0.39924049 0.057501316 0
0.99812794 0.038747787 -0.78796053 0
0.94649696 0.089360237 -0.74174929 0
0.82272339 0.0064477921 -0.67344952 0
0.84064102 0.086911201 -0.68361902 0
0.92886066 0.16094875 -0.72657442 0
0.71049213 0.0023994446 -0.61948729 0
0.6970787 0.037672997 -0.62031603 0
0.79905701 0.15611935 -0.67131805 0
0.57848358 0.056620598 -0.57115746 0
0.63486671 0.096340179 -0.59802151 0
0.68619442 0.18696976 -0.61961842 0
0.53654099 0.093654633 -0.56893635 0
0.57109261 0.15848446 -0.57079649 0
0.6449604 0.2245903 -0.60485077 0
0.45743752 0.13467312 -0.54586077 0
0.49694157 0.18206596 -0.53663254 0
0.37628365 0.19057465 -0.51644135 0
0.39342499 0.23829556 -0.5 0
0.27047443 0.23966599 -0.49099064 0
0.3193903 0.29191685 -0.49928141 0
0.17963219 0.2806282 -0.46756363 0
0.23531055 0.33519554 -0.47550297 0
0.10333157 0.33623314 -0.4483285 0
0.14641857 0.37274265 -0.45119381 0
0.022583961 0.36382866 -0.42790842 0
0.061644554 0.43337727 -0.41609621 0
-0.049562454 0.41157055 -0.39933395 0
-0.033575058 0.47993088 -0.38876724 0
-0.1522274 0.4541378 -0.35735989 0
-0.29567528 0.45498943 -0.30712843 0
-0.22502613 0.4902935 -0.31302261 0
-0.35337734 0.48692322 -0.26727962 0
-0.54994202 0.18707848 -0.029039383 0
-0.46210957 0.47235107 -0.18078899 0
-0.41304398 0.49094868 -0.21350336 0
-0.63118076 0.23265934 -0.0036530495 0
-0.61114597 0.44965458 -0.12542534 0
-0.5424242 0.47684574 -0.13747168 0
-0.72111034 0.29500675 0.018865108 0
-0.65265656 0.48032093 -0.076673031 0
-0.80594444 0.3609066 0.043011189 0
-0.79799557 0.40218735 0.042047024 0
-0.87560081 0.41633415 0.064451218 0
-0.86102581 0.4508419 0.07241106 0
-0.96324158 0.46547413 0.087885857 0
-0.94091511 0.49074745 0.080016136 0
0.98826599 0.2037487 -0.75642347 0
0.90668297 0.22316837 -0.72403669 0
0.95357323 0.29350948 -0.74660873 0
0.99664879 0.36967468 -0.76476622 0
0.827384 0.26469326 -0.68712711 0
0.84787941 0.32371902 -0.7027564 0
0.87651157 0.40695667 -0.71601629 0
0.73292923 0.25393486 -0.64443684 0
0.57898045 0.20623589 -0.49402952 0
0.51228523 0.23821545 -0.47115517 0
0.43655682 0.29284286 -0.43917561 0
0.36247158 0.34192467 -0.4592557 0
0.38104343 0.42157173 -0.47877932 0
0.42498016 0.48524475 -0.5034256 0
0.26062202 0.40275192 -0.45710707 0
0.29389954 0.45203209 -0.44898558 0
0.17839146 0.44033813 -0.43078136 0
0.20441628 0.49670315 -0.4186039 0
0.095212936 0.47938156 -0.40080309 0
-0.84593487 0.47667027 0.094900131 0
-0.90535641 0.48686409 0.12400961 0
0.91576004 0.45607281 -0.73302317 0
0.85834599 0.46387959 -0.70956182 0
0.68496895 0.4368906 -0.55491352 0
0.75736904 0.44974327 -0.62192631 0
0.51812077 0.29885387 -0.4204917 0
0.48794842 0.33796597 -0.40262413 0
0.45529556 0.39419174 -0.42128706 0
0.41271687 0.3574028 -0.40539455 0
0.44051838 0.45201397 -0.45126677 0
0.62158394 -0.43719864 -0.7300396 0
0.5388546 -0.40508461 -0.71876192 0
0.43138885 -0.48201942 -0.67776871 0
0.44230938 -0.39206219 -0.69488811 0
0.35680866 -0.48731709 -0.64851093 0
0.3583498 -0.36562347 -0.66372013 0
0.35482025 -0.30405331 -0.64573526 0
0.25775242 -0.47900963 -0.59854889 0
0.26684189 -0.36868572 -0.62222338 0
0.26527882 -0.29818726 -0.60967636 0
0.17484665 -0.4572773 -0.5599432 0
0.1846447 -0.3543911 -0.5748682 0
0.19947529 -0.27545261 -0.57125044 0
0.094956398 -0.4372673 -0.52079058 0
0.089093208 -0.32811165 -0.51742268 0
0.085823059 -0.27094173 -0.50760889 0
0.0075893402 -0.3948822 -0.48163939 0
0.0037593842 -0.32972336 -0.4702282 0
-0.058547974 -0.3713665 -0.44054413 0
-0.07198143 -0.30820084 -0.4255228 0
-0.16760254 -0.28468895 -0.37434387 0
-0.18275833 -0.22771931 -0.37227106 0
-0.25091648 -0.25234985 -0.34424734 0
-0.27888393 -0.20291901 -0.33681488 0
-0.33638668 -0.23266792 -0.30675125 0
-0.35480118 -0.19727516 -0.30602312 0
-0.43596935 -0.16439152 -0.2725358 0
-0.48912811 -0.15742588 -0.23701429 0
0.94200802 -0.42194843 -0.78832722 0
0.85624027 -0.42339897 -0.77791452 0
0.72916412 -0.47886086 -0.74404192 0
0.7495203 -0.38385296 -0.74768734 0
0.77058315 -0.32249641 -0.73521423 0
0.65033722 -0.3816576 -0.72764206 0
0.66729259 -0.31645203 -0.71128511 0
0.57245636 -0.36124611 -0.70770788 0
0.58370686 -0.29127026 -0.68839645 0
0.47698593 -0.26767921 -0.65278625 0
0.39439964 -0.24485016 -0.62623739 0
0.38518047 -0.17377472 -0.59488201 0
0.29832172 -0.22824478 -0.59136057 0
0.29757786 -0.16819096 -0.57577133 0
0.20772648 -0.21728706 -0.56586027 0
0.21949005 -0.14431381 -0.54797173 0
0.12553978 -0.21303272 -0.52247334 0
0.12759495 -0.12824345 -0.50887251 0
0.032147408 -0.2142086 -0.47044992 0
0.044471741 -0.10957146 -0.46309328 0
-0.047415733 -0.26077843 -0.42943096 0
-0.058189392 -0.1974678 -0.4222393 0
-0.04232502 -0.098370552 -0.42205095 0
-0.11752892 -0.24733925 -0.39423418 0
-0.15278149 -0.17400265 -0.38262653 0
-0.13921261 -0.093090057 -0.37084627 0
-0.23577118 -0.14498901 -0.34365749 0
-0.19938755 -0.099104881 -0.33343029 0
-0.32311058 -0.1259613 -0.29572344 0
-0.31189346 -0.077566147 -0.2649107 0
-0.40658569 -0.11877346 -0.23965549 0
-0.49450397 -0.13758469 -0.18262625 0
-0.61106586 -0.15297127 -0.13084126 0
-0.57655716 -0.13188553 -0.1184845 0
-0.66818428 -0.13591003 -0.069983482 0
-0.6425333 -0.12672424 -0.081069946 0
-0.75410271 -0.13685989 -0.0099596977 0
-0.83042908 -0.1452055 0.047650814 0
-0.92584896 -0.13495827 0.092949867 0
0.97496891 -0.36946106 -0.78354788 0
0.95640087 -0.31050587 -0.76062918 0
0.8730278 -0.34475899 -0.75818968 0
0.89777851 -0.28434944 -0.73940754 0
0.79306984 -0.27192974 -0.71642303 0
0.7974205 -0.19878197 -0.68827963 0
0.71235561 -0.23841 -0.68886518 0
0.72297096 -0.1838026 -0.67413664 0
0.61813831 -0.22566032 -0.66701174 0
0.61484051 -0.155797 -0.64009094 0
0.51562119 -0.20287609 -0.63648319 0
0.52415657 -0.14951897 -0.61861753 0
0.43431187 -0.11594772 -0.58266783 0
0.33724022 -0.10209846 -0.54993629 0
0.33883381 -0.035393715 -0.53466368 0
0.25359535 -0.087075233 -0.52437067 0
0.26048565 -0.0085945129 -0.51304913 0
0.15054321 -0.069185257 -0.49457169 0
0.16789246 0.015135765 -0.48446608 0
0.16325378 0.086389542 -0.48433971 0
0.044904709 -0.058362007 -0.43445206 0
0.10588455 0.021059036 -0.472157 0
0.08846283 0.10505486 -0.45762205 0
-0.024739265 -0.061630249 -0.35450983 0
-0.096729279 -0.060882568 -0.31118727 0
-0.22131729 -0.070509911 -0.2443161 0
-0.18307495 -0.063128471 -0.26609278 0
-0.288867 -0.074092865 -0.20363712 0
-0.25678921 -0.081863403 -0.27897215 0
-0.35872746 -0.076354027 -0.15303135 0
-0.45115566 -0.082012177 -0.10804033 0
-0.58512592 -0.116395 -0.060061455 0
-0.53678703 -0.07689476 -0.055694103 0
-0.58935642 0.20271015 -0.14497042 0
-0.64863873 -0.11176205 -0.011680126 0
-0.6217041 -0.065825462 0.0064821243 0
-0.63411903 0.047449112 -0.017230034 0
-0.65101242 0.18771553 -0.1026926 0
-0.63957691 0.21327972 -0.10981989 0
-0.72393322 -0.1053896 0.047809124 0
-0.70564938 -0.042345047 0.066221714 0
-0.70118046 0.17793751 -0.059877872 0
-0.72128487 0.22459126 -0.064284325 0
-0.81264496 -0.10380173 0.1054616 0
-0.78195667 -0.041063309 0.11242342 0
-0.79407215 0.25123215 -0.036765575 0
-0.89268208 -0.096952438 0.1430788 0
-0.86707592 0.29379654 -0.015577316 0
-0.98140621 -0.070531845 0.18287325 0
0.98819828 -0.17804623 -0.77185392 0
0.91741562 -0.22826481 -0.72247171 0
0.89626503 -0.15350056 -0.71042442 0
0.91836357 -0.037191391 -0.73062134 0
0.86132908 -0.20604706 -0.69836426 0
0.81847858 -0.14135265 -0.6753664 0
0.83386803 -0.030945778 -0.6674614 0
0.73688316 -0.1178503 -0.64923334 0
0.74912071 -0.052330971 -0.63100958 0
0.65756321 -0.093152046 -0.6187191 0
0.64399242 -0.013772964 -0.59774303 0
0.56516743 -0.07647419 -0.59344006 0
0.55920029 0.0035104752 -0.57480955 0
0.46687412 0.00085353851 -0.5524354 0
0.46942902 0.086860657 -0.54402399 0
0.36736774 0.025818825 -0.52777863 0
0.39263248 0.11145306 -0.52676058 0
0.27997875 0.051639557 -0.5042243 0
0.29191017 0.13177299 -0.49771881 0
0.30408001 0.19354725 -0.49433422 0
0.22032642 0.069087029 -0.4877429 0
0.19300556 0.13405037 -0.47851992 0
0.21751881 0.22350597 -0.47676945 0
0.10607719 0.16492939 -0.45975018 0
0.11040401 0.25837231 -0.45118046 0
0.072920799 0.30915546 -0.44380522 0
-0.0093297958 0.038275719 -0.29147577 0
0.010206223 0.28628063 -0.43740368 0
0.009308815 0.33741474 -0.42068386 0
-0.073099136 0.0018672943 -0.26548529 0
-0.086932182 0.30537128 -0.41099215 0
-0.081950188 0.37151814 -0.39893389 0
-0.15347767 0.0046854019 -0.21727896 0
-0.17321777 0.39899826 -0.36392975 0
-0.28156281 -0.035053253 -0.16023874 0
-0.24381256 -0.0010433197 -0.16580629 0
-0.25433922 0.39740467 -0.33652973 0
-0.34445953 -0.021373749 -0.11656475 0
-0.31576824 0.026791573 -0.1228013 0
-0.34482384 0.42640114 -0.28570795 0
-0.42724037 -0.017495155 -0.071230412 0
-0.40715599 0.034976959 -0.070870399 0
-0.41824818 0.44463539 -0.24227858 0
-0.51353931 -0.01404953 -0.02691412 0
-0.50830269 0.07733345 -0.033107758 0
-0.51940632 0.13413143 -0.054370403 0
-0.50789928 0.43906879 -0.1783638 0
-0.58725548 -0.0079698563 -0.00057888031 0
-0.58009529 0.061842918 -0.023877621 0
-0.59660625 0.16370773 -0.024316311 0
-0.60220909 0.44553566 -0.11531591 0
-0.7349577 -0.02289772 0.084679604 0
-0.6790657 0.21147919 -0.0010409355 0
-0.69601059 0.26092911 0.00090837479 0
-0.68122101 0.44510651 -0.068601131 0
-0.78852272 -0.0030155182 0.11763954 0
-0.75256824 0.23884964 0.0092024803 0
-0.78834724 0.29995632 0.0046648979 0
-0.81123829 0.36975861 0.032137871 0
-0.87133217 -0.039014816 0.18202639 0
-0.85795116 0.010456085 0.16554546 0
-0.8598175 0.35297489 0.036569118 0
-0.89226246 0.36884499 0.022997379 0
-0.95459938 -0.02592659 0.22947931 0
-0.95859337 0.03783989 0.23367405 0
-0.97401047 0.40345764 0.065798283 0
0.9427433 0.065973282 -0.72990847 0
0.94259167 0.16521835 -0.72284889 0
0.87890053 0.010562897 -0.69226694 0
0.85769653 0.10428143 -0.6812439 0
0.86100864 0.18621349 -0.68747997 0
0.77554512 0.010944366 -0.63783312 0
0.77114964 0.091195107 -0.6425519 0
0.78405094 0.20746136 -0.65526628 0
0.68654537 0.011723518 -0.60021114 0
0.67868423 0.096394539 -0.59956694 0
0.68896389 0.1981678 -0.6091218 0
0.60359859 0.042201996 -0.5657692 0
0.59205627 0.104496 -0.56929731 0
0.62297249 0.18811321 -0.57997847 0
0.51009655 0.15925789 -0.52663612 0
0.42574596 0.18196011 -0.50045586 0
0.4084549 0.21633244 -0.48595858 0
0.33900642 0.25735474 -0.48012543 0
0.31767464 0.34439754 -0.46998215 0
0.22587776 0.29038715 -0.46502495 0
0.22766495 0.35476971 -0.45161247 0
0.13370419 0.38059902 -0.42777872 0
0.049925804 0.40551186 -0.40754843 0
0.040336609 0.46355534 -0.38299179 0
-0.048541069 0.42603493 -0.3803277 0
-0.051924706 0.4878149 -0.35653734 0
-0.18703842 0.45315838 -0.32069874 0
-0.14017677 0.49748516 -0.32440567 0
-0.27479649 0.45586491 -0.29427576 0
-0.41209316 0.48513794 -0.18934631 0
-0.49670219 0.48042011 -0.13486099 0
-0.57826138 0.49684906 -0.082511425 0
-0.66180325 0.49886799 -0.040701389 0
-0.76595879 0.33873272 0.049134254 0
-0.7674799 0.3817749 0.048858166 0
-0.84461784 0.41945648 0.085163116 0
-0.92535305 0.47154522 0.11559916 0
0.93807793 0.22580147 -0.72491741 0
0.96840954 0.28502369 -0.7411375 0
0.9653368 0.39469051 -0.7411809 0
0.8817091 0.23951149 -0.70061827 0
0.85075569 0.27810287 -0.68765783 0
0.90974236 0.40107059 -0.72243357 0
0.79432392 0.30253601 -0.6648035 0
0.83191872 0.41146183 -0.68412304 0
0.6997118 0.31614113 -0.58449316 0
0.58577442 0.19712543 -0.48863077 0
0.55354691 0.20447922 -0.48003531 0
0.55132675 0.24044991 -0.4485507 0
0.46485138 0.26517677 -0.43617439 0
0.42723083 0.3770504 -0.44162798 0
0.41642761 0.45532131 -0.4694643 0
0.4041481 0.31341934 -0.40837097 0
0.36645985 0.36883068 -0.45399809 0
0.37360668 0.4799614 -0.4668541 0
0.26267338 0.41881752 -0.43375635 0
0.26819515 0.4993763 -0.42108965 0
0.19617939 0.43135738 -0.41515684 0
0.66993618 0.39404964 -0.52626514 0
0.52698994 0.47246742 -0.49128056 0
0.47709274 0.31855392 -0.38539314 0
0.55599117 -0.48577976 -0.72204828 0
0.47694206 -0.42411804 -0.71033812 0
0.4059391 -0.37640381 -0.68521547 0
0.32499027 -0.3265028 -0.65181637 0
0.42778301 -0.49360847 -0.68661213 0
0.3429575 -0.42924595 -0.66406965 0
0.27811337 -0.36665058 -0.63296127 0
0.19534016 -0.34250069 -0.58339787 0
0.21818256 -0.4394474 -0.59656525 0
0.14054966 -0.38696194 -0.55700302 0
0.086902618 -0.3309679 -0.52049494 0
0.092643738 -0.4559269 -0.52123547 0
0.029698372 -0.38683796 -0.49527788 0
-0.028488159 -0.34369278 -0.45921516 0
-0.020757675 -0.46604156 -0.45510387 0
-0.088819504 -0.39996529 -0.43010426 0
-0.17328167 -0.3405962 -0.37955904 0
-0.24028111 -0.29497337 -0.35483408 0
-0.31325817 -0.25980759 -0.32689285 0
-0.23113728 -0.36882496 -0.35477257 0
-0.28956318 -0.31675243 -0.33247757 0
-0.35985851 -0.28173828 -0.30656481 0
-0.42959118 -0.23863029 -0.27663898 0
-0.48827076 -0.25927258 -0.23807144 0
-0.54123878 -0.23313046 -0.2129879 0
-0.65265942 -0.22525406 -0.14832211 0
0.91400337 -0.47739029 -0.79676962 0
0.81713486 -0.41289139 -0.77065516 0
0.74656963 -0.38476372 -0.7549367 0
0.68720531 -0.34036636 -0.7369318 0
0.77667332 -0.49170399 -0.76075411 0
0.70628643 -0.42655468 -0.75013542 0
0.61125088 -0.37936974 -0.72562313 0
0.54808521 -0.32267189 -0.69276667 0
0.4960165 -0.29474831 -0.67687225 0
0.55989456 -0.43465519 -0.71841145 0
0.49926758 -0.36295319 -0.69646597 0
0.42900372 -0.30326271 -0.6576786 0
0.34996414 -0.27510548 -0.63027048 0
0.28266907 -0.21431065 -0.59250498 0
0.22340107 -0.16553211 -0.56041336 0
0.21542454 -0.27956581 -0.58409357 0
0.15661907 -0.20182323 -0.54054976 0
0.078724861 -0.1575861 -0.49204731 0
0.079753876 -0.27732944 -0.50947189 0
0.034793854 -0.22535801 -0.47714806 0
-0.029226303 -0.15795326 -0.436553 0
-0.11458397 -0.12383175 -0.39879608 0
-0.039352417 -0.28991699 -0.44426155 0
-0.10093307 -0.24575806 -0.40819359 0
-0.17171192 -0.16281605 -0.37920189 0
-0.2446785 -0.12769604 -0.33907175 0
-0.17785358 -0.2774601 -0.38098669 0
-0.21829414 -0.24093819 -0.36211777 0
-0.30076599 -0.18997669 -0.33045673 0
-0.37046719 -0.13475704 -0.27851009 0
-0.35298157 -0.23982334 -0.30625248 0
-0.42933083 -0.17531681 -0.26835632 0
-0.48579884 -0.15690041 -0.21466255 0
-0.55390167 -0.17163944 -0.1781373 0
-0.61562634 -0.16334724 -0.13394737 0
-0.67785549 -0.18469334 -0.1172266 0
-0.73208427 -0.16676235 -0.066207409 0
-0.79232597 -0.19168472 -0.052428246 0
-0.85700512 -0.1697216 0.0042123795 0
-0.9304285 -0.15229416 0.043696404 0
-0.8837204 -0.16740608 0.076479912 0
-0.97460461 -0.15877342 0.062558651 0
0.98186684 -0.39253807 -0.80207682 0
0.92347622 -0.32627487 -0.76345682 0
0.84295559 -0.26340866 -0.72676277 0
0.77813721 -0.22195625 -0.70745325 0
0.97233677 -0.48516655 -0.79851818 0
0.92514896 -0.43739033 -0.79412127 0
0.87142181 -0.369874 -0.77433062 0
0.78338814 -0.30851746 -0.72841072 0
0.71676731 -0.28123093 -0.71244955 0
0.65017986 -0.22441578 -0.67869043 0
0.55953217 -0.16467667 -0.63404989 0
0.51355076 -0.12817287 -0.61407232 0
0.65857887 -0.28965092 -0.69481993 0
0.57845402 -0.24782181 -0.66424417 0
0.49788284 -0.21531963 -0.63975 0
0.43429184 -0.14773273 -0.59693575 0
0.35303783 -0.11430836 -0.56473017 0
0.28823566 -0.059047699 -0.5317955 0
0.37365627 -0.19090462 -0.6000576 0
0.29325485 -0.14586067 -0.55942631 0
0.23003864 -0.10471058 -0.53405666 0
0.15909672 -0.046505928 -0.50058651 0
0.097161293 0.025425911 -0.47023249 0
0.080371857 -0.095778465 -0.4822154 0
0.033265114 -0.070715904 -0.44379091 0
0.0046768188 -0.07407856 -0.38286638 0
-0.08374691 -0.084056854 -0.36203003 0
-0.1648674 -0.080834389 -0.36099577 0
-0.13712406 -0.082843781 -0.31969357 0
-0.212677 -0.08540535 -0.27921867 0
-0.279562 -0.084704399 -0.29335499 0
-0.26636696 -0.097513199 -0.25936699 0
-0.3257885 -0.094305992 -0.20297575 0
-0.37747478 -0.10246944 -0.16073751 0
-0.45179272 -0.10511398 -0.13291264 0
-0.50609875 -0.12028885 -0.1174655 0
-0.55827618 -0.10676193 -0.069775581 0
-0.62135983 -0.08314991 -0.00033664703 0
-0.63794518 -0.13257504 -0.037820816 0
-0.68199348 -0.11731625 0.0079503059 0
-0.72806168 -0.091464043 0.073788643 0
-0.7535677 -0.14456081 0.029669762 0
-0.80556774 -0.12888432 0.080729961 0
-0.8635273 -0.10625267 0.12845755 0
-0.89089966 -0.16187477 0.094175339 0
-0.91427231 -0.11596489 0.1331706 0
0.92489624 -0.1139431 -0.73840094 0
0.98562527 -0.31236172 -0.76411152 0
0.94346619 -0.26634502 -0.74965477 0
0.85491276 -0.2151413 -0.70750046 0
0.80035496 -0.15351486 -0.67484713 0
0.71790695 -0.10016727 -0.64243412 0
0.64369488 -0.054394722 -0.61150885 0
0.74541187 -0.19230366 -0.67624092 0
0.67387104 -0.15627575 -0.65143394 0
0.60655689 -0.099367142 -0.61881828 0
0.5373745 -0.042697906 -0.58351851 0
0.45365047 -0.001709938 -0.55923796 0
0.36655521 0.063862801 -0.52670336 0
0.29269409 0.12359715 -0.50452042 0
0.20839214 0.17909622 -0.48781013 0
0.13082314 0.24199486 -0.46944857 0
0.065639496 0.28178406 -0.45343876 0
0.51978397 -0.12829113 -0.59343624 0
0.46944618 -0.095159531 -0.57942057 0
0.39115143 -0.056879997 -0.55094004 0
0.31690693 6.7710876e-05 -0.52541351 0
0.23185635 0.060099602 -0.4973278 0
0.15370369 0.11919689 -0.48204374 0
0.10140705 0.18516636 -0.46232605 0
0.018129349 0.26776886 -0.44085932 0
-0.065440178 0.33104229 -0.41307592 0
-0.16684532 0.358428 -0.38292408 0
0.11569118 0.059394836 -0.46894217 0
-0.26531792 0.38064861 -0.33964634 0
-0.33104515 0.41300201 -0.3007741 0
-0.39951801 0.40309906 -0.26921892 0
-0.42471981 0.42858124 -0.24687099 0
0.001329422 -0.049687386 -0.34169579 0
-0.057094574 -0.022028923 -0.28942728 0
-0.12069416 0.018684387 -0.23637724 0
-0.11266232 -0.059328079 -0.2787199 0
-0.17514896 -0.043568611 -0.22861958 0
-0.22191429 -0.0010128021 -0.18279123 0
-0.24484921 -0.064753532 -0.20679569 0
-0.29678345 -0.034655571 -0.1545763 0
-0.35170269 0.0018529892 -0.11069155 0
-0.42811871 0.06014061 -0.064946175 0
-0.55676937 0.11987305 -0.060325146 0
-0.62757492 0.19451618 -0.088613033 0
-0.68918133 0.2157793 -0.061069489 0
-0.77104759 0.28102589 -0.035103798 0
-0.85383606 0.34986877 -0.03252697 0
-0.4213438 -0.046351433 -0.090722561 0
-0.48045731 0.0016508102 -0.04749918 0
-0.5456295 0.071761131 -0.028969765 0
-0.62989521 0.14907837 -0.029505253 0
-0.70929432 0.20726871 -0.02535677 0
-0.78589153 0.26685238 -0.010466576 0
-0.86108303 0.33090878 0.0083856583 0
-0.94125938 0.3714323 0.035579681 0
-0.53983784 -0.045604706 -0.026683331 0
-0.60275555 -0.0411129 0.00094175339 0
-0.6633482 -0.064059258 0.034304142 0
-0.73157883 -0.041900635 0.077521801 0
-0.80541229 -0.0060195923 0.12256432 0
-0.80019188 -0.070522308 0.12259531 0
-0.85421848 -0.041851044 0.15866137 0
-0.91294861 0.023170471 0.19861984 0
-0.97780418 0.05178833 0.23757839 0
-0.92316055 -0.066888809 0.1922493 0
-0.96884727 -0.034328461 0.22403049 0
0.9756279 0.099421501 -0.75212383 0
0.99411201 -0.033267021 -0.78514624 0
0.93394184 0.042340279 -0.73020315 0
0.86085796 0.10186005 -0.69110155 0
0.79713345 0.12061596 -0.66528797 0
0.86605358 -0.027486801 -0.69491863 0
0.79967594 0.01574707 -0.65586042 0
0.74013519 0.091826439 -0.63472795 0
0.64011765 0.15274525 -0.59075356 0
0.57514572 0.16879368 -0.56209183 0
0.81841755 -0.1010046 -0.66474915 0
0.75516224 -0.056852341 -0.63611937 0
0.66310978 -0.0054798126 -0.60220146 0
0.59735394 0.058409691 -0.58256388 0
0.5102129 0.11992264 -0.54790783 0
0.44317913 0.17368031 -0.51890945 0
0.36909962 0.23107719 -0.50048161 0
0.28702927 0.30133343 -0.47380257 0
0.20671368 0.35518074 -0.45291948 0
0.15821743 0.37884998 -0.43823147 0
0.45119858 0.066493034 -0.53528547 0
0.39719582 0.12118435 -0.5269618 0
0.31982517 0.1835041 -0.50418949 0
0.24761677 0.23312187 -0.48100901 0
0.16777897 0.2967701 -0.46005583 0
0.078326225 0.35512257 -0.43301821 0
0.0076589584 0.40741348 -0.39978075 0
-0.080137253 0.44949055 -0.36866665 0
0.011045456 0.32603264 -0.4205246 0
-0.044343948 0.36461735 -0.41095495 0
-0.11345196 0.41779613 -0.37452936 0
-0.19455433 0.46183586 -0.32313251 0
-0.26185703 0.43499374 -0.31100225 0
-0.31601334 0.4684124 -0.27481079 0
-0.38035202 0.47997856 -0.2328105 0
-0.453125 0.45426559 -0.18100357 0
-0.49987507 0.46828842 -0.14236832 0
-0.57457924 0.45260143 -0.12058353 0
-0.61650467 0.47613811 -0.077795982 0
-0.70228958 0.45738029 -0.044942379 0
-0.73578453 0.49540615 -0.016716957 0
-0.46556282 0.099196434 -0.04067564 0
-0.53170013 0.13948631 -0.02641058 0
-0.58367443 0.19327164 -0.0087037086 0
-0.66569138 0.24272156 0.0087566376 0
-0.75116825 0.33505249 0.025217056 0
-0.82279491 0.39311123 0.058732986 0
-0.88004208 0.44498539 0.080393314 0
-0.53136063 0.1256361 -0.017096043 0
-0.60084915 0.18068981 -7.7724457e-05 0
-0.67797089 0.23990917 0.018886566 0
-0.74674892 0.28065205 0.034164429 0
-0.82492733 0.36724091 0.061625957 0
-0.91454124 0.42542076 0.08278513 0
0.95136738 0.2857132 -0.73720312 0
0.88854504 0.3421917 -0.71174765 0
0.96154785 0.13083839 -0.73498297 0
0.93151093 0.19888115 -0.72376966 0
0.8521204 0.24237061 -0.69346666 0
0.79386234 0.31815624 -0.66973162 0
0.86730385 0.14769268 -0.69059134 0
0.77319336 0.17221165 -0.65114641 0
0.72203922 0.24511528 -0.63182354 0
0.70897388 0.30383778 -0.57304001 0
0.6642561 0.19628811 -0.60190868 0
0.36977673 0.43215752 -0.47138643 0
0.30326366 0.44809055 -0.44144487 0
0.56809807 0.18781662 -0.49788713 0
0.48896217 0.22295189 -0.46916485 0
0.40259075 0.27732182 -0.44484234 0
0.33010864 0.34875298 -0.46582794 0
0.2478199 0.41230392 -0.44102716 0
0.16086864 0.45911217 -0.40885592 0
0.14266491 0.40203094 -0.41735411 0
0.048226357 0.45564079 -0.39418316 0
-0.87808609 0.47917175 0.12153864 0
0.96971607 0.43938065 -0.74454737 0
0.84108353 0.4097023 -0.69260025 0
0.7896328 0.46363544 -0.6340394 0
0.65695763 0.32210445 -0.52686739 0
0.64208984 0.36372566 -0.51153088 0
0.46425724 0.42307663 -0.44733906 0
0.51013184 0.26182175 -0.41221762 0
0.45560741 0.31199265 -0.39536524 0
0.59667492 -0.46281433 -0.74835634 0
0.49520588 -0.41809368 -0.71659088 0
0.44555759 -0.38996315 -0.70324039 0
0.36218548 -0.34195614 -0.67273712 0
0.49660492 -0.47944927 -0.71585178 0
0.40694332 -0.43316269 -0.69880819 0
0.32514191 -0.38509369 -0.65643883 0
0.25328732 -0.36918736 -0.61828709 0
0.19777393 -0.31511879 -0.57964754 0
0.20196819 -0.43132973 -0.58660507 0
0.13345909 -0.37286282 -0.55079937 0
0.057594299 -0.3339138 -0.50399923 0
-0.038732529 -0.31032944 -0.44666958 0
0.08264637 -0.46460629 -0.51324987 0
0.010640144 -0.41387844 -0.48344421 0
-0.06465435 -0.35903549 -0.43938208 0
-0.14393234 -0.31368732 -0.39400864 0
-0.22114372 -0.27148056 -0.36379623 0
-0.31543541 -0.22310543 -0.32576752 0
-0.38024139 -0.19095612 -0.30480623 0
-0.44697571 -0.16974068 -0.27637672 0
-0.099895477 -0.45097065 -0.41554976 0
-0.17518139 -0.38184929 -0.38207626 0
-0.26054382 -0.3295269 -0.34503603 0
-0.33862209 -0.2808876 -0.31368017 0
-0.4167614 -0.23791313 -0.28206873 0
-0.50426102 -0.19955635 -0.23785591 0
-0.58436489 -0.18613434 -0.18685341 0
-0.61723042 -0.19172001 -0.16749382 0
-0.67809391 -0.18278599 -0.12263775 0
0.90674686 -0.47985172 -0.7993083 0
0.85429287 -0.44066715 -0.79211855 0
0.75792599 -0.41627026 -0.76572847 0
0.66798878 -0.35240269 -0.73468637 0
0.61405182 -0.32223988 -0.71238565 0
0.54955959 -0.27910995 -0.67584896 0
0.73165035 -0.47859478 -0.76059532 0
0.64542389 -0.41463852 -0.7417984 0
0.55072594 -0.37414742 -0.71554184 0
0.47791958 -0.31399345 -0.67646217 0
0.39532471 -0.28549004 -0.64767218 0
0.31088161 -0.23781395 -0.60965633 0
0.23292065 -0.19283867 -0.57163668 0
0.14872456 -0.14381981 -0.52494478 0
0.073770523 -0.10129452 -0.48761749 0
0.29527664 -0.30784512 -0.6285944 0
0.18698692 -0.25961781 -0.56620979 0
0.094684601 -0.23022652 -0.50993109 0
0.035187721 -0.17031193 -0.4694109 0
-0.048163414 -0.12779331 -0.42926407 0
-0.12008095 -0.095779419 -0.38695002 0
0.069332123 -0.28836918 -0.50391531 0
-0.0066566467 -0.2575798 -0.45720005 0
-0.089401245 -0.21576977 -0.41475391 0
-0.18132019 -0.16897964 -0.37576675 0
-0.24825478 -0.12451458 -0.33340597 0
-0.12470531 -0.27104473 -0.39883852 0
-0.22026253 -0.21849728 -0.36527252 0
-0.29251862 -0.17992401 -0.33702803 0
-0.35590935 -0.12826061 -0.27978086 0
-0.42699146 -0.13434505 -0.22716665 0
-0.48396778 -0.14827633 -0.19082546 0
-0.55239582 -0.1442337 -0.1429534 0
-0.60392761 -0.13630295 -0.10168552 0
-0.61420822 -0.16817474 -0.14009142 0
-0.66472244 -0.15070724 -0.080323219 0
-0.73952293 -0.15315628 -0.040280342 0
-0.78309155 -0.15578175 0.0048313141 0
-0.86200142 -0.15536308 0.04984045 0
-0.95234108 -0.12883759 0.087777138 0
-0.99509525 -0.10694695 0.1139617 0
-0.89749336 -0.15890884 0.10627937 0
-0.95698452 -0.1307106 0.11613464 0
0.89931393 -0.33458519 -0.76536798 0
0.81673527 -0.28515148 -0.73344755 0
0.75809765 -0.24232388 -0.71427536 0
0.66255665 -0.18524551 -0.66948509 0
0.58952427 -0.15363121 -0.63634586 0
0.94990158 -0.45725536 -0.79894066 0
0.8891449 -0.39257526 -0.77795982 0
0.78656769 -0.34775639 -0.74779558 0
0.70510769 -0.30249977 -0.71715307 0
0.63419914 -0.24994946 -0.68583965 0
0.55039501 -0.21348381 -0.65397644 0
0.45867538 -0.16451263 -0.60968733 0
0.37947083 -0.12624931 -0.58123779 0
0.29540443 -0.073093414 -0.54111958 0
0.22464371 -0.013252258 -0.51377344 0
0.14665127 0.041204453 -0.49094915 0
0.43107128 -0.21831036 -0.62190247 0
0.31711769 -0.14967155 -0.56397772 0
0.26464367 -0.13858795 -0.55797958 0
0.18295479 -0.089321136 -0.52377033 0
0.10035706 -0.054979324 -0.48755741 0
0.049398422 -0.047935486 -0.42479897 0
-0.012615204 -0.075377464 -0.38123608 0
-0.076163292 -0.075363159 -0.33869362 0
-0.57587528 0.20943451 -0.15444136 0
-0.13795853 -0.078038216 -0.3065753 0
-0.20582199 -0.078347206 -0.26198816 0
-0.25807953 -0.068791389 -0.21739864 0
-0.63676453 0.19825268 -0.11284685 0
-0.7012558 0.20792103 -0.065921783 0
-0.78242779 0.26208305 -0.041151047 0
-0.85314274 0.32885265 -0.029326439 0
-0.32238483 -0.089172363 -0.18739223 0
-0.38746834 -0.083423615 -0.13998985 0
-0.43115425 -0.046209335 -0.082031727 0
-0.55152035 0.089709282 -0.088486671 0
-0.43734264 -0.10569096 -0.12748003 0
-0.50713444 -0.084881783 -0.074462891 0
-0.57697964 -0.055880547 -0.022995472 0
-0.6299448 -0.04053688 0.019302368 0
-0.57002544 -0.12942028 -0.070909977 0
-0.62305832 -0.10982418 -0.020740032 0
-0.69781685 -0.089120865 0.041477203 0
-0.76734638 -0.037471771 0.10265493 0
-0.76211166 -0.13105297 0.056009293 0
-0.81908417 -0.10550308 0.10808516 0
-0.90594959 -0.079271317 0.15970421 0
-0.97703648 -0.05824852 0.18768549 0
-0.96780014 -0.09863472 0.16587353 0
0.96609974 -0.11832237 -0.76341677 0
0.84467602 -0.12945366 -0.68831682 0
0.77106285 -0.084047318 -0.65452623 0
0.67495728 -0.028830528 -0.62138844 0
0.57903194 0.0063791275 -0.60558367 0
0.31740665 0.16082096 -0.5186429 0
0.24217606 0.20676804 -0.49504566 0
0.16017342 0.25295353 -0.46750164 0
0.066719055 0.30537796 -0.45130014 0
-0.02369976 0.35383797 -0.41726828 0
-0.10320282 0.40044975 -0.39192486 0
-0.15868092 0.41483593 -0.36430931 0
0.92966557 -0.27204132 -0.75049353 0
0.8639555 -0.22749329 -0.71911049 0
0.78515911 -0.18427753 -0.68626356 0
0.71871662 -0.12966633 -0.6582551 0
0.62380409 -0.092291832 -0.61997986 0
0.53587914 -0.047941208 -0.58782625 0
0.44519424 0.013275146 -0.55523252 0
0.37806129 0.038132668 -0.54347563 0
0.29672241 0.09055233 -0.51543045 0
0.20120716 0.14221954 -0.48907137 0
0.12189388 0.19626522 -0.46836662 0
0.053747177 0.26704407 -0.45707273 0
-0.046442986 0.31760597 -0.42423391 0
-0.13424969 0.35031509 -0.40119076 0
-0.21403122 0.39409447 -0.35572624 0
-0.29491806 0.42407608 -0.30899477 0
-0.36460686 0.46321106 -0.26002979 0
0.61530972 -0.15778351 -0.62628412 0
0.49885559 -0.11049175 -0.59097242 0
0.41449165 -0.055671692 -0.56160021 0
0.31111336 -0.012246132 -0.52251863 0
0.25905895 0.034900665 -0.50462866 0
0.15985489 0.092387199 -0.47839785 0
0.069739342 0.11553288 -0.45621729 0
-0.39309216 0.43367386 -0.26167583 0
-0.47755909 0.43745422 -0.1934576 0
-0.60024261 0.44531536 -0.11246872 0
-0.6704874 0.4512825 -0.072004318 0
-0.055679321 -0.0081167221 -0.28090096 0
-0.13563824 0.013523102 -0.22525835 0
-0.88132858 0.44644356 0.040325165 0
-0.92398357 0.47196579 0.07277298 0
-0.11099434 -0.040102005 -0.26374388 0
-0.1681881 -0.028717041 -0.22214174 0
-0.24752522 -0.0019521713 -0.16770029 0
-0.31297398 0.014445305 -0.12497902 0
-0.3990593 0.072214127 -0.082253933 0
-0.49740982 0.13043118 -0.052074909 0
-0.59399796 0.1837616 -0.030334949 0
-0.67481041 0.23261833 -0.008767128 0
-0.75060749 0.29452324 0.0051465034 0
-0.83016777 0.35673618 0.02020359 0
-0.91420269 0.39193916 0.040969372 0
-0.99898148 0.43788338 0.085144997 0
-0.28927612 -0.04166317 -0.15903378 0
-0.36653996 -0.016747475 -0.10452795 0
-0.44182014 0.012034416 -0.063233852 0
-0.5141716 0.074323654 -0.046272755 0
-0.59020042 0.14018726 -0.029985905 0
-0.68241405 0.20027161 0.0041575432 0
-0.48907948 -0.034777641 -0.047804356 0
-0.52750683 -0.0040893555 -0.032155514 0
-0.78606987 -0.0063934326 0.11465216 0
-0.83179665 0.011554718 0.14365625 0
-0.90159416 0.057653427 0.1853404 0
-0.88359261 -0.018413544 0.18867302 0
-0.95852089 9.3460083e-05 0.23167515 0
-0.99631214 -0.017398834 0.24814272 0
0.90964031 0.079242706 -0.70640945 0
0.86252308 0.099319458 -0.68834162 0
0.96404934 -0.035687447 -0.76096725 0
0.93329525 0.029846191 -0.72786236 0
0.80525494 0.068875313 -0.65823126 0
0.73042488 0.11257648 -0.62998486 0
0.64591312 0.15450954 -0.5949831 0
0.56494808 0.15816498 -0.5667305 0
0.3700161 0.27327919 -0.50594282 0
0.31855488 0.31851101 -0.48944902 0
0.22463512 0.37304878 -0.45697021 0
0.13488579 0.42366505 -0.42269993 0
0.038983345 0.4760437 -0.38940525 0
0.85763931 -0.04923439 -0.68664217 0
0.76699448 -0.036929131 -0.64049387 0
0.68746853 0.021947861 -0.61588192 0
0.60417938 0.043806076 -0.59421253 0
0.52843666 0.11085224 -0.55811834 0
0.44720745 0.16248703 -0.52540302 0
0.37249851 0.2096262 -0.50559902 0
0.25177193 0.2622242 -0.48693752 0
0.18958378 0.3105278 -0.46567202 0
0.10424805 0.35443306 -0.43554592 0
0.017002106 0.41289234 -0.40138769 0
-0.061972618 0.45814323 -0.37419081 0
-0.13721371 0.49616241 -0.32891607 0
-0.266716 0.48107433 -0.28721237 0
-0.46070957 0.4806366 -0.14856672 0
-0.59352112 0.47604084 -0.088829041 0
-0.80513859 0.43949699 0.080282688 0
-0.87802029 0.4793005 0.10397339 0
-0.78274059 0.39443111 0.05701828 0
-0.87092304 0.43945122 0.10132265 0
-0.92308521 0.49901962 0.13853455 0
0.9383831 0.36773396 -0.73802948 0
0.85181427 0.39059925 -0.70026398 0
0.91362 0.24512577 -0.71941566 0
0.86241341 0.3122263 -0.70098639 0
0.93991756 0.13689804 -0.72508955 0
0.85809708 0.17283249 -0.69540024 0
0.77693558 0.2382679 -0.65763903 0
0.68902397 0.21452427 -0.61377907 0
0.69960976 0.33606148 -0.56227684 0
0.45530128 0.41070652 -0.48874378 0
0.38762665 0.48276234 -0.47747564 0
0.63132 0.17223644 -0.56168747 0
0.58307838 0.20584393 -0.49355268 0
0.4953289 0.26984596 -0.44703197 0
0.41394043 0.31192684 -0.45928478 0
0.348423 0.38286304 -0.46128702 0
0.26209259 0.43581104 -0.44321251 0
0.17649364 0.47898293 -0.40945101 0
0.58606911 0.18174362 -0.50086498 0
0.50725651 0.23100853 -0.46437454 0
0.42780781 0.26900578 -0.43307161 0
0.9916153 0.44668102 -0.74840546 0
0.68181705 0.37143421 -0.54081917 0
0.50304222 0.41390324 -0.46409035 0
0.51999664 0.29209995 -0.41068172 0
0.48418427 0.33023071 -0.40370226 0
0.65961361 -0.49321842 -0.74175549 0
0.58337402 -0.43783379 -0.72417784 0
0.5091753 -0.3993082 -0.70540571 0
0.41398811 -0.35796738 -0.66654491 0
0.34083843 -0.31647396 -0.63867426 0
0.47559738 -0.46319962 -0.70604801 0
0.37818432 -0.41558743 -0.67261457 0
0.29794312 -0.35964966 -0.62881947 0
0.22373772 -0.32171822 -0.5843091 0
0.16207027 -0.27244949 -0.54295301 0
0.25318336 -0.45906067 -0.60103035 0
0.18222713 -0.4007864 -0.57025957 0
0.098720551 -0.34284019 -0.51694393 0
0.030667305 -0.28598213 -0.47006369 0
-0.057197571 -0.25515938 -0.41780806 0
0.06109333 -0.42418194 -0.50055122 0
-0.026597977 -0.37096405 -0.45037556 0
-0.080067635 -0.32326126 -0.41459608 0
-0.15927315 -0.26477337 -0.37504339 0
-0.2492342 -0.2122612 -0.34361887 0
-0.34001637 -0.16174984 -0.30730677 0
-0.39317703 -0.15269375 -0.27859163 0
-0.054859161 -0.45979118 -0.42791796 0
-0.13862133 -0.40488243 -0.38969374 0
-0.20812321 -0.35611725 -0.35479164 0
-0.29148006 -0.30590057 -0.3229351 0
-0.36327934 -0.2405405 -0.29535294 0
-0.45191288 -0.18461704 -0.25318146 0
-0.50734329 -0.17791653 -0.22053719 0
-0.1385479 -0.4826746 -0.37434483 0
-0.25550842 -0.39422989 -0.33225012 0
-0.30355167 -0.35533142 -0.31069851 0
-0.38685894 -0.29811096 -0.27777338 0
-0.47868538 -0.24934006 -0.23375797 0
-0.56468487 -0.18802261 -0.17893839 0
-0.63963223 -0.17834091 -0.12463045 0
-0.68789005 -0.16618252 -0.084532261 0
