# .PCD v0.7 - Point Cloud Data file format
VERSION 0.7
FIELDS x y z intensity
SIZE 4 4 4 4
TYPE F F F F
COUNT 1 1 1 1
WIDTH 1295
HEIGHT 1
VIEWPOINT 0 0 0 1 0 0 0
POINTS 1295
DATA ascii
0.0061283112 -0.12145185 0.21578121 0
-0.073765755 -0.11565065 0.20262766 0
-0.028533936 -0.018506765 0.2828846 0
-0.069320679 -0.060117245 0.2466712 0
0.024073601 0.10855508 0.34027338 0
-0.014692307 0.059047699 0.3189187 0
0.074917793 0.23056507 0.40150023 0
0.030888557 0.18760991 0.36995459 0
0.12592125 0.34442949 0.45939159 0
0.095273018 0.29567289 0.43390894 0
0.17331123 0.45507002 0.52219105 0
0.140625 0.41489697 0.48195839 0
0.021130562 -0.45378971 -0.25647736 0
-0.065325737 -0.46935177 -0.29400396 0
-0.012122154 -0.40680122 -0.18419218 0
-0.086006165 -0.42522526 -0.21490526 0
-0.03280735 -0.36749864 -0.12029743 0
-0.11009789 -0.37615347 -0.13070631 0
-0.18127346 -0.38226533 -0.14186001 0
-0.060905457 -0.32297587 -0.060208321 0
-0.12112713 -0.31536722 -0.043918133 0
-0.21498108 -0.32576251 -0.064709663 0
-0.16684437 -0.24664426 0.030754566 0
-0.1196394 -0.16735077 0.12417984 0
-0.18058681 -0.16583753 0.084823608 0
-0.1460886 -0.06380868 0.15971899 0
-0.16421032 -0.10548997 0.17301655 0
-0.095645905 0.053164244 0.22686195 0
-0.11280537 -0.015970945 0.20191145 0
-0.04532814 0.16317081 0.29444122 0
-0.081451416 0.11900282 0.25695753 0
0.012897491 0.2875905 0.35559177 0
-0.020298004 0.22515821 0.31740952 0
0.07331562 0.40385795 0.40766239 0
0.019147873 0.35274887 0.38203859 0
0.12468147 0.4982729 0.48326921 0
0.072252274 0.47032523 0.43876839 0
-0.12309456 -0.47765112 -0.32948542 0
-0.20099735 -0.49345255 -0.33772993 0
-0.27710724 -0.4904716 -0.32132101 0
-0.19783783 -0.43091369 -0.23325968 0
-0.31470299 -0.45600104 -0.25274754 0
-0.27268982 -0.38227201 -0.16276217 0
-0.31559277 -0.40545392 -0.19983435 0
-0.27671909 -0.30587196 -0.099170685 0
-0.24282551 -0.19943452 0.003100872 0
-0.27523041 -0.22006702 -0.034669399 0
-0.25706673 -0.12637854 0.041055202 0
-0.30113888 -0.13354397 0.016533375 0
-0.20611572 -0.013197422 0.10749435 0
-0.23497963 -0.054491758 0.090401173 0
-0.14775276 0.10675192 0.1664691 0
-0.18745041 0.057053328 0.1425457 0
-0.11358261 0.2305994 0.23385429 0
-0.14808655 0.16234541 0.20048666 0
-0.025227547 0.30831337 0.29490614 0
-0.08528614 0.28904629 0.27440596 0
-0.0014009476 0.4475956 0.34627438 0
-0.037120819 0.40997529 0.32846975 0
-0.092150688 0.35814095 0.28932858 0
-0.050756454 0.47032475 0.35692263 0
-0.43110752 -0.46478438 -0.27576113 0
-0.37105751 -0.37135768 -0.22513008 0
-0.44504166 -0.40599012 -0.27439165 0
-0.33998203 -0.2568841 -0.1246686 0
-0.38018131 -0.28727698 -0.174016 0
-0.36085987 -0.18405819 -0.087330818 0
-0.35212803 -0.13492727 -0.0091285706 0
-0.46047211 -0.16317654 0.0033226013 0
-0.25353909 0.014312506 0.06696701 0
-0.30068684 -0.031059742 0.049195766 0
-0.40638065 -0.036434889 0.069305897 0
-0.48519707 -0.11161423 0.021884441 0
-0.21436691 0.15803361 0.1201787 0
-0.25627136 0.10115814 0.091134548 0
-0.35442638 0.064068317 0.078954697 0
-0.40536594 0.023952723 0.090698242 0
-0.21155167 0.23752522 0.15371847 0
-0.089344978 0.38111901 0.26307583 0
-0.15664577 0.34725809 0.21745062 0
-0.18503666 0.2682972 0.19640684 0
-0.10867882 0.45115876 0.2818327 0
-0.15016174 0.4245894 0.22164536 0
-0.44438457 -0.32197499 -0.27012968 0
-0.5191431 -0.3817749 -0.29232836 0
-0.45183849 -0.24701142 -0.22394466 0
-0.41375446 -0.18464327 -0.14459753 0
-0.46547508 -0.1902504 -0.12882566 0
-0.5525198 -0.16670561 0.014230728 0
-0.69496536 -0.25501895 -0.014401436 0
-0.7508831 -0.27002692 -0.034129143 0
-0.57346439 -0.1479528 0.0078258514 0
-0.66128063 -0.18482876 0.017522335 0
-0.45345592 0.034313202 0.0785923 0
-0.55519962 -0.0083498955 0.066289902 0
-0.63381958 -0.057783842 0.061265945 0
-0.23351383 0.30331063 0.13502169 0
-0.3490324 0.20523477 0.14903116 0
-0.41384792 0.15360618 0.12588263 0
-0.50850868 0.10548162 0.11091089 0
-0.5614233 0.080542564 0.097976685 0
-0.21033669 0.36648202 0.16725111 0
-0.32869911 0.33262324 0.17127562 0
-0.38116264 0.28221321 0.1716876 0
-0.45355701 0.25306821 0.17176008 0
-0.5091238 0.18511486 0.16014051 0
-0.19647789 0.45261264 0.20602989 0
-0.37373734 0.39329481 0.20014811 0
-0.57979393 -0.40394306 -0.33903027 0
-0.68743992 -0.49830294 -0.3471427 0
-0.76883316 -0.49448037 -0.35360146 0
-0.56764221 -0.29715586 -0.33298922 0
-0.51641273 -0.23937297 -0.27723265 0
-0.55145836 -0.23895788 -0.26793242 0
-0.75494862 -0.31394124 -0.14811659 0
-0.8752079 -0.32572532 -0.13101292 0
-0.81201553 -0.27195454 -0.039536476 0
-0.88189888 -0.2872889 -0.070259571 0
-0.74922943 -0.15783739 0.026943207 0
-0.83285713 -0.15135384 0.026526928 0
-0.93423939 -0.23373151 0.0025644302 0
-0.67240143 -0.031308174 0.061852455 0
-0.76101303 -0.079632282 0.050242901 0
-0.89917564 -0.085170269 0.062599659 0
-0.56041145 0.16206717 0.13496017 0
-0.63158417 0.12217665 0.12050343 0
-0.73948288 0.055072546 0.10067272 0
-0.80709362 -0.0071461201 0.08220768 0
-0.55897331 0.21490479 0.15674973 0
-0.67259121 0.19962072 0.14409685 0
-0.34980202 0.46623421 0.21680593 0
-0.4313345 0.38050246 0.19730854 0
-0.52552795 0.33195162 0.19459581 0
-0.62616825 0.30537868 0.20689535 0
-0.47138023 0.49526501 0.25905418 0
-0.90832138 -0.48716259 -0.35414267 0
-0.89439869 -0.38968182 -0.22038841 0
-0.96482563 -0.38484597 -0.2226963 0
-0.91555977 -0.36311722 -0.18325853 0
-0.9937973 -0.36051488 -0.18321943 0
-0.83189201 0.064353943 0.10167408 0
-0.70950413 0.21153927 0.1513629 0
-0.77523232 0.18562984 0.1439147 0
-0.9233284 0.13658071 0.15659094 0
-0.67393208 0.34530449 0.21480036 0
-0.7370882 0.2839601 0.18054962 0
-0.85629225 0.25514579 0.18894577 0
-0.59403992 0.45526862 0.27016401 0
-0.69917488 0.40689707 0.24348307 0
-0.7841177 0.36733365 0.22564697 0
-0.72182846 0.4671576 0.26868773 0
-0.87887096 0.29030538 0.19046402 0
-0.97864008 0.22628903 0.18138313 0
-0.84029722 0.3931551 0.22634697 0
-0.91462421 0.34322691 0.21729183 0
-0.99643803 0.33018088 0.21751785 0
-0.77397585 0.48778892 0.27688265 0
-0.82827091 0.47428703 0.27261925 0
-0.90566778 0.44973946 0.26815319 0
-0.96227646 0.46828055 0.26781368 0
0.97260046 0.088486671 0.12631369 0
0.93717623 0.14124274 0.193048 0
0.99319553 0.22936535 0.27034998 0
0.91319036 0.20252681 0.26516724 0
0.9693327 0.3017695 0.35569382 0
0.87203741 0.2608254 0.33686066 0
0.80381966 0.27348137 0.36050892 0
0.93282127 0.36394191 0.42729139 0
0.85795164 0.33255839 0.40899992 0
0.79671431 0.30629301 0.39089966 0
0.91103649 0.43242168 0.496593 0
0.81635952 0.3949368 0.47290564 0
0.89235687 0.49880314 0.56125402 0
0.79620647 0.47811556 0.55411768 0
0.73793602 0.44192171 0.52608967 0
0.95954132 -0.17624688 -0.18693018 0
0.92835426 -0.12974405 -0.1231966 0
0.97629833 -0.05751276 -0.047441483 0
0.88606358 -0.080406904 -0.051393986 0
0.9714241 0.0091559887 0.034530163 0
0.85712528 -0.020795107 0.028030872 0
0.79927826 -0.046136379 0.01239872 0
0.92797709 0.058149099 0.10396147 0
0.84104061 0.03884244 0.10407019 0
0.74416351 0.012398005 0.10285187 0
0.89117479 0.12460065 0.18762827 0
0.82937956 0.097463131 0.17569208 0
0.71527672 0.072162867 0.18170929 0
0.65394878 0.069836378 0.19636059 0
0.78616667 0.16599607 0.25926733 0
0.69744968 0.13233232 0.24791813 0
0.62201881 0.12468195 0.26237106 0
0.78298759 0.23310852 0.32451916 0
0.67586613 0.2031312 0.3178196 0
0.57107162 0.17970943 0.33046055 0
0.73078394 0.30097914 0.39487219 0
0.64880419 0.26444364 0.3799839 0
0.56188107 0.23576856 0.38228703 0
0.71119213 0.36952972 0.46156693 0
0.6086545 0.33632731 0.45666409 0
0.53580999 0.29519892 0.44222593 0
0.68016815 0.43727994 0.52911901 0
0.59013128 0.39701748 0.51451731 0
0.50457335 0.36828279 0.51684284 0
0.56180573 0.46511102 0.58319473 0
0.45193243 0.43170142 0.59116173 0
0.43185997 0.4917779 0.65644598 0
0.98488426 -0.3666656 -0.45322752 0
0.95183754 -0.31780005 -0.36806726 0
0.8700037 -0.34816718 -0.380126 0
0.93400574 -0.25906563 -0.28333044 0
0.83451271 -0.29885745 -0.29829121 0
0.75965881 -0.30406094 -0.27800894 0
0.91900349 -0.20659685 -0.21584749 0
0.81790257 -0.2369802 -0.21751308 0
0.72693062 -0.25726533 -0.20550299 0
0.87140179 -0.14526653 -0.12859392 0
0.80618382 -0.17323518 -0.13924646 0
0.69827652 -0.21576524 -0.14320469 0
0.62567234 -0.21261716 -0.11061621 0
0.77743912 -0.10562658 -0.050988197 0
0.68360901 -0.14835191 -0.060464859 0
0.58714581 -0.19042921 -0.069489956 0
0.73611546 -0.066432953 0.012817383 0
0.66084194 -0.095288992 0.012576103 0
0.57016563 -0.13368154 0.0023713112 0
0.48494053 -0.13845921 0.024216652 0
0.73149395 -0.016290665 0.070340157 0
0.63939285 -0.024101496 0.099250793 0
0.53742599 -0.064644575 0.085647106 0
0.473876 -0.11202407 0.053145885 0
0.606637 0.030818224 0.16746712 0
0.50652981 0.0074467659 0.17004251 0
0.42879105 -0.028184652 0.15479374 0
0.58394623 0.088971853 0.23531532 0
0.49041653 0.065712452 0.23578596 0
0.3919735 0.030856133 0.22972584 0
0.54885769 0.13648987 0.29490757 0
0.46551037 0.11742258 0.29698038 0
0.37428856 0.090088844 0.29748249 0
0.24327374 0.06808567 0.33513641 0
0.50189686 0.21021461 0.38018751 0
0.43999481 0.18757534 0.37693501 0
0.35370731 0.15068889 0.36459208 0
0.26583385 0.11624146 0.36946106 0
0.48859453 0.25644398 0.42359495 0
0.40922928 0.26726341 0.45921087 0
0.33020496 0.21820784 0.44070959 0
0.22622013 0.18127608 0.44219446 0
0.46551418 0.32616663 0.49352264 0
0.38661623 0.33009768 0.52330732 0
0.28485203 0.28562355 0.51424026 0
0.22123718 0.26823115 0.50610781 0
0.34186363 0.38893914 0.58520174 0
0.26673508 0.3700161 0.56631231 0
0.31831837 0.47164893 0.64407492 0
0.98103428 -0.43225241 -0.55039406 0
0.89723396 -0.46080852 -0.55770588 0
0.80299759 -0.48618793 -0.55947208 0
0.94517231 -0.40220451 -0.48751831 0
0.85764122 -0.41141844 -0.47193289 0
0.74590492 -0.43134809 -0.46363401 0
0.6867609 -0.4322145 -0.45137691 0
0.83043766 -0.37713909 -0.40615559 0
0.74992657 -0.37466455 -0.37766504 0
0.65091705 -0.41349268 -0.4015727 0
0.72079659 -0.32199574 -0.2950983 0
0.63814354 -0.35698199 -0.31418753 0
0.55409718 -0.38540626 -0.31833172 0
0.69048595 -0.28702569 -0.235322 0
0.60548496 -0.29654408 -0.21811914 0
0.51776314 -0.33693457 -0.23695564 0
0.45818043 -0.37353611 -0.24536991 0
0.58234882 -0.25430942 -0.14700794 0
0.49732208 -0.28675318 -0.15657568 0
0.40397835 -0.32289624 -0.15691996 0
0.56803894 -0.2225225 -0.096940041 0
0.48565674 -0.2247169 -0.066886425 0
0.39352608 -0.26131964 -0.075697422 0
0.29885578 -0.29782844 -0.081168175 0
0.4429903 -0.14820457 0.027233124 0
0.36979771 -0.208606 -0.0027813911 0
0.26747704 -0.24220848 0.002146244 0
0.17059803 -0.26598883 0.016127586 0
0.39834499 -0.10512447 0.091305733 0
0.33168507 -0.15634465 0.071300507 0
0.25447845 -0.18457103 0.078819752 0
0.15102959 -0.20635819 0.095807076 0
0.32567978 -0.068588495 0.16113234 0
0.22871494 -0.12370729 0.15343142 0
0.14334488 -0.14703679 0.17023897 0
0.065587997 -0.17153454 0.16172838 0
0.2889328 -0.01445961 0.23200417 0
0.20733929 -0.050196648 0.23611641 0
0.090630531 -0.10173702 0.23751068 0
0.034506798 -0.1551609 0.19317913 0
0.27067471 0.036878347 0.29134178 0
0.1788063 0.0054314137 0.30192757 0
0.060852051 -0.024766445 0.3051486 0
0.0092849731 -0.065028191 0.27573252 0
0.12670422 0.096215725 0.36633015 0
0.065815926 0.063026667 0.34492302 0
0.16349411 0.17328858 0.42684841 0
0.12451649 0.16798282 0.40843201 0
0.20557213 0.33658695 0.488626 0
0.16539001 0.2737689 0.45729303 0
0.21974468 0.40867758 0.52449894 0
0.2034874 0.48814964 0.54533815 0
0.74293804 -0.49818897 -0.5638814 0
0.65415668 -0.47992516 -0.49791718 0
0.6106472 -0.4429512 -0.43108273 0
0.5494566 -0.44593883 -0.40881681 0
0.46387482 -0.47979522 -0.40228176 0
0.51075459 -0.40245366 -0.32935953 0
0.42941189 -0.42751217 -0.31325483 0
0.34638882 -0.46615624 -0.32141352 0
0.37944317 -0.38065481 -0.22509003 0
0.31258965 -0.42366791 -0.246696 0
0.22256088 -0.45355654 -0.24507189 0
0.30747032 -0.34502292 -0.14707994 0
0.20838737 -0.40523291 -0.1757412 0
0.13357544 -0.41356921 -0.17060423 0
0.25431919 -0.32052565 -0.091547966 0
0.16837883 -0.34111786 -0.085833073 0
0.082732201 -0.36762905 -0.105474 0
0.14017105 -0.28633332 -0.0017075539 0
0.049119949 -0.30098367 -0.015477657 0
0.049212456 -0.25143051 0.055811882 0
-0.039161682 -0.26084328 0.046420574 0
0.017281532 -0.20107031 0.12689066 0
-0.064759254 -0.20265865 0.12159681 0
-0.035719872 -0.10983133 0.20396757 0
-0.083765984 -0.14044213 0.17929888 0
-0.0044984818 0.01754427 0.26133108 0
-0.020219803 -0.022155523 0.24622011 0
0.058656693 0.14589858 0.31710434 0
0.0077543259 0.08415246 0.2943635 0
0.11488056 0.24548817 0.39002609 0
0.056231499 0.20312023 0.33945036 0
0.018604279 0.16617799 0.33192539 0
0.11242771 0.34734797 0.41185331 0
0.068351746 0.27150106 0.38899517 0
0.15389538 0.4540689 0.46914434 0
0.11566734 0.41927743 0.43452644 0
0.12151527 -0.48129511 -0.26475382 0
0.034492493 -0.4852767 -0.27946568 0
0.071364403 -0.43162346 -0.19512129 0
-0.0072832108 -0.43675351 -0.20309687 0
0.037893295 -0.36816072 -0.10988426 0
-0.03710556 -0.39656901 -0.1458869 0
-0.11197758 -0.37934971 -0.1182909 0
-0.053596497 -0.33810711 -0.060896397 0
-0.15393257 -0.33908439 -0.061807156 0
-0.08769989 -0.27610207 0.025597095 0
-0.16111279 -0.29412198 -0.0083332062 0
-0.13755608 -0.18194747 0.093584538 0
-0.16994953 -0.22903872 0.044167042 0
-0.093673706 -0.055866241 0.16113138 0
-0.13919544 -0.093870878 0.13374758 0
-0.033506393 0.054115057 0.22788715 0
-0.10285091 0.019039631 0.17694521 0
-0.061116219 0.14592075 0.23693466 0
-0.10238934 0.086703062 0.21986437 0
-0.010306358 0.24579358 0.2867794 0
-0.021811485 0.18070436 0.27601576 0
0.049921989 0.36671734 0.34993267 0
-0.0040340424 0.33330989 0.31642818 0
0.093424797 0.46057129 0.41952372 0
0.04679966 0.45842505 0.37224627 0
-0.11464119 -0.4939239 -0.32095671 0
-0.064364433 -0.45819068 -0.23731184 0
-0.14201546 -0.44821286 -0.22972965 0
-0.23880577 -0.45940995 -0.23371792 0
-0.16324902 -0.39771152 -0.14607668 0
-0.24751759 -0.40545249 -0.17059183 0
-0.20937347 -0.3529532 -0.095116615 0
-0.26935768 -0.32207012 -0.11273479 0
-0.22930241 -0.26028872 -0.041910172 0
-0.20670795 -0.16251493 0.028219223 0
-0.22974682 -0.16979837 0.019270897 0
-0.20213985 -0.067042828 0.071080208 0
-0.26299477 -0.11568475 0.031470299 0
-0.16059208 0.059415102 0.11533213 0
-0.20516777 0.010514975 0.098006725 0
-0.12285614 0.18711805 0.17385054 0
-0.15491104 0.12752008 0.1496253 0
-0.078918457 0.31463647 0.23018837 0
-0.11368752 0.25072336 0.21482182 0
-0.021067619 0.40841508 0.2944355 0
-0.0671978 0.37697411 0.26907253 0
-0.26519775 -0.47366261 -0.27660084 0
-0.3105793 -0.39123154 -0.21255684 0
-0.36840057 -0.45645547 -0.25788736 0
-0.32344246 -0.31242061 -0.17345858 0
-0.30196953 -0.22900033 -0.095757008 0
-0.34157944 -0.2440505 -0.12494707 0
-0.30403423 -0.15552521 -0.023099422 0
-0.39659882 -0.1879344 -0.0077934265 0
-0.47639847 -0.22528863 -0.027237415 0
-0.24422646 -0.022640467 0.030680656 0
-0.33872032 -0.067217112 0.025295734 0
-0.43062973 -0.10596251 0.014788151 0
-0.21648216 0.09005475 0.072282791 0
-0.36786461 0.01875782 0.063314915 0
-0.16850758 0.22091746 0.1310854 0
-0.21009731 0.19031119 0.1145277 0
-0.32766438 0.15965891 0.10990572 0
-0.16529369 0.30505824 0.16170645 0
-0.10459805 0.4923296 0.20652676 0
-0.13098907 0.42180395 0.21355009 0
-0.18391514 0.37902331 0.17917919 0
-0.41328335 -0.47486711 -0.29539728 0
-0.38676167 -0.35794163 -0.26378822 0
-0.42745686 -0.37678051 -0.29936361 0
-0.50886154 -0.43504691 -0.30926609 0
-0.39435959 -0.28027654 -0.21434116 0
-0.41920376 -0.21233034 -0.17284822 0
-0.47807884 -0.24419069 -0.11174583 0
-0.61158562 -0.25192094 -0.0244174 0
-0.7328949 -0.30839872 -0.057767391 0
-0.53303432 -0.15901709 -0.0013380051 0
-0.61525249 -0.16089749 0.0076117516 0
-0.69055939 -0.21501708 -0.011250496 0
-0.49856377 -0.017896175 0.054406166 0
-0.59726524 -0.062705994 0.052530289 0
-0.69262314 -0.079414368 0.0538764 0
-0.43504047 0.10848522 0.11189127 0
-0.51202488 0.087050915 0.094740868 0
-0.61602211 0.0075724125 0.076033115 0
-0.30392551 0.28844094 0.14269972 0
-0.38360214 0.22662973 0.14436817 0
-0.48087788 0.21186686 0.15055084 0
-0.17994404 0.45903397 0.16752911 0
-0.20408154 0.38389683 0.16210604 0
-0.33363152 0.36830449 0.18416357 0
-0.40418911 0.28250146 0.15938663 0
-0.53327274 0.24990702 0.16851664 0
-0.3237009 0.49701476 0.23850632 0
-0.3562727 0.41338944 0.19065523 0
-0.43629074 0.37142992 0.20706606 0
-0.40443707 0.49757361 0.24949884 0
-0.5209856 -0.34974432 -0.33296585 0
-0.53939533 -0.38177228 -0.34643841 0
-0.45054722 -0.27074862 -0.25430822 0
-0.48873329 -0.27668071 -0.29092312 0
-0.4672451 -0.22460771 -0.24484158 0
-0.58596802 -0.24382925 -0.23355198 0
-0.6723156 -0.30786705 -0.16871262 0
-0.83876133 -0.36990094 -0.16743946 0
-0.81761074 -0.30628157 -0.071111679 0
-0.8710022 -0.3457377 -0.13379812 0
-0.75688648 -0.20375538 -0.0074286461 0
-0.8317585 -0.20290351 -0.0097632408 0
-0.92297554 -0.2720387 -0.037471771 0
-0.79451847 -0.10686088 0.046449661 0
-0.90573215 -0.13918877 0.040040493 0
-0.6469593 0.030661106 0.066978931 0
-0.7444191 -0.01656127 0.067516804 0
-0.8087492 -0.052788019 0.055191517 0
-0.59108257 0.17739654 0.13547659 0
-0.68649864 0.12684417 0.11226654 0
-0.77328396 0.075742006 0.091493607 0
-0.63769913 0.24776435 0.16976595 0
-0.7264843 0.27237344 0.1738081 0
-0.48554325 0.41301918 0.20739269 0
-0.58257103 0.38003516 0.21532011 0
-0.67926598 0.34217238 0.21409988 0
-0.50210476 0.49459219 0.26004314 0
-0.61098957 0.47954559 0.26606846 0
-0.54391575 -0.25595498 -0.34314251 0
-0.90975475 -0.37727189 -0.19764662 0
-0.96125126 -0.33584309 -0.13460112 0
-0.91362762 -0.019044399 0.093599319 0
-0.93410587 0.082727194 0.13574839 0
-0.77522659 0.22123218 0.1361928 0
-0.85446167 0.1714077 0.13961935 0
-0.7682066 0.3341403 0.19667053 0
-0.90603304 0.24994802 0.16149616 0
-0.73823452 0.42809963 0.23366022 0
-0.81085253 0.38989067 0.21913195 0
-0.87835741 0.32762361 0.20824957 0
-0.98127508 0.18639994 0.14945507 0
-0.85653353 0.44385171 0.23588324 0
-0.94459867 0.38806081 0.2402792 0
-0.99744844 0.47565103 0.28257275 0
0.075187683 -0.20283985 0.31056452 0
0.17968369 -0.44371343 -0.014303207 0
0.10052776 -0.48612022 -0.055336475 0
0.19928646 -0.42004752 0.017929077 0
0.091696739 -0.41663671 0.034705639 0
0.0030460358 -0.4366231 0.018653393 0
-0.07352829 -0.44634986 0.016764164 0
0.14737225 -0.33556461 0.1302228 0
0.063793182 -0.35775352 0.11345482 0
-0.029494286 -0.38073945 0.09503746 0
-0.096317291 -0.41034532 0.066725731 0
0.11445522 -0.28298998 0.20550776 0
0.035867691 -0.30265737 0.18728733 0
-0.073355675 -0.3067584 0.17327213 0
0.095621109 -0.24860406 0.2523284 0
0.017302513 -0.23068619 0.25869894 0
-0.066921234 -0.25391006 0.20792913 0
0.060471535 -0.12184381 0.34978819 0
-0.0079803467 -0.16983056 0.2979002 0
0.10484791 -0.016122103 0.42216587 0
0.056346893 -0.032039642 0.37936831 0
-0.012259483 -0.072481394 0.32673645 0
0.16765499 0.087983131 0.4825449 0
0.12823391 0.052745104 0.44341135 0
0.072504997 0.025301456 0.41961193 0
0.22992802 0.20320082 0.534832 0
0.18407631 0.16076398 0.49917936 0
0.25022602 0.2889936 0.57396793 0
0.30504704 0.3697927 0.62664747 0
0.3286829 0.49006581 0.72043467 0
0.32069969 0.43175673 0.6716094 0
-0.14920902 -0.44239378 0.0061483383 0
-0.20086384 -0.46726203 -0.039214134 0
-0.15783787 -0.37460589 0.052387238 0
-0.21500683 -0.4017477 -0.0055389404 0
-0.11240959 -0.27454829 0.15145016 0
-0.1727581 -0.28625226 0.10474253 0
-0.13043976 -0.18617702 0.18811655 0
-0.15299511 -0.23552585 0.16977406 0
-0.060159683 -0.10333657 0.25744534 0
-0.089036942 -0.13699508 0.23227119 0
9.9182129e-05 0.0051047802 0.32876253 0
-0.056447983 -0.029139996 0.27950907 0
0.069694519 0.11334062 0.40208006 0
0.02914238 0.07700038 0.3630619 0
0.15137482 0.23035789 0.47829199 0
0.097849846 0.18383408 0.43626785 0
0.20944691 0.31654811 0.53702307 0
0.16236973 0.31100225 0.51124191 0
0.27384472 0.41709733 0.61465216 0
0.21979713 0.39455628 0.5732069 0
0.20921135 0.4733696 0.60564852 0
-0.2838583 -0.41773558 -0.079805851 0
-0.32855988 -0.41959524 -0.11839199 0
-0.27125072 -0.35137367 -0.023628712 0
-0.23524189 -0.28000998 0.057431221 0
-0.32502937 -0.26438737 0.045936584 0
-0.5191555 -0.33889651 0.095336914 0
-0.66460896 -0.42409444 0.055813789 0
-0.76110458 -0.40002036 0.072159767 0
-0.18222237 -0.12802529 0.14607382 0
-0.22724056 -0.19730568 0.12401581 0
-0.31516171 -0.21299815 0.12721634 0
-0.38592434 -0.242311 0.11286736 0
-0.49874401 -0.27182341 0.11978531 0
-0.59239101 -0.30123305 0.11374187 0
-0.69274616 -0.35448551 0.11045313 0
-0.11357307 -0.013510466 0.21888018 0
-0.15565681 -0.070354939 0.18474054 0
-0.27290726 -0.090423346 0.16457176 0
-0.34331799 -0.11766958 0.16672945 0
-0.41868019 -0.17231512 0.13248539 0
-0.041680336 0.056353807 0.30717421 0
-0.093400955 0.026921511 0.24513435 0
-0.16238308 0.0094640255 0.19618034 0
0.023795128 0.16891885 0.36204243 0
-0.038287163 0.14168072 0.32303333 0
0.032660484 0.24447536 0.39089823 0
-0.0362463 0.21848083 0.34837294 0
0.17040443 0.36705613 0.50366735 0
0.097356796 0.3556757 0.45875406 0
0.039416313 0.32812595 0.41523361 0
0.17068958 0.45582867 0.54683256 0
0.10705376 0.44417763 0.52099419 0
0.083846092 0.49343657 0.54557753 0
-0.43201923 -0.48616099 -0.22220707 0
-0.40497017 -0.3769567 -0.15483046 0
-0.33884048 -0.31987453 -0.057566166 0
-0.37869453 -0.31858778 -0.085849285 0
-0.51575661 -0.36842203 -0.021573067 0
-0.61040878 -0.43007755 -0.099769592 0
-0.33457661 -0.27520895 -0.021481514 0
-0.768363 -0.4393363 0.016320229 0
-0.86813164 -0.45009017 -0.0011425018 0
-0.9527092 -0.47882414 -0.023299217 0
-0.67277622 -0.27645373 0.12623119 0
-0.81449127 -0.37127209 0.099439144 0
-0.92576885 -0.37954211 0.09990263 0
-0.17350578 -0.0065870285 0.15219355 0
-0.36388206 -0.094496012 0.16250563 0
-0.4361248 -0.10342789 0.16176701 0
-0.57456398 -0.18093014 0.14459801 0
-0.7004509 -0.21246576 0.13317251 0
-0.84396458 -0.28002453 0.15950346 0
-0.087617874 0.125736 0.2519002 0
-0.15108681 0.11175299 0.20920277 0
-0.16973495 0.050707579 0.16136694 0
-0.31769657 0.0031125546 0.19700766 0
-0.42864418 -0.0076162815 0.20271301 0
-0.5222044 -0.073582411 0.18405819 0
-0.64844704 -0.08479023 0.18829298 0
-0.94408894 -0.22645783 0.19978237 0
-0.094213486 0.21048141 0.26954699 0
-0.13641071 0.18105626 0.24376345 0
-0.30819511 0.096630096 0.21984386 0
-0.42625141 0.066874504 0.2285676 0
-0.012971878 0.31216478 0.34796047 0
-0.070054054 0.27721906 0.31968546 0
0.038758278 0.41858268 0.4200902 0
-0.014946938 0.39180422 0.36154461 0
0.050095558 0.47485948 0.45809841 0
-0.44142246 -0.36134839 -0.19337082 0
-0.48901367 -0.36249113 -0.19197559 0
-0.91404438 -0.14524078 0.21269274 0
-0.15493393 0.23918319 0.22741079 0
-0.34888554 0.15407681 0.25474072 0
-0.43667603 0.10324407 0.22907877 0
-0.53731346 0.046173334 0.21712494 0
-0.64948559 0.026037455 0.22514296 0
-0.75260448 -0.014789343 0.22774982 0
-0.075098991 0.35379839 0.30330706 0
-0.1228981 0.33478451 0.26706076 0
-0.28107834 0.28602076 0.2745204 0
-0.39783287 0.23224688 0.27923536 0
-0.51171303 0.18112969 0.28271389 0
-0.58797932 0.17025352 0.27301168 0
-0.65847683 0.099839211 0.23603725 0
-0.82817364 0.067442179 0.26038599 0
-0.97198343 -0.01564908 0.26752329 0
0.0022182465 0.46391439 0.38772392 0
-0.074835777 0.44556785 0.33734035 0
-0.11315727 0.43275118 0.28705978 0
-0.36392498 0.31995153 0.30195618 0
-0.95645666 0.047337055 0.26917458 0
-0.11174202 0.48616552 0.28589439 0
-0.14276028 0.44723153 0.2715888 0
-0.37564468 0.35865092 0.3066473 0
-0.48716068 0.31775141 0.31437778 0
-0.62035084 0.24581361 0.30476856 0
-0.71627665 0.22922873 0.3008604 0
-0.7965498 0.1491735 0.27161455 0
-0.88255167 0.13215423 0.26555586 0
-0.31942463 0.49721217 0.34311724 0
-0.4087286 0.44948244 0.34897709 0
-0.51774693 0.44203162 0.36611795 0
-0.60160494 0.4131577 0.36832571 0
-0.66291046 0.31523204 0.33737421 0
-0.75526381 0.32044482 0.32541847 0
-0.83443022 0.26483059 0.33454084 0
-0.94567633 0.20168304 0.31589222 0
-0.78370237 0.36845303 0.34212732 0
-0.63011074 0.4705286 0.37640333 0
-0.73382616 0.43177295 0.39274883 0
-0.83193731 0.44949651 0.39523697 0
-0.92617607 0.35403728 0.37738037 0
-0.93581104 0.43618679 0.39804316 0
-0.98858166 0.49772787 0.43502569 0
0.29594994 -0.49460745 -0.37013388 0
0.19629574 -0.49300265 -0.36010456 0
0.25870228 -0.47841501 -0.32597399 0
0.20061302 -0.43270993 -0.26566458 0
0.12068748 -0.44441295 -0.28251553 0
0.16021538 -0.39074373 -0.20302534 0
0.085555077 -0.40381646 -0.21929789 0
0.1424284 -0.34436178 -0.1378479 0
0.05006218 -0.34507012 -0.1372571 0
0.12339211 -0.28306103 -0.052902222 0
0.012979507 -0.27826071 -0.045933247 0
-0.043714523 -0.29108071 -0.056577682 0
0.10508442 -0.2188797 0.035338402 0
0.029483795 -0.24469495 0.0064940453 0
-0.053708076 -0.27452087 -0.029982567 0
0.090378761 -0.19249654 0.077703476 0
-0.018156052 -0.17121959 0.10242701 0
-0.074066162 -0.20725894 0.049114227 0
0.05308342 -0.10083961 0.18417311 0
-0.0084114075 -0.11529541 0.16169357 0
0.086598396 -0.0083494186 0.27192736 0
0.036111832 -0.066440821 0.23224545 0
0.098263741 0.068953514 0.32046413 0
0.047093391 0.029875994 0.2848444 0
0.15730286 0.15983629 0.38457394 0
0.11079788 -0.49556518 -0.39405966 0
-0.069094658 -0.49110198 -0.41340208 0
0.065693855 -0.44881368 -0.31217289 0
-0.035888672 -0.45470786 -0.34319401 0
-0.12421131 -0.46976972 -0.35446358 0
-0.18955898 -0.48237967 -0.36502886 0
0.04164505 -0.41298938 -0.23901463 0
-0.031573296 -0.42246675 -0.26744938 0
-0.1006813 -0.42332697 -0.28151464 0
-0.22713947 -0.45217538 -0.29512978 0
0.0035037994 -0.37045956 -0.17076826 0
-0.044398308 -0.37475872 -0.18251085 0
-0.15618801 -0.39055061 -0.21105814 0
-0.23740196 -0.38074565 -0.21193171 0
-0.073763847 -0.31516957 -0.091108799 0
-0.1705761 -0.31817007 -0.12291336 0
-0.13795948 -0.22605968 -0.014172077 0
-0.18113613 -0.22722435 -0.055259228 0
-0.048677444 -0.18973255 0.057057381 0
-0.12676716 -0.16262698 0.031905174 0
-0.18781948 -0.18698955 -0.033090115 0
-0.07870388 -0.084691286 0.11587858 0
-0.1242466 -0.061814547 0.095680237 0
-0.0021934509 0.0058131218 0.20493603 0
-0.052149773 -0.025721788 0.16172695 0
0.074050903 0.11968088 0.29918098 0
0.013176918 0.081420183 0.24291325 0
0.13851643 0.22456336 0.36242771 0
0.091647148 0.18008041 0.32939386 0
0.21357632 0.30899835 0.44141293 0
0.17568779 0.2583468 0.40663004 0
0.28107262 0.39739943 0.50097418 0
0.23838711 0.37612867 0.48324871 0
0.33872938 0.49796796 0.57343245 0
0.30629301 0.47364736 0.56131554 0
-0.15720272 -0.47880507 -0.38678455 0
-0.32299995 -0.46730328 -0.31174183 0
-0.4234848 -0.4825263 -0.33309984 0
-0.5442667 -0.47426176 -0.34698534 0
-0.30918598 -0.3418417 -0.2452054 0
-0.37155724 -0.40489459 -0.29023027 0
-0.42807293 -0.37640977 -0.2964282 0
-0.24371815 -0.26314378 -0.13818073 0
-0.2854166 -0.27476668 -0.19279385 0
-0.24420643 -0.19590592 -0.09341526 0
-0.30177975 -0.18460178 -0.13878775 0
-0.47529984 -0.22407103 -0.10257387 0
-0.187953 -0.085713863 0.0091090202 0
-0.23305511 -0.13369775 -0.037582874 0
-0.35492229 -0.14138699 -0.011591911 0
-0.4103899 -0.13509822 -0.0097908974 0
-0.51348209 -0.20141721 -0.01416111 0
-0.58808231 -0.23219728 -0.037885189 0
-0.6884222 -0.26362824 -0.065498352 0
-0.11147308 -0.0077645779 0.099527359 0
-0.17185116 -0.03409338 0.047587872 0
-0.30805874 -0.087415934 0.014186859 0
-0.33489799 -0.027861357 0.044856071 0
-0.48614597 -0.14252043 -0.011239052 0
-0.70875835 -0.22847724 -0.015404701 0
-0.033647537 0.068723917 0.17030144 0
-0.095182419 0.062237978 0.13772392 0
-0.15529728 0.046432734 0.093429565 0
0.030091286 0.16250157 0.26296091 0
-0.045490265 0.16778159 0.20032072 0
-0.090764999 0.13510704 0.16565895 0
0.037464142 0.24376535 0.28267956 0
-0.016721725 0.2068665 0.25220776 0
0.18124294 0.35121441 0.40165949 0
0.10529041 0.32803702 0.36171198 0
0.042737007 0.32186961 0.31997061 0
0.24383545 0.45220685 0.46545029 0
0.19507313 0.43798637 0.43543863 0
0.12584305 0.41275477 0.40319252 0
-0.50665951 -0.39489007 -0.36376047 0
-0.63617325 -0.49054551 -0.38506365 0
-0.74097443 -0.49144578 -0.39740038 0
-0.38662529 -0.30693507 -0.29926062 0
-0.47332764 -0.34357214 -0.33315849 0
-0.98760605 -0.49093246 -0.33536243 0
-0.33507633 -0.25692081 -0.23155117 0
-0.39555073 -0.22461271 -0.26000595 0
-0.9454298 -0.38908458 -0.24985266 0
-0.34160519 -0.17557287 -0.17089128 0
-0.42051315 -0.16591239 -0.23397446 0
-0.51985073 -0.23171544 -0.18627977 0
-0.74017334 -0.29426312 -0.11349583 0
-0.82339382 -0.31350064 -0.16415024 0
-0.76785469 -0.24328375 -0.046187878 0
-0.85681629 -0.25819492 -0.086110115 0
-0.96739101 -0.30455327 -0.15617466 0
-0.9731102 -0.31637859 -0.15607405 0
-0.39557171 -0.053989649 0.020418167 0
-0.49232006 -0.060856819 0.024792671 0
-0.60850906 -0.119766 0.011033535 0
-0.7380352 -0.1591115 -0.00039672852 0
-0.86330891 -0.19147086 0.010090828 0
-0.92054653 -0.20970106 -0.022832394 0
-0.15381718 0.12726164 0.091382504 0
-0.21267033 0.080657721 0.060399055 0
-0.32862377 0.049469948 0.061241627 0
-0.4141264 0.042271137 0.058739662 0
-0.52110481 0.016306877 0.050803185 0
-0.62852669 -0.031044722 0.041225433 0
-0.7208395 -0.04201293 0.040373802 0
-0.9702425 -0.14264202 0.053899288 0
-0.066819191 0.22772503 0.17134237 0
-0.13268185 0.19205785 0.13230801 0
-0.24120808 0.16882062 0.10402298 0
-0.366992 0.12874389 0.097848892 0
-0.0065603256 0.31787133 0.25998878 0
-0.067568779 0.28549242 0.20941639 0
-0.14047623 0.265589 0.17860222 0
0.077317238 0.40139937 0.33026457 0
0.0017061234 0.38794327 0.27843714 0
-0.05243969 0.36398482 0.23552513 0
0.13504028 0.48347878 0.39035177 0
0.080058098 0.48419666 0.35583782 0
-0.43889904 -0.22907686 -0.32444 0
-0.50102043 -0.21990108 -0.31250334 0
-0.13893604 0.28791261 0.12344313 0
-0.26091671 0.23912334 0.1258049 0
-0.46763897 0.11868834 0.082543373 0
-0.60610867 0.080885649 0.077152729 0
-0.73375511 0.030426502 0.070389748 0
-0.10992622 0.35283542 0.16112232 0
-0.36205864 0.26229835 0.14764595 0
-0.46154976 0.22670984 0.14585733 0
-0.53896904 0.21105146 0.12716627 0
-0.63530159 0.17388511 0.11630154 0
-0.75700951 0.14347768 0.12400007 0
-0.040894508 0.44629049 0.23090219 0
-0.087778091 0.42981029 0.20330906 0
-0.25987625 0.37981343 0.17099047 0
-0.50808144 0.30692792 0.18581533 0
-0.96609163 0.12825084 0.15334368 0
-0.63546944 0.21851206 0.11933136 0
-0.11187363 0.47495985 0.18441439 0
-0.38458347 0.40407991 0.20018911 0
-0.60125637 0.32140732 0.17955828 0
-0.73661518 0.27437472 0.16055059 0
-0.91075182 0.22848392 0.17579079 0
-0.28463745 0.47185206 0.23204279 0
-0.48500729 0.45155644 0.22259331 0
-0.5232563 0.37462711 0.21911669 0
-0.65167904 0.40189719 0.21455431 0
-0.75947714 0.37587285 0.20618916 0
-0.88167572 0.29727244 0.18315411 0
-0.92822409 0.33940721 0.20326567 0
-0.80061531 0.44609618 0.23438692 0
-0.95369816 0.44821763 0.26111364 0
-0.4212656 -0.40668154 -0.2991538 0
-0.51165581 -0.47039175 -0.31975174 0
-0.70026112 -0.44085455 -0.31601715 0
-0.31468773 -0.31329226 -0.23369122 0
-0.63522625 -0.28358698 -0.077905655 0
-0.7244091 -0.28777003 -0.087242603 0
-0.37366962 -0.14910007 0.017070293 0
-0.53021908 -0.1932075 0.011265755 0
-0.71093559 -0.22280264 0.0044941902 0
-0.35231876 -0.32950544 -0.28089285 0
-0.4968586 -0.38685656 -0.31991625 0
-0.76851273 -0.47142243 -0.36139488 0
-0.36786842 -0.24860191 -0.23748207 0
-0.45241547 -0.29045391 -0.29161644 0
-0.95224667 -0.45556283 -0.29156446 0
-0.30814457 -0.22277284 -0.15299177 0
-0.37224674 -0.18646026 -0.18987083 0
-0.86803341 -0.33514404 -0.19090796 0
-0.99488163 -0.36074471 -0.1902709 0
-0.26305199 -0.12531853 -0.041837215 0
-0.31069565 -0.14937949 -0.098414421 0
-0.42748451 -0.1632309 -0.14999247 0
-0.78800964 -0.31049418 -0.13678885 0
-0.87539196 -0.29205537 -0.12319994 0
-0.99811935 -0.29200387 -0.10995579 0
-0.24481964 -0.073029041 0.025112629 0
-0.38743973 -0.12045264 0.011410713 0
-0.53956604 -0.14240623 0.024197102 0
-0.81317329 -0.2287066 -0.023165703 0
-0.16517162 0.052010536 0.095189571 0
-0.29668427 0.030140877 0.091161728 0
-0.39045238 -0.060147047 0.031954765 0
-0.54637909 -0.056879044 0.052648067 0
-0.68592072 -0.15955853 0.0372715 0
-0.74339104 -0.12153101 0.042236805 0
-0.90220261 -0.19271755 0.014675617 0
-0.11669636 0.12213969 0.16503334 0
-0.086158752 0.17697668 0.21088696 0
-0.45202065 -0.21404243 -0.30375767 0
-0.42913628 -0.19580054 -0.24732065 0
-0.46816158 -0.16779709 -0.18685055 0
-0.13090611 0.17525101 0.13977623 0
-0.30541611 0.10365033 0.11362982 0
-0.3982048 0.091622353 0.10865116 0
-0.45526218 0.038348675 0.084073067 0
-0.56994152 0.076840878 0.096859932 0
-0.72730827 -0.0077195168 0.08310318 0
-0.054141998 0.25269222 0.23107004 0
-0.10001755 0.248909 0.20491695 0
-0.36114025 0.20201898 0.16465425 0
-0.46334934 0.18402267 0.15509605 0
-0.73282146 0.071943521 0.12266207 0
-0.84490395 0.047923326 0.11977386 0
0.079429626 0.36125946 0.35294104 0
0.022393227 0.33952403 0.30615807 0
-0.022547722 0.31718349 0.27417564 0
0.1110096 0.44770312 0.41052008 0
0.048344612 0.39359546 0.35349035 0
-0.15478325 0.23671484 0.13191605 0
-0.082345009 0.33119154 0.20012617 0
-0.1371727 0.3066709 0.15899897 0
-0.35890484 0.25477958 0.17982006 0
-0.63665295 0.17018056 0.14390469 0
-0.022964478 0.43089271 0.28045607 0
-0.063049316 0.40092325 0.24605608 0
-0.35125256 0.30802274 0.19411278 0
-0.45088387 0.26822305 0.18413353 0
-0.54269791 0.28260684 0.19933367 0
-0.62704945 0.23593569 0.16494846 0
-0.79653645 0.20371771 0.16826773 0
-0.90607357 0.12460661 0.18026114 0
0.086486816 0.48149824 0.37433863 0
0.0059661865 0.46862125 0.32425785 0
-0.63814259 0.32195354 0.21705008 0
-0.11419678 0.44357967 0.19203901 0
-0.3553791 0.49423337 0.2464695 0
-0.39397049 0.41593981 0.23516226 0
-0.55028152 0.42273164 0.25644255 0
-0.53669548 0.3568728 0.22084427 0
-0.67875671 0.38955855 0.23247337 0
-0.77137423 0.29099393 0.20397425 0
-0.84755993 0.33331084 0.2210927 0
-0.6156826 0.43606853 0.26156569 0
-0.87037706 0.41047668 0.25251722 0
-0.86866617 0.47824574 0.28291941 0
-0.9811697 0.46359348 0.27875805 0
-0.35442543 -0.43724823 -0.27150965 0
-0.42232037 -0.40771556 -0.28024626 0
-0.60980415 -0.4588511 -0.33392191 0
-0.73421192 -0.46540594 -0.35988092 0
-0.2667408 -0.30262971 -0.19342518 0
-0.34208488 -0.34768176 -0.23280621 0
-0.26731873 -0.21292067 -0.12007904 0
-0.22798061 -0.18815589 -0.057135105 0
-0.25169563 -0.16638374 -0.072377682 0
-0.19668865 -0.094192982 0.039182186 0
-0.4367218 -0.14625287 0.027143478 0
-0.62141418 -0.19564056 0.0083427429 0
-0.69583893 -0.24177146 -0.034883022 0
-0.3814764 -0.23859477 -0.2485466 0
-0.43252659 -0.28738141 -0.28088474 0
-0.89986992 -0.46030903 -0.3166604 0
-0.30571079 -0.19698453 -0.15339327 0
-0.35979939 -0.16191435 -0.170012 0
-0.83817196 -0.31998396 -0.18365669 0
-0.22918701 -0.13242865 -0.038242817 0
-0.2707243 -0.110147 -0.049161434 0
-0.41642284 -0.16633272 -0.069756031 0
-0.48775005 -0.20018816 -0.11919117 0
-0.76862335 -0.2704854 -0.089529991 0
-0.84896469 -0.27370858 -0.10950851 0
-0.96524143 -0.29615259 -0.13162279 0
-0.27248001 -0.078425646 0.031130314 0
-0.78525639 -0.20674992 0.0048732758 0
-0.97471046 -0.24078798 -0.049432278 0
-0.10924435 0.076656342 0.14116573 0
-0.15372372 0.01682353 0.095304012 0
-0.28702641 0.019412518 0.076591492 0
-0.46725464 -0.04680562 0.05734396 0
-0.49919128 -0.079006195 0.043900967 0
-0.66951847 -0.090820551 0.046459198 0
-0.87921238 -0.16485882 0.046245098 0
-0.87238216 -0.1956017 -0.00082683563 0
-0.98631382 -0.18612385 0.026022434 0
-0.0044841766 0.13244891 0.21308088 0
-0.071866035 0.097259283 0.16351748 0
-0.35137177 0.048241377 0.096405029 0
-0.98730373 -0.15698957 0.071930408 0
0.041946411 0.24662781 0.29266214 0
-0.0081996918 0.19915724 0.25077963 0
0.12047768 0.32188988 0.36911297 0
0.088956833 0.28133631 0.33699417 0
-0.44148064 -0.19349241 -0.27747869 0
-0.39462376 -0.15351915 -0.19877291 0
-0.485466 -0.16797519 -0.2861619 0
-0.15716267 0.092077255 0.084726334 0
-0.12409687 0.18739986 0.14142752 0
-0.23888969 0.1210196 0.11597872 0
-0.36743355 0.11122704 0.1097765 0
-0.50427914 0.076575994 0.11284971 0
-0.65167904 0.033481359 0.096230507 0
-0.043212891 0.26784515 0.23334932 0
-0.09630394 0.2262609 0.17741156 0
-0.52677536 0.15040874 0.1379261 0
-0.71325397 0.089893818 0.11937952 0
0.094856262 0.34899282 0.36108923 0
0.037723541 0.34876037 0.31585455 0
-0.013689995 0.31032062 0.26976776 0
0.19018364 0.44813061 0.45459652 0
0.12611675 0.42524958 0.4011941 0
-0.075819969 0.32793474 0.20166492 0
-0.1356535 0.32417798 0.16102076 0
-0.42024899 0.21927309 0.1654067 0
-0.70099735 0.18548703 0.14548254 0
-0.0038137436 0.4391098 0.28093052 0
-0.062037468 0.39760137 0.22860384 0
-0.47060871 0.31284666 0.20607138 0
-0.56645298 0.28318882 0.19036436 0
-0.67580891 0.29448938 0.20196104 0
-0.81422234 0.26442313 0.19622135 0
0.091265678 0.49409556 0.38114166 0
0.023061752 0.48629975 0.33050537 0
-0.030124664 0.48582458 0.26088142 0
-0.10581684 0.47821665 0.20509195 0
-0.12409019 0.41898537 0.16739941 0
-0.4173727 0.42381358 0.23748827 0
-0.49625587 0.45881414 0.25343609 0
-0.63252068 0.38165402 0.22376299 0
-0.7548418 0.36566186 0.22780943 0
-0.92875242 0.32480025 0.21419859 0
-0.6385293 0.48556423 0.27552986 0
-0.74364424 0.45970225 0.2780323 0
-0.93929243 0.37045979 0.22785234 0
-0.73961115 0.48586345 0.26840973 0
-0.8900032 0.47153592 0.27613449 0
-0.089814186 -0.48220873 -0.39548302 0
-0.12195683 -0.47164702 -0.35414457 0
-0.18828011 -0.39860272 -0.23412704 0
-0.29082966 -0.43525958 -0.26941538 0
-0.20183754 -0.35886407 -0.17046881 0
-0.1848526 -0.30548358 -0.11686897 0
-0.066196442 -0.48101473 -0.41913414 0
-0.2468853 -0.47689319 -0.35300303 0
-0.36570549 -0.49778056 -0.35851049 0
-0.38339806 -0.43571973 -0.27090931 0
-0.46447849 -0.4482739 -0.29755735 0
-0.57048035 -0.45806885 -0.33119059 0
-0.69909382 -0.47478914 -0.37280703 0
-0.24460697 -0.3184588 -0.18829966 0
-0.31319618 -0.32489252 -0.22586727 0
-0.17426109 -0.24381399 -0.05347681 0
-0.24264717 -0.23441195 -0.1102252 0
-0.18566418 -0.17325091 -0.019906998 0
-0.2294693 -0.17468572 -0.058697701 0
-0.11681461 -0.091356516 0.077507496 0
-0.1682539 -0.11479688 0.040177345 0
-0.32924175 -0.12407851 0.020928383 0
-0.66243553 -0.24395227 -0.036374092 0
-0.046545029 0.039681435 0.16518068 0
-0.093034744 -0.035399675 0.12851954 0
0.01013279 0.085574865 0.24242401 0
-0.054205894 0.041212559 0.21659994 0
0.052376747 0.14137149 0.28606224 0
-0.33454514 -0.24645495 -0.22471333 0
-0.41379833 -0.30235934 -0.27997494 0
-0.80061245 -0.42157102 -0.32017183 0
-0.33818817 -0.17889833 -0.17299509 0
-0.40414333 -0.1911037 -0.22350931 0
-0.91719341 -0.35694313 -0.2175374 0
-0.28706264 -0.15226531 -0.10816574 0
-0.34810543 -0.15172243 -0.14402676 0
-0.49674129 -0.19762945 -0.15286684 0
-0.8185091 -0.28824258 -0.1342206 0
-0.92684841 -0.27679849 -0.12141752 0
-0.15674496 -0.043389082 0.067211628 0
-0.25293827 -0.094431639 -0.010393143 0
-0.38131809 -0.12366414 -0.0038151741 0
-0.75410461 -0.21605301 -0.014096737 0
-0.83476925 -0.22738695 -0.043232918 0
-0.9344759 -0.23774242 -0.063758373 0
-0.12681293 0.011079073 0.09061718 0
-0.23375702 0.014524698 0.070733547 0
-0.42231846 -0.032162189 0.068237305 0
-0.57434177 -0.016780376 0.066710949 0
-0.60851383 -0.11844087 0.047463894 0
-0.8140316 -0.14361 0.048871994 0
-0.94428825 -0.16132498 0.052238464 0
-0.93463612 -0.21135402 -0.018346786 0
-0.05710125 0.12843728 0.21094942 0
-0.13253784 0.11631823 0.14655399 0
-0.40451622 0.038967848 0.087434292 0
0.080732346 0.1903615 0.32700729 0
0.02017498 0.2054224 0.27696133 0
-0.028320312 0.19036603 0.22241116 0
0.17452145 0.30394006 0.41400433 0
0.10082531 0.27678633 0.35448122 0
0.23345184 0.4069767 0.47882509 0
0.17156219 0.37156558 0.42345715 0
0.30275154 0.44728184 0.52537346 0
0.26724243 0.45671201 0.52155113 0
-0.4412756 -0.19572711 -0.28544617 0
-0.41635799 -0.14032865 -0.20887041 0
-0.092270851 0.19264865 0.17666483 0
-0.14364052 0.1884563 0.117661 0
-0.29443932 0.11339188 0.11400509 0
-0.38695049 0.10371876 0.10414839 0
-0.46914196 0.10895228 0.10644007 0
-0.64007187 0.035672188 0.08514595 0
-0.02606678 0.29121351 0.23930264 0
-0.06645298 0.25338793 0.20986557 0
-0.35531902 0.20513892 0.15631151 0
-0.47112083 0.1833415 0.13862562 0
0.058162689 0.37046909 0.34213829 0
0.02572155 0.32874203 0.30778456 0
0.14018345 0.44698524 0.41963196 0
0.086315155 0.40492678 0.37098932 0
0.16529274 0.47480369 0.44188833 0
-0.10604572 0.31392384 0.18064976 0
-0.30411339 0.27357817 0.16058397 0
-0.63321114 0.16766143 0.14414358 0
-0.039032936 0.40780878 0.26037741 0
-0.10356712 0.39206505 0.21220493 0
-0.51874924 0.29377604 0.18961525 0
-0.5936842 0.25691509 0.17503452 0
-0.71676731 0.24200988 0.17046452 0
0.03428936 0.486377 0.3508358 0
-0.032888412 0.48927569 0.29917622 0
-0.12888241 0.39333534 0.15275669 0
-0.11425591 0.46815944 0.20652914 0
-0.67755795 0.3156426 0.18563032 0
-0.35539722 0.46790147 0.22385073 0
-0.3969059 0.42238045 0.23330069 0
-0.57738972 0.39561486 0.23597288 0
-0.6777277 0.38747478 0.21890259 0
-0.88475704 0.27296615 0.18012381 0
-0.58903313 0.49705815 0.30191088 0
-0.70297527 0.47397184 0.27418804 0
-0.87188435 0.37446666 0.23442888 0
-0.79679823 0.49230647 0.28801203 0
0.043393135 -0.49252629 -0.3971324 0
-0.028113365 -0.49595594 -0.42149591 0
0.013589859 -0.4747262 -0.34421396 0
-0.074931145 -0.4438982 -0.32961988 0
-0.18699932 -0.48992682 -0.36921787 0
-0.20799541 -0.49621773 -0.35091829 0
-0.059548378 -0.41124916 -0.25099659 0
-0.13615036 -0.4158051 -0.24386024 0
-0.26037502 -0.43386173 -0.25137377 0
-0.075946808 -0.35768485 -0.14829206 0
-0.17045879 -0.36361098 -0.15511322 0
-0.11771297 -0.29694462 -0.06538868 0
-0.099696159 -0.22916245 0.026397228 0
-0.070490837 -0.15746093 0.098478317 0
-0.032502174 -0.10919023 0.14573669 0
-0.28988266 -0.39551282 -0.24339294 0
-0.36484241 -0.42403364 -0.29280281 0
-0.51994801 -0.45793509 -0.30936956 0
-0.59688282 -0.47599816 -0.35129929 0
-0.23195267 -0.3367548 -0.17249393 0
-0.2944088 -0.33998919 -0.23675156 0
-0.23280716 -0.26360559 -0.13484526 0
-0.15306187 -0.1959374 -0.010549545 0
-0.22094822 -0.19050026 -0.068030834 0
-0.10367489 -0.09014225 0.086057663 0
-0.15658951 -0.10358572 0.059237003 0
-0.36789322 -0.13914943 0.0068616867 0
-0.65304089 -0.24132776 -0.020164967 0
-0.73660374 -0.24835038 -0.045507431 0
-0.019542694 -0.040163517 0.18593168 0
-0.10093403 -0.062152624 0.12335968 0
-0.74636459 -0.2085743 0.014823437 0
0.036670685 0.045778275 0.25528765 0
-0.022422791 0.048184156 0.22475624 0
0.10289574 0.12198973 0.33717823 0
0.070120811 0.11538672 0.31512594 0
0.18246555 0.22190738 0.41435862 0
0.13672161 0.17806387 0.38384247 0
0.22168064 0.28076959 0.46077633 0
-0.46988487 -0.34564853 -0.3330636 0
-0.77707386 -0.49521518 -0.39663839 0
-0.32639027 -0.27078724 -0.23153019 0
-0.40240574 -0.28838849 -0.27471066 0
-0.48740387 -0.28456545 -0.31476974 0
-0.29702187 -0.19951582 -0.13582516 0
-0.35014248 -0.18862247 -0.18451977 0
-0.94682503 -0.38335586 -0.22579527 0
-0.29192734 -0.15568757 -0.11014032 0
-0.44214058 -0.17043996 -0.1348238 0
-0.81031227 -0.27767015 -0.10575676 0
-0.92528629 -0.31248283 -0.14951515 0
-0.2159462 -0.11455679 -0.006084919 0
-0.30273056 -0.10655546 -0.012906075 0
-0.82260704 -0.2323184 -0.038753986 0
-0.94123173 -0.25001502 -0.064331532 0
-0.11583519 0.012382984 0.11440563 0
-0.18806267 -0.021177292 0.059397221 0
-0.34951115 -0.0012249947 0.065733433 0
-0.53770542 -0.095624447 0.034723759 0
-0.59038639 -0.11696053 0.038257599 0
-0.83198833 -0.19104838 0.02499485 0
-0.95260334 -0.19799042 0.0081481934 0
0.012176514 0.1045332 0.2483387 0
-0.057789803 0.09811759 0.18060684 0
-0.13738441 0.076155424 0.11940861 0
-0.95641518 -0.1588037 0.067782402 0
0.087122917 0.19328427 0.31832314 0
0.037071228 0.18809676 0.28175831 0
-0.040981293 0.17314577 0.2185154 0
0.11006165 0.24787354 0.35964823 0
0.24570847 0.34903693 0.4777627 0
0.17949677 0.34682941 0.44776249 0
0.1344099 0.32239723 0.39251423 0
0.31866121 0.44158316 0.56927252 0
0.27642727 0.40807939 0.53009224 0
0.35106277 0.49246335 0.61335468 0
-0.44980049 -0.19850373 -0.29505682 0
-0.39564896 -0.15774012 -0.20790577 0
-0.41312122 -0.20370841 -0.25689554 0
-0.15030956 0.14398909 0.11038113 0
-0.41911316 0.090654612 0.10392714 0
-0.59006023 0.070532799 0.086972713 0
-0.59615135 0.016220331 0.080745697 0
-0.020461082 0.2468338 0.26443529 0
-0.083713531 0.23666501 0.18749237 0
-0.44167995 0.17225242 0.13033533 0
0.065135002 0.33131886 0.33229494 0
0.00086307526 0.32439375 0.28305483 0
0.14030647 0.41385484 0.4090519 0
0.077084541 0.40604258 0.36138487 0
0.22988415 0.47368455 0.48942661 0
0.17929459 0.49966407 0.44979668 0
-0.055766106 0.34851551 0.19977236 0
-0.093407631 0.33361912 0.17643261 0
-0.13803768 0.26468039 0.12879324 0
-0.55284023 0.17594981 0.13200617 0
-0.036281586 0.39145207 0.24113607 0
-0.10795307 0.33658099 0.19665241 0
-0.48972893 0.28540087 0.20112324 0
-0.62678909 0.26100445 0.16061592 0
-0.69488049 0.18683386 0.15690374 0
0.059878349 0.48350573 0.33904219 0
-0.015710831 0.45658851 0.3040638 0
-0.53523159 0.34207964 0.21437407 0
-0.069804192 0.45105314 0.21945953 0
-0.11496067 0.42544651 0.1800251 0
-0.51916981 0.41922879 0.24482298 0
-0.65518284 0.38067794 0.22787714 0
-0.82223988 0.32603097 0.20844316 0
-0.98729658 0.2886045 0.1928153 0
-0.47390938 0.48280811 0.25038004 0
-0.72443724 0.44803238 0.25905752 0
-0.75795603 0.49453783 0.2740593 0
0.15052414 -0.46719122 -0.34069443 0
0.079850197 -0.47853589 -0.37392521 0
0.0079174042 -0.49748516 -0.40520191 0
-0.10345936 -0.47504449 -0.37731743 0
0.075110435 -0.4334259 -0.27842665 0
-0.049886703 -0.4144268 -0.28016996 0
-0.14880085 -0.44270992 -0.309196 0
-0.27260399 -0.49812412 -0.34655857 0
0.076892853 -0.37730837 -0.17529011 0
-0.036327362 -0.39700127 -0.22511148 0
-0.1801796 -0.43089175 -0.26792336 0
-0.21435928 -0.40946198 -0.21411037 0
-0.30367184 -0.4353385 -0.25886345 0
0.068484306 -0.33027649 -0.10582876 0
-0.054494858 -0.35494947 -0.14578867 0
-0.16061211 -0.34734488 -0.14221764 0
0.054133415 -0.26550674 -0.017281532 0
-0.095186234 -0.28019047 -0.038917542 0
0.039011002 -0.20519304 0.061299324 0
-0.051836014 -0.22713137 0.039601326 0
-0.12492466 -0.22940993 0.0082406998 0
0.031993866 -0.14672351 0.14231062 0
-0.053287506 -0.16043353 0.095815182 0
-0.1044445 -0.17687607 0.061592102 0
0.031619072 -0.09217 0.2172575 0
-0.016334534 -0.10278487 0.17492771 0
0.082832336 0.0027718544 0.30701637 0
0.026008606 -0.048980713 0.24566412 0
0.15904045 0.10792637 0.38984966 0
0.12574482 0.068707705 0.36006069 0
-0.24341774 -0.49252129 -0.37265348 0
-0.42560482 -0.40391397 -0.28720045 0
-0.53880692 -0.46900105 -0.3337903 0
-0.67338562 -0.4651289 -0.35144138 0
-0.27614021 -0.33426976 -0.20109844 0
-0.37395668 -0.35942292 -0.26350451 0
-0.21381664 -0.26782274 -0.11046553 0
-0.3097744 -0.25989413 -0.18549395 0
-0.15565205 -0.18102098 0.0062537193 0
-0.20567703 -0.182724 -0.041790962 0
-0.14604568 -0.093781948 0.069371223 0
-0.20090675 -0.12474179 -0.0022768974 0
-0.61723804 -0.22000742 -0.0070815086 0
-0.71652603 -0.23148561 -0.017612934 0
-0.00058937073 -0.055071115 0.17020845 0
-0.09113884 -0.059073687 0.14116621 0
0.024483681 0.036669493 0.25467873 0
-0.06059742 0.028069973 0.19630003 0
0.12892246 0.13846135 0.37693691 0
0.071792603 0.12049556 0.32592773 0
0.022737503 0.12042904 0.29015398 0
0.26337814 0.22978783 0.4739871 0
0.17205334 0.19250822 0.41984415 0
0.08731842 0.17264938 0.3731451 0
0.3841362 0.33754325 0.53376627 0
0.30959988 0.32399917 0.5288415 0
0.21293259 0.28213263 0.48040485 0
0.4467783 0.39475441 0.56192493 0
0.3278923 0.40483999 0.59122992 0
-0.44259739 -0.33654308 -0.31877804 0
-0.77576447 -0.47389579 -0.37258768 0
-0.38147449 -0.23802543 -0.24657631 0
-0.31265545 -0.19347882 -0.15697432 0
-0.37462044 -0.22586536 -0.23001719 0
-0.95199013 -0.36558652 -0.21109009 0
-0.26928711 -0.15050602 -0.070279598 0
-0.51693153 -0.19993138 -0.10360765 0
-0.79900169 -0.297297 -0.13085604 0
-0.9239521 -0.31358409 -0.15595388 0
-0.27086926 -0.088784933 0.013553143 0
-0.81288433 -0.24655366 -0.05600214 0
-0.93819427 -0.25443268 -0.073808193 0
-0.11930943 0.06560421 0.12372303 0
-0.15223885 0.013165951 0.10359621 0
-0.28092384 -0.0039687157 0.065983295 0
