# .PCD v0.7 - Point Cloud Data file format
VERSION 0.7
FIELDS x y z intensity
SIZE 4 4 4 4
TYPE F F F F
COUNT 1 1 1 1
WIDTH 894
HEIGHT 1
VIEWPOINT 0 0 0 1 0 0 0
POINTS 894
DATA ascii
-0.96097136 -0.49269056 0.079596519 0
-0.86931133 -0.4931519 0.11234045 0
-0.77906132 -0.49474096 0.14475965 0
-0.71999454 -0.49776149 0.17153406 0
-0.6902442 -0.49685478 0.36213303 0
-0.95252609 -0.49809647 0.0025601387 0
-0.76404905 -0.49754071 0.069629669 0
-0.9826951 -0.48291278 0.078580856 0
-0.88633966 -0.4877286 0.11466265 0
-0.78976822 -0.48544931 0.14793444 0
-0.77701235 -0.49324608 0.27292919 0
-0.9905262 -0.49812651 -0.0094833374 0
-0.89893484 -0.49890161 0.023604393 0
-0.92451715 -0.48991442 0.10318089 0
-0.8334794 -0.49214721 0.13441849 0
-0.76354265 -0.49156141 0.15830994 0
-0.82296991 -0.49468231 0.13136625 0
-0.96034575 -0.49078655 0.086846828 0
-0.85421133 -0.49420309 0.12399912 0
-0.76445484 -0.488482 0.15252161 0
-0.68102026 -0.47765851 0.59667921 0
-0.62056828 -0.46901846 0.62290382 0
-0.07284832 0.29221773 -0.33112192 0
-0.058719635 0.22759771 -0.32754612 0
-0.10088444 0.36751556 -0.34374237 0
-0.052350521 0.3630023 -0.32775497 0
-0.12200212 0.46699095 -0.35271788 0
-0.97508621 -0.49762821 -0.00039434433 0
-0.7706151 -0.49700499 0.070435524 0
-0.88457108 -0.49758863 0.11832333 0
-0.79326296 -0.49193621 0.1455555 0
-0.94180012 -0.45112371 0.50745249 0
-0.85576153 -0.45062423 0.54795408 0
-0.77438974 -0.45238018 0.5973897 0
-0.66172314 -0.45445061 0.63789749 0
-0.67099142 -0.46703815 0.70347214 0
-0.10547781 -0.31423092 -0.33191872 0
-0.11516953 -0.2602458 -0.33665609 0
-0.13423252 -0.16431713 -0.34497023 0
-0.15467262 -0.09981823 -0.35541773 0
-0.12976789 -0.039347172 -0.34576702 0
-0.18560362 0.034960747 -0.366745 0
-0.11479998 0.040338993 -0.34078789 0
-0.22020102 0.1377244 -0.38120222 0
-0.12640476 0.16279078 -0.34660101 0
-0.27088118 0.26414347 -0.40210962 0
-0.21616364 0.24216843 -0.38197947 0
-0.13111639 0.24820185 -0.35234308 0
-0.070500851 0.29565144 -0.32945728 0
-0.28098154 0.34207058 -0.41220522 0
-0.21028948 0.34599257 -0.38273191 0
-0.10473394 0.35016203 -0.34431219 0
-0.29505968 0.44415784 -0.42252779 0
-0.2039113 0.46067333 -0.38203621 0
-0.11882734 0.45942354 -0.35139799 0
-0.060958385 0.40377712 -0.3295846 0
-0.9217186 -0.49153948 0.096612453 0
-0.942307 -0.46228004 0.51784182 0
-0.87052679 -0.45658255 0.55916595 0
-0.76037264 -0.46612787 0.59187794 0
-0.68651867 -0.46968222 0.61685801 0
-0.80268955 -0.4838872 0.64949083 0
-0.66898823 -0.4525423 0.69791412 0
-0.11199999 -0.33687878 -0.33573008 0
-0.12823725 -0.26228857 -0.34357977 0
-0.15262699 -0.14212322 -0.35313129 0
-0.17941284 -0.060452461 -0.36571169 0
-0.096270561 -0.074033737 -0.33471203 0
-0.52827263 -0.42750096 -0.39978695 0
-0.4307847 -0.45328331 -0.36505985 0
-0.37438488 -0.39541435 -0.35155582 0
-0.50527239 -0.33342505 -0.40341806 0
-0.42962742 -0.32577348 -0.38091612 0
-0.36355877 -0.38912416 -0.35607243 0
-0.48677874 -0.25745177 -0.40999174 0
-0.41952562 -0.25307417 -0.38322401 0
-0.47363377 -0.15743113 -0.4168129 0
-0.40215206 -0.12679791 -0.39389944 0
-0.46737385 -0.081620693 -0.42187023 0
-0.43560171 -0.016221046 -0.41925001 0
-0.1148777 -0.018176079 -0.3427825 0
-0.46154833 0.083723545 -0.44583559 0
-0.42675591 0.056969166 -0.42582607 0
-0.20991325 0.047529697 -0.37769699 0
-0.13336754 0.074569225 -0.35240316 0
-0.46492481 0.18439746 -0.4526329 0
-0.39311123 0.13799953 -0.42091322 0
-0.22302532 0.16059971 -0.38491726 0
-0.093570709 0.15532732 -0.33633995 0
-0.47260761 0.26602221 -0.46785593 0
-0.39885426 0.23348665 -0.43577909 0
-0.3136816 0.25517559 -0.41321135 0
-0.22323132 0.2578764 -0.38750648 0
-0.13363695 0.22546673 -0.3543582 0
-0.47957325 0.33509469 -0.47601509 0
-0.41426945 0.36680961 -0.4578023 0
-0.31460714 0.37183809 -0.42244434 0
-0.2129488 0.36134768 -0.38554478 0
-0.12071705 0.34567785 -0.35010481 0
-0.075667381 0.33783484 -0.3317275 0
-0.50000191 0.44616008 -0.49874544 0
-0.40693283 0.46908903 -0.46667004 0
-0.28869057 0.46637177 -0.42309189 0
-0.25091124 0.48923159 -0.39925671 0
-0.13621998 0.44081259 -0.36031055 0
-0.058765888 0.43002081 -0.33166265 0
-0.96862602 -0.49738717 0.00010538101 0
-0.77654505 -0.49840665 0.063353062 0
-0.99057102 -0.48937559 0.078320503 0
-0.90592575 -0.49190807 0.10223532 0
-0.95024252 -0.44459772 0.5432148 0
-0.88904524 -0.4621191 0.52429152 0
-0.79903936 -0.45470619 0.59151554 0
-0.66429329 -0.46380901 0.60516024 0
-0.63903427 -0.45816708 0.68026829 0
-0.88709211 -0.47027731 0.6359849 0
-0.80664015 -0.45178556 0.64656305 0
-0.099611759 -0.21581697 -0.33645201 0
-0.12019253 -0.11436176 -0.34290218 0
-0.14032984 -0.078289032 -0.35304117 0
-0.73001242 -0.44828773 -0.47298574 0
-0.6297617 -0.44040442 -0.43801641 0
-0.53580952 -0.45642376 -0.40385342 0
-0.44641256 -0.46276522 -0.37040329 0
-0.70297527 -0.34950709 -0.47848177 0
-0.61946154 -0.35795879 -0.44651127 0
-0.50862074 -0.34572029 -0.40731049 0
-0.42248011 -0.37019658 -0.37694168 0
-0.68767643 -0.23383737 -0.48288822 0
-0.61782312 -0.23384881 -0.45919037 0
-0.52470255 -0.23241496 -0.42605686 0
-0.40807199 -0.24606037 -0.38135958 0
-0.67392349 -0.11737919 -0.49201584 0
-0.60630274 -0.13851333 -0.46746922 0
-0.5363884 -0.13699484 -0.44392681 0
-0.4329977 -0.1678524 -0.40198421 0
-0.66806936 -0.02046895 -0.50097466 0
-0.59953022 -0.042914867 -0.47781038 0
-0.53097582 -0.042476177 -0.45250463 0
-0.42525959 -0.049636841 -0.41207457 0
-0.66653061 0.075606823 -0.51282406 0
-0.59834242 0.079163313 -0.48842955 0
-0.52938843 0.068300247 -0.464046 0
-0.42219067 0.056589603 -0.42453098 0
-0.18696833 0.083032131 -0.3701005 0
-0.11687374 0.053224564 -0.34485912 0
-0.66945696 0.18161464 -0.52218485 0
-0.60177708 0.17568254 -0.5022006 0
-0.5310936 0.14972878 -0.47020245 0
-0.43122721 0.15243196 -0.43740129 0
-0.22021675 0.16725683 -0.38352299 0
-0.13923883 0.17887735 -0.35551596 0
-0.67535686 0.24286056 -0.53568554 0
-0.61020947 0.27299571 -0.51751471 0
-0.50845766 0.25975418 -0.47918606 0
-0.39349699 0.23848534 -0.43572998 0
-0.2810154 0.29730511 -0.40837669 0
-0.21817017 0.25211048 -0.38699579 0
-0.095575333 0.26235008 -0.34369993 0
-0.064011097 0.21972561 -0.32962656 0
-0.68940115 0.35747266 -0.55380344 0
-0.5892067 0.36535168 -0.52357149 0
-0.50097036 0.34072208 -0.48730278 0
-0.40261364 0.35199142 -0.44841051 0
-0.29226923 0.35220003 -0.42247295 0
-0.13824844 0.3634572 -0.35943317 0
-0.071366787 0.40952873 -0.33602905 0
-0.68719339 0.46285081 -0.56778526 0
-0.60481596 0.46128893 -0.53853703 0
-0.49348116 0.45095038 -0.49648428 0
-0.41937971 0.44926357 -0.46932983 0
-0.30985785 0.46912742 -0.43198824 0
-0.22443676 0.45444775 -0.39048529 0
-0.1261735 0.44676065 -0.35694504 0
-0.98378181 -0.48853779 -0.01338768 0
-0.75184631 -0.49080515 0.07888937 0
-0.89031887 -0.49532461 0.10742426 0
-0.76199913 -0.48786712 0.14597559 0
-0.82836294 -0.49109316 0.39902687 0
-0.86852312 -0.48314786 0.52810526 0
-0.95492458 -0.46655011 0.49900866 0
-0.87985611 -0.45991135 0.57498693 0
-0.74310303 -0.46036839 0.60958672 0
-0.71401405 -0.44836855 0.61275911 0
-0.67912197 -0.47597837 0.700315 0
-0.85809898 -0.4558804 0.63862085 0
-0.091819763 -0.26753163 -0.33041143 0
-0.12357903 -0.13372946 -0.341465 0
-0.15439844 -0.093921185 -0.3576231 0
-0.94301367 -0.43036675 -0.54755735 0
-0.83611107 -0.4425168 -0.51126957 0
-0.73502588 -0.46001363 -0.47109079 0
-0.65591812 -0.45581508 -0.44721842 0
-0.57015514 -0.482445 -0.4158988 0
-0.47517395 -0.42920256 -0.3822875 0
-0.37830067 -0.43800449 -0.34828901 0
-0.92318821 -0.37713981 -0.55216312 0
-0.85404873 -0.36006284 -0.52625322 0
-0.73423147 -0.3588016 -0.48500633 0
-0.63759708 -0.347399 -0.45008993 0
-0.5543189 -0.37506604 -0.41760302 0
-0.45897293 -0.35966325 -0.38715029 0
-0.36261177 -0.34818983 -0.35255861 0
-0.90262413 -0.24737501 -0.55719137 0
-0.83843184 -0.26301217 -0.53000736 0
-0.73599815 -0.24884152 -0.49711227 0
-0.62002468 -0.23196745 -0.45569515 0
-0.53438711 -0.26401186 -0.42532396 0
-0.44566011 -0.26070595 -0.39152384 0
-0.34890747 -0.27713442 -0.35879707 0
-0.89099216 -0.18424439 -0.56383801 0
-0.82365704 -0.16318274 -0.53742218 0
-0.75193357 -0.14037514 -0.5144968 0
-0.64473915 -0.15223789 -0.47632647 0
-0.51984072 -0.16421914 -0.43541384 0
-0.43330717 -0.17606163 -0.39991903 0
-0.88405466 -0.072134972 -0.56920195 0
-0.81258917 -0.039678097 -0.55022097 0
-0.74314022 -0.049153566 -0.52559423 0
-0.63684797 -0.065174341 -0.48509836 0
-0.51308727 -0.041603327 -0.44343567 0
-0.42474937 -0.060382843 -0.408566 0
-0.17227602 -0.0072293282 -0.36240911 0
-0.87855673 0.042466879 -0.58134604 0
-0.80927038 0.072054625 -0.56314182 0
-0.74030638 0.045027971 -0.53424025 0
-0.63830805 0.044794798 -0.49760437 0
-0.50998592 0.071346998 -0.4534626 0
-0.42010689 0.025965214 -0.42285204 0
-0.20933008 0.089565754 -0.37733507 0
-0.15392971 0.060522079 -0.35760307 0
-0.090703964 0.03032732 -0.33363008 0
-0.88019133 0.15717411 -0.59597111 0
-0.81111717 0.15960956 -0.5713954 0
-0.74137831 0.15098977 -0.54394436 0
-0.62122583 0.13393641 -0.5027442 0
-0.51076841 0.13972616 -0.46703434 0
-0.4203825 0.12791252 -0.42904425 0
-0.32565069 0.17779922 -0.40431643 0
-0.22400856 0.12169409 -0.38348627 0
-0.15044785 0.1375103 -0.3599081 0
-0.88611698 0.24516487 -0.6099577 0
-0.81774855 0.25297856 -0.58634663 0
-0.73427963 0.25789952 -0.5584569 0
-0.63769722 0.25171041 -0.51685429 0
-0.51461267 0.25201893 -0.47376728 0
-0.42601919 0.25384521 -0.44933033 0
-0.33012247 0.26631546 -0.41610193 0
-0.19189358 0.24314642 -0.37533617 0
-0.068116665 0.24150801 -0.32996559 0
-0.89552021 0.31850958 -0.62406254 0
-0.83178568 0.37848568 -0.60512447 0
-0.71593809 0.35829139 -0.56334352 0
-0.6118288 0.34737349 -0.52397919 0
-0.52265215 0.31965995 -0.49281931 0
-0.43493652 0.36793685 -0.46377134 0
-0.33737373 0.35313797 -0.42867994 0
-0.23649168 0.33932257 -0.39254284 0
-0.11216545 0.3304987 -0.34723902 0
-0.068947792 0.34651423 -0.33332157 0
-0.91419792 0.4424274 -0.64318514 0
-0.80242491 0.44949079 -0.60490084 0
-0.69950104 0.43695593 -0.56821537 0
-0.62766123 0.44839263 -0.54397488 0
-0.53564501 0.44326806 -0.50756598 0
-0.44571018 0.44131398 -0.47818756 0
-0.34702587 0.43309498 -0.44221258 0
-0.26206589 0.45151043 -0.41178751 0
-0.16040277 0.42915726 -0.36554861 0
-0.073816299 0.48615932 -0.33592176 0
-0.85476065 -0.49598932 0.046655178 0
-0.87777281 -0.49502087 0.11728334 0
-0.82070589 -0.43533444 0.59229279 0
-0.6888032 -0.48575258 0.594625 0
-0.64352274 -0.45253968 0.62742472 0
-0.96002626 -0.47198629 0.58302259 0
-0.9511385 -0.45852661 0.61547089 0
-0.81910276 -0.42004561 0.65033817 0
-0.14311266 -0.032097816 -0.35328007 0
-0.12403822 -0.060707092 -0.34442902 0
-0.97103357 -0.43945742 -0.5595026 0
-0.85574007 -0.44257689 -0.5129571 0
-0.76179695 -0.4525764 -0.48365307 0
-0.66928959 -0.44624853 -0.45083427 0
-0.5723238 -0.42709804 -0.41416025 0
-0.47312832 -0.42558742 -0.3828392 0
-0.93878937 -0.35834384 -0.55422688 0
-0.83927202 -0.34138179 -0.51491308 0
-0.74236488 -0.34768963 -0.48846292 0
-0.64667416 -0.32043552 -0.45743227 0
-0.55557871 -0.36930013 -0.42104483 0
-0.45811224 -0.32165384 -0.38734674 0
-0.96384382 -0.24317074 -0.57573509 0
-0.85311937 -0.26288271 -0.533391 0
-0.72539616 -0.23315382 -0.49677229 0
-0.63591766 -0.23793602 -0.4626193 0
-0.537642 -0.22958326 -0.42945004 0
-0.44570303 -0.268332 -0.39558744 0
-0.95266962 -0.1597116 -0.58227444 0
-0.8545022 -0.14481091 -0.5497961 0
-0.71539068 -0.10483003 -0.50345898 0
-0.62525129 -0.13231635 -0.47146749 0
-0.52867651 -0.15812731 -0.43752098 0
-0.43645906 -0.16475415 -0.40265512 0
-0.94313526 -0.055584431 -0.59514332 0
-0.83466291 -0.051485777 -0.55628204 0
-0.73181772 -0.036560535 -0.52150536 0
-0.6190834 -0.026808262 -0.48112345 0
-0.52475357 -0.071667433 -0.44209719 0
-0.42963028 -0.046023846 -0.4127121 0
-0.10377836 -0.057362556 -0.33259869 0
-0.94050598 0.085770607 -0.60798645 0
-0.83183527 0.064443827 -0.56886244 0
-0.70753479 0.041000605 -0.52407122 0
-0.61683893 0.059875965 -0.4941988 0
-0.5210309 0.044418812 -0.45349646 0
-0.42738867 0.081597328 -0.42105865 0
-0.17464972 0.048256397 -0.36539745 0
-0.94204712 0.13920021 -0.61786842 0
-0.83432913 0.15260696 -0.58212805 0
-0.70946074 0.15001535 -0.53589916 0
-0.61900043 0.18563724 -0.50266457 0
-0.52200651 0.15549898 -0.47068882 0
-0.42766809 0.13708401 -0.43306112 0
-0.20973635 0.14532375 -0.37804174 0
-0.09470129 0.17209101 -0.33727121 0
-0.94813108 0.24506211 -0.62959242 0
-0.83985472 0.2581346 -0.59196472 0
-0.71674204 0.26376414 -0.55286789 0
-0.62312794 0.2475276 -0.51466751 0
-0.52617216 0.23347235 -0.48316956 0
-0.43240881 0.24947023 -0.44852448 0
-0.25632906 0.25507116 -0.39554262 0
-0.14927721 0.27578688 -0.35893202 0
-0.92139912 0.34172893 -0.63081312 0
-0.81288052 0.34862471 -0.59425306 0
-0.72527075 0.38812828 -0.56194019 0
-0.63226604 0.3462472 -0.53060961 0
-0.53386927 0.34219313 -0.49407339 0
-0.43952703 0.32433534 -0.46280575 0
-0.26205206 0.358881 -0.40462875 0
-0.19827318 0.36982584 -0.37782526 0
-0.076178074 0.36389875 -0.33570528 0
-0.9265461 0.42939544 -0.64247131 0
-0.82896328 0.44612575 -0.61382866 0
-0.73613691 0.43420863 -0.57786942 0
-0.64636755 0.45531559 -0.54771948 0
-0.55226946 0.46318269 -0.51890898 0
-0.45288706 0.44390321 -0.48000956 0
-0.33092022 0.45214438 -0.43547153 0
-0.27461958 0.42103481 -0.4127326 0
-0.1211834 0.45294333 -0.35231304 0
-0.7654748 -0.47754407 0.15667248 0
-0.89486313 -0.46559048 0.53218126 0
-0.81574535 -0.46107626 0.61893368 0
-0.75477076 -0.45459366 0.57400036 0
-0.64281654 -0.46070218 0.65970993 0
-0.96534204 -0.47189045 -0.55738115 0
-0.87034559 -0.45235491 -0.52536297 0
-0.77342463 -0.466434 -0.49154663 0
-0.68425655 -0.463938 -0.45531702 0
-0.56076384 -0.46733117 -0.41438484 0
-0.44158363 -0.47616458 -0.36472607 0
-0.42800999 -0.44062614 -0.37074423 0
-0.94675922 -0.37394786 -0.56178617 0
-0.85515022 -0.37729311 -0.52981234 0
-0.76599264 -0.38727665 -0.49164152 0
-0.66493416 -0.3547461 -0.46119833 0
-0.54421473 -0.33862925 -0.41855955 0
-0.41271496 -0.34876251 -0.37746096 0
-0.93107462 -0.28278208 -0.56829834 0
-0.83997917 -0.25453639 -0.53552151 0
-0.74536037 -0.27440619 -0.50068569 0
-0.64867353 -0.25839329 -0.4699645 0
-0.53118706 -0.27612257 -0.42681503 0
-0.40154219 -0.2444706 -0.38386297 0
-0.9211421 -0.1874969 -0.57405233 0
-0.82783127 -0.17931509 -0.54568148 0
-0.73141193 -0.15958357 -0.51184893 0
-0.63810396 -0.14800096 -0.47917509 0
-0.52160072 -0.18231249 -0.43441296 0
-0.394382 -0.1566124 -0.38982725 0
-0.9137249 -0.069491625 -0.58154917 0
-0.821383 -0.053669214 -0.5541153 0
-0.72470808 -0.040646076 -0.52174425 0
-0.63117743 -0.038120508 -0.49097919 0
-0.51419544 -0.05235219 -0.44486332 0
-0.38915682 -0.091558933 -0.3977046 0
-0.90882969 0.031949997 -0.5955863 0
-0.81829929 0.041587353 -0.56585836 0
-0.72259665 0.047875166 -0.53122377 0
-0.62966347 0.048596621 -0.4981041 0
-0.5108881 0.033815384 -0.45600891 0
-0.38487244 0.027873993 -0.4112134 0
-0.11062384 0.057125568 -0.34486914 0
-0.90919161 0.11351728 -0.60852575 0
-0.81932974 0.13708687 -0.57564449 0
-0.72407293 0.15435934 -0.54552269 0
-0.63041592 0.13083744 -0.5086751 0
-0.51173592 0.14319682 -0.46615076 0
-0.38580275 0.16855717 -0.42543888 0
-0.14910316 0.11667347 -0.36139679 0
-0.91580725 0.23367548 -0.62490797 0
-0.82439613 0.24207664 -0.58951187 0
-0.72768927 0.21083498 -0.55879307 0
-0.63628197 0.26212144 -0.52616835 0
-0.5177598 0.26716757 -0.48636818 0
-0.38959789 0.24286556 -0.43952274 0
-0.23185396 0.27805662 -0.39370632 0
-0.19191265 0.21596527 -0.37721682 0
-0.0831213 0.22709513 -0.34108734 0
-0.92799568 0.36834311 -0.64234257 0
-0.83354712 0.34960079 -0.60495329 0
-0.73561478 0.3229177 -0.57021379 0
-0.64406586 0.35493422 -0.53985023 0
-0.52636147 0.37474275 -0.50079441 0
-0.39740515 0.37089992 -0.45184612 0
-0.26363611 0.33476782 -0.40613985 0
-0.11675739 0.3300457 -0.35138035 0
-0.93962526 0.44185162 -0.6564641 0
-0.84327602 0.39638352 -0.62026978 0
-0.74833918 0.43678045 -0.58675385 0
-0.65188932 0.4254477 -0.55022097 0
-0.53391552 0.43806601 -0.51111937 0
-0.40500069 0.43812466 -0.46391821 0
-0.27505159 0.40448046 -0.41763735 0
-0.17710543 0.42506742 -0.37529993 0
-0.41105032 0.49136806 -0.47130203 0
-0.93497467 -0.47604704 0.50531292 0
-0.85352373 -0.46695518 0.57459259 0
-0.79641342 -0.45222664 0.66932631 0
-0.097202301 -0.06982851 -0.33687115 0
-0.95806217 -0.42092919 -0.55755854 0
-0.87389326 -0.4868927 -0.52226114 0
-0.75001478 -0.44954014 -0.47942924 0
-0.6303525 -0.48805141 -0.43135738 0
-0.61707115 -0.43599772 -0.43649197 0
-0.48630142 -0.4735148 -0.38831568 0
-0.94372177 -0.34322953 -0.5626893 0
-0.85379171 -0.35560989 -0.52757311 0
-0.73298073 -0.37674546 -0.48667574 0
-0.60627842 -0.33790731 -0.43927717 0
-0.47127247 -0.35463166 -0.39358997 0
-0.93172884 -0.26035595 -0.56889343 0
-0.83830118 -0.26835394 -0.53634501 0
-0.72089624 -0.26240182 -0.4920001 0
-0.71304655 -0.22669601 -0.49930096 0
-0.59360695 -0.26314259 -0.44781542 0
-0.4619503 -0.2612772 -0.39808321 0
-0.9245472 -0.1915977 -0.57390594 0
-0.8275094 -0.13118482 -0.54506922 0
-0.70880747 -0.18202639 -0.50378704 0
-0.58204126 -0.1495254 -0.45882607 0
-0.45123434 -0.16815114 -0.40878677 0
-0.91809368 -0.096195459 -0.58108521 0
-0.82110119 -0.031166792 -0.55655003 0
-0.70338869 -0.064543247 -0.51243401 0
-0.57738543 -0.068516731 -0.46631765 0
-0.44439316 -0.081208944 -0.41956806 0
-0.91283512 0.029814482 -0.59500408 0
-0.81957912 0.068036079 -0.56604719 0
-0.70075798 0.061090469 -0.52443981 0
-0.57515144 0.014460325 -0.473948 0
-0.44217205 0.054786205 -0.42879391 0
-0.1559453 0.023264408 -0.36205244 0
-0.12606859 0.0026044846 -0.34756613 0
-0.91399384 0.15247202 -0.61135769 0
-0.82008839 0.12551308 -0.57594633 0
-0.70201778 0.16006613 -0.53598213 0
-0.5752244 0.13755965 -0.48859644 0
-0.44213438 0.1517837 -0.44196129 0
-0.24039602 0.19235802 -0.39480209 0
-0.19765282 0.14802361 -0.37564564 0
-0.91797495 0.22070098 -0.62439299 0
-0.82368088 0.20412302 -0.58804893 0
-0.70655918 0.2608676 -0.54850817 0
-0.57852364 0.22880363 -0.50196934 0
-0.44465923 0.225806 -0.4518714 0
-0.27098131 0.27913713 -0.40469313 0
-0.076055527 0.212358 -0.33497477 0
-0.92612028 0.3451674 -0.63485718 0
-0.83226252 0.32674956 -0.60341787 0
-0.71357107 0.33818746 -0.56253481 0
-0.58587313 0.3417747 -0.51530838 0
-0.44940233 0.33010316 -0.46121788 0
-0.32006884 0.34663725 -0.42844391 0
-0.2805891 0.35726166 -0.41203165 0
-0.15810394 0.36224365 -0.36619568 0
-0.11106968 0.3008852 -0.34679317 0
-0.941957 0.46065497 -0.65629196 0
-0.84560537 0.44223762 -0.62093306 0
-0.72457552 0.44436979 -0.57724524 0
-0.60142517 0.45941305 -0.54001141 0
-0.59654236 0.4737041 -0.52911186 0
-0.45812178 0.41010857 -0.47784472 0
-0.32926607 0.46580863 -0.43947601 0
-0.2075839 0.45582151 -0.38445997 0
-0.94004393 -0.48743391 0.091956615 0
-0.9513216 -0.4849484 0.499753 0
-0.77165413 -0.48840785 0.56435251 0
-0.7619276 -0.45104742 0.61498833 0
-0.70105553 -0.47020245 0.69876051 0
-0.9510479 -0.42094207 -0.54741621 0
-0.82374382 -0.38991737 -0.50106478 0
-0.68952036 -0.42912316 -0.45624733 0
-0.55753088 -0.43594408 -0.40784454 0
-0.38846731 -0.42949533 -0.34761477 0
-0.93371058 -0.33767366 -0.5537796 0
-0.81117058 -0.36166692 -0.50750971 0
-0.67324972 -0.34702635 -0.46343803 0
-0.54074907 -0.32912207 -0.41457415 0
-0.52865505 -0.29231834 -0.42389393 0
-0.36702299 -0.32702279 -0.35934305 0
-0.92052078 -0.26285625 -0.56102085 0
-0.79367399 -0.25469446 -0.51737976 0
-0.66009569 -0.2364831 -0.47072744 0
-0.35796356 -0.18935609 -0.36312962 0
-0.90849447 -0.14429355 -0.57059813 0
-0.78317738 -0.16217732 -0.52595806 0
-0.65273762 -0.15547419 -0.47643614 0
-0.51971674 -0.15130329 -0.43008566 0
-0.35000706 -0.13908052 -0.37265348 0
-0.90191698 -0.026439667 -0.5789299 0
-0.77882242 -0.049522161 -0.53027296 0
-0.64692211 -0.069770813 -0.48372555 0
-0.51075268 -0.020081997 -0.44364405 0
-0.34340858 -0.010459423 -0.38304186 0
-0.89876223 0.043755531 -0.59017897 0
-0.77342844 0.042635679 -0.54547262 0
-0.64147425 0.049127102 -0.49848986 0
-0.50809765 0.056977749 -0.4531765 0
-0.3407197 0.088127613 -0.39185953 0
-0.89836502 0.13088346 -0.60134315 0
-0.77318621 0.1472764 -0.56097889 0
-0.64134026 0.17532802 -0.51309299 0
-0.50838041 0.16730571 -0.46574783 0
-0.34005356 0.14913607 -0.40274429 0
-0.90066195 0.21600318 -0.60943365 0
-0.77576017 0.23011684 -0.56999493 0
-0.64448071 0.23907304 -0.52891541 0
-0.51180458 0.28709626 -0.47893667 0
-0.34255552 0.25816441 -0.4181695 0
-0.095672131 0.25555277 -0.33834743 0
-0.90827084 0.34707451 -0.62559795 0
-0.7828331 0.35628653 -0.58280516 0
-0.6522584 0.3836112 -0.54112148 0
-0.51469755 0.33128047 -0.48698187 0
-0.34892702 0.38298774 -0.43282652 0
-0.16955805 0.36411476 -0.36794758 0
-0.12919664 0.31944799 -0.35087729 0
-0.92266178 0.46153855 -0.64859629 0
-0.79167557 0.45444179 -0.59677792 0
-0.66022015 0.4389658 -0.55609608 0
-0.52152252 0.43247676 -0.49796963 0
-0.3559432 0.46059966 -0.44598961 0
-0.20245647 0.43552303 -0.37941837 0
-0.91901207 -0.48201799 0.047636509 0
-0.8815937 -0.49513102 0.017103195 0
-0.89578438 -0.48642492 0.10980558 0
-0.9452095 -0.45240617 0.50611544 0
-0.72263288 -0.44570279 0.60179472 0
-0.9572053 -0.48892927 0.58997822 0
-0.86768198 -0.44388223 -0.53217745 0
-0.74359131 -0.46612549 -0.47850275 0
-0.56923199 -0.46765471 -0.42156887 0
-0.38838434 -0.46499157 -0.35195637 0
-0.9909811 -0.37584424 -0.58421087 0
-0.85424232 -0.31435299 -0.53775787 0
-0.73259354 -0.37208176 -0.48194933 0
-0.72462273 -0.31721306 -0.48644733 0
-0.55817747 -0.3446703 -0.42501736 0
-0.37194443 -0.34353828 -0.36082745 0
-0.97955799 -0.26048803 -0.5908494 0
-0.84573221 -0.24637699 -0.54455376 0
-0.71836042 -0.27452707 -0.49100637 0
-0.54856682 -0.2618885 -0.43199348 0
-0.36236525 -0.24264312 -0.36755323 0
-0.97388887 -0.11202788 -0.59343052 0
-0.83960009 -0.15105104 -0.55080748 0
-0.70846224 -0.15300202 -0.50043678 0
-0.54039907 -0.18637276 -0.44049263 0
-0.35559559 -0.15321875 -0.37528133 0
-0.96862507 -0.080845594 -0.60278273 0
-0.83439922 -0.102386 -0.56040001 0
-0.70073652 -0.036578894 -0.51475334 0
-0.53406143 -0.055063009 -0.45107031 0
-0.34978247 -0.081711769 -0.38571262 0
-0.96482849 0.0056664944 -0.61402273 0
-0.83259916 0.044090509 -0.56888628 0
-0.69881773 0.046935081 -0.52394056 0
-0.53060675 0.040446281 -0.46408749 0
-0.34671783 0.045698166 -0.39941263 0
-0.96487331 0.12440658 -0.62417412 0
-0.83330297 0.16200423 -0.58566618 0
-0.69937134 0.13658047 -0.53373241 0
-0.53086329 0.13092279 -0.47469282 0
-0.34697676 0.15096998 -0.4153471 0
-0.96768427 0.21642923 -0.63765621 0
-0.83613253 0.23431325 -0.59540987 0
-0.70160627 0.22327304 -0.54303646 0
-0.53431988 0.24249005 -0.48958063 0
-0.34885693 0.22129345 -0.42182112 0
-0.091693878 0.2482295 -0.341537 0
-0.97629023 0.34683514 -0.65498114 0
-0.84146166 0.32194662 -0.60590076 0
-0.7100482 0.36737156 -0.56170082 0
-0.70437241 0.29030681 -0.54963589 0
-0.54181957 0.36318278 -0.50535774 0
-0.35398245 0.32029057 -0.43498611 0
-0.16770315 0.3684001 -0.37080717 0
-0.13012791 0.31723928 -0.3558526 0
-0.99150991 0.44776106 -0.68030691 0
-0.98590374 0.44466805 -0.66943312 0
-0.85109377 0.40374517 -0.62348986 0
-0.72052813 0.45268941 -0.58012295 0
-0.55268526 0.45400524 -0.52458096 0
-0.36083269 0.42083716 -0.44722319 0
-0.20758152 0.4293704 -0.3861208 0
-0.76199579 -0.49852657 0.15988922 0
-0.91216564 -0.46002078 0.51538372 0
-0.87738848 -0.46814728 0.56844234 0
-0.8339591 -0.46698213 0.62474489 0
-0.759583 -0.49611926 -0.47254181 0
-0.92438269 -0.49106765 -0.53763437 0
-0.91570234 -0.43117595 -0.54019737 0
-0.74468708 -0.41605282 -0.47830343 0
-0.56103849 -0.44380569 -0.41000605 0
-0.90849924 -0.37107372 -0.54264069 0
-0.73158884 -0.3307364 -0.48484898 0
-0.54361343 -0.34282184 -0.41984129 0
-0.89428711 -0.2520957 -0.55054379 0
-0.72209787 -0.25421524 -0.4915638 0
-0.53343344 -0.24401569 -0.42690372 0
-0.88318539 -0.17248368 -0.56122828 0
-0.71210814 -0.12802672 -0.50083256 0
-0.52805519 -0.18128252 -0.43203402 0
-0.87842751 -0.048908472 -0.56680775 0
-0.70554924 -0.027105331 -0.51276064 0
-0.52078199 -0.05902338 -0.44334793 0
-0.092605114 -0.013017178 -0.33579206 0
-0.87390375 0.036646128 -0.57965326 0
-0.70280743 0.052839041 -0.52340221 0
-0.51562977 0.047156096 -0.4626174 0
-0.12754774 0.069894314 -0.3479805 0
-0.87301016 0.1276989 -0.59397125 0
-0.7030654 0.15823078 -0.53210115 0
-0.51662397 0.17688036 -0.47242403 0
-0.1899085 0.15317917 -0.37366819 0
-0.87626839 0.24563193 -0.60695362 0
-0.70538044 0.2623589 -0.54307604 0
-0.5181818 0.23410463 -0.4800806 0
-0.24976015 0.24466515 -0.39727068 0
-0.065094948 0.28023005 -0.33077621 0
-0.88312721 0.36165524 -0.62229395 0
-0.71077776 0.3430512 -0.56028748 0
-0.7078743 0.31194997 -0.55155182 0
-0.52491236 0.36060381 -0.49683285 0
-0.27909613 0.34148026 -0.41554642 0
-0.10986233 0.35680389 -0.34737539 0
-0.89014912 0.44112086 -0.63404322 0
-0.71799803 0.42780542 -0.57337236 0
-0.53543901 0.48111343 -0.51600838 0
-0.175951 0.45685434 -0.37249422 0
-0.98705149 -0.49870563 0.0509758 0
-0.93835783 -0.43941283 0.50724459 0
-0.70702744 -0.45756006 0.61496401 0
-0.66272402 -0.45323658 0.63852739 0
-0.82842922 -0.44971061 -0.50620222 0
-0.62320662 -0.44737816 -0.43382263 0
-0.41270256 -0.39732933 -0.36461735 0
-0.99386644 -0.30402517 -0.58250427 0
-0.8117075 -0.35585332 -0.5158596 0
-0.61024284 -0.35109591 -0.44094229 0
-0.40360308 -0.31333065 -0.3700285 0
-0.9849205 -0.21824217 -0.58898306 0
-0.80166674 -0.24207592 -0.52212 0
-0.59739017 -0.23772192 -0.45117092 0
-0.39345932 -0.26390195 -0.38106012 0
-0.97753239 -0.15295315 -0.59805679 0
-0.79611921 -0.15838194 -0.52706909 0
-0.58937073 -0.14134979 -0.46069717 0
-0.38656712 -0.11866379 -0.38765955 0
-0.97036314 -0.020892143 -0.61316633 0
-0.78896618 -0.055461645 -0.53915691 0
-0.58650684 -0.025852442 -0.46414423 0
-0.38248014 -0.071812391 -0.39596462 0
-0.78442812 0.037903547 -0.55421829 0
-0.58260822 0.039482355 -0.47667933 0
-0.37920761 0.04445219 -0.40714073 0
-0.96953773 0.15547538 -0.62740421 0
-0.78481627 0.15500593 -0.56330109 0
-0.58147335 0.15353012 -0.49185133 0
-0.37830687 0.14519072 -0.41897488 0
-0.97274113 0.27076125 -0.64233446 0
-0.78650665 0.22761607 -0.57613754 0
-0.58348846 0.25588036 -0.50273132 0
-0.38035154 0.25862646 -0.43113899 0
-0.977983 0.36574435 -0.65509462 0
-0.79138231 0.34689999 -0.58656359 0
-0.58846569 0.35905743 -0.51744175 0
-0.38611126 0.35947418 -0.45182514 0
-0.12453461 0.39902353 -0.35249758 0
-0.077167988 0.3358922 -0.33405256 0
-0.98430872 0.43563366 -0.66682053 0
-0.80045891 0.45109224 -0.60538483 0
-0.59487057 0.41720843 -0.53435278 0
-0.39440727 0.4855001 -0.46633291 0
-0.17593622 0.43102121 -0.37473345 0
-0.91210461 -0.49034309 0.0094742775 0
-0.9549942 -0.47933149 0.094909191 0
-0.88430738 -0.49750876 0.084819317 0
-0.85916758 -0.46059036 0.53337717 0
-0.98347664 -0.46876144 0.58613634 0
-0.62120485 -0.49730992 -0.41625309 0
-0.81243038 -0.45231533 -0.49674749 0
-0.61078691 -0.43705273 -0.4211998 0
-0.99805164 -0.31655288 -0.58035326 0
-0.80072021 -0.35676098 -0.50295162 0
-0.5975709 -0.37317252 -0.43056107 0
-0.98900843 -0.22626376 -0.58820868 0
-0.78929377 -0.26887441 -0.51194715 0
-0.58720016 -0.22246957 -0.43642569 0
-0.98245335 -0.10650373 -0.59507179 0
-0.78002596 -0.1458199 -0.5230937 0
-0.57854319 -0.15562415 -0.44763136 0
-0.97939968 -0.046204567 -0.60087967 0
-0.57143497 -0.025283337 -0.46192503 0
-0.97584772 0.06118083 -0.61495781 0
-0.77303886 0.034368038 -0.53926611 0
-0.56907606 0.079809189 -0.47252226 0
-0.10885954 0.06378746 -0.34012365 0
-0.9755559 0.16206145 -0.63116455 0
-0.77221537 0.15320754 -0.55322123 0
-0.56924534 0.16348767 -0.47834349 0
-0.15516567 0.16032028 -0.35621166 0
-0.97853947 0.24425364 -0.64358664 0
-0.77482033 0.2834394 -0.56445646 0
-0.57077503 0.23814893 -0.49448204 0
-0.21410799 0.24333429 -0.37915611 0
-0.98406839 0.37264514 -0.65316105 0
-0.77899504 0.34163141 -0.58027649 0
-0.57513046 0.34179926 -0.50808811 0
-0.26706362 0.33500576 -0.40303564 0
-0.99167538 0.44610214 -0.66876984 0
-0.78565168 0.43168855 -0.59414244 0
-0.58511877 0.49158573 -0.5269866 0
-0.57989597 0.43446469 -0.51659393 0
-0.26935768 0.43580866 -0.41738462 0
-0.09101963 0.4498148 -0.34040451 0
-0.71971273 -0.44987679 0.61013412 0
-0.8140254 -0.48468137 -0.49325323 0
-0.80512571 -0.4085896 -0.49717379 0
-0.54467201 -0.45342922 -0.39572382 0
-0.99873543 -0.37335682 -0.57711744 0
-0.79637194 -0.37367558 -0.50405121 0
-0.53046751 -0.33449674 -0.40359306 0
-0.99266481 -0.26924419 -0.57975912 0
-0.98623323 -0.21187091 -0.58622456 0
-0.78952026 -0.27784872 -0.50810671 0
-0.52236891 -0.28975892 -0.41125822 0
-0.5162673 -0.21190858 -0.41676092 0
-0.98161793 -0.1519587 -0.59174728 0
-0.78096962 -0.16241288 -0.51670504 0
-0.51131344 -0.15110302 -0.42315435 0
-0.9763298 -0.063731909 -0.60155201 0
-0.7733283 -0.034605503 -0.53048992 0
-0.50710773 -0.078132629 -0.43015146 0
-0.97338915 0.073128223 -0.6117239 0
-0.77017879 0.069647312 -0.54166222 0
-0.5023675 0.064441919 -0.44660425 0
-0.97292566 0.14759851 -0.62252808 0
-0.77009869 0.16790247 -0.55307961 0
-0.97435474 0.23914814 -0.63539839 0
-0.77181005 0.25630522 -0.56679821 0
-0.50204945 0.23015833 -0.46398592 0
-0.11153221 0.21601868 -0.34120035 0
-0.97876978 0.33577228 -0.64877415 0
-0.7749548 0.35126948 -0.57374287 0
-0.50731802 0.39982915 -0.48114681 0
-0.50481892 0.36003923 -0.46957111 0
-0.22164345 0.3871026 -0.38185263 0
-0.17456961 0.33195305 -0.36335802 0
-0.98449135 0.40281463 -0.66357279 0
-0.77906513 0.41688108 -0.58471298 0
-0.51051903 0.41174173 -0.49511242 0
-0.27980185 0.44861507 -0.40614939 0
-0.89193344 -0.49869084 0.10939121 0
-0.93933535 -0.44804049 0.51308632 0
-0.91269016 -0.43290186 0.60768366 0
-0.97427368 -0.44771838 -0.55741167 0
-0.69845152 -0.44870615 -0.4604516 0
-0.38291311 -0.43009949 -0.35685873 0
-0.96177387 -0.34295368 -0.56522608 0
-0.6904664 -0.36401415 -0.4652257 0
-0.37629175 -0.36085486 -0.36255026 0
-0.9521718 -0.24610591 -0.57428503 0
-0.68069744 -0.2406714 -0.4735837 0
-0.37152529 -0.23257494 -0.36515951 0
-0.94472933 -0.12618661 -0.58392954 0
-0.67260695 -0.14463115 -0.48463297 0
-0.36558676 -0.17686129 -0.37441063 0
-0.93987656 -0.055179834 -0.59625483 0
-0.66695786 -0.054177761 -0.49857903 0
-0.36095333 -0.098095417 -0.38403463 0
-0.93772316 0.045545816 -0.60864162 0
-0.66473675 0.062146664 -0.50994825 0
-0.35865974 -0.0021176338 -0.39172268 0
-0.93801308 0.12066603 -0.61666298 0
-0.66526127 0.15607619 -0.52576351 0
-0.35740137 0.13294172 -0.40618467 0
-0.94059563 0.23334789 -0.62880516 0
-0.66794586 0.23659348 -0.54084539 0
-0.35995722 0.27502489 -0.42462635 0
-0.94503784 0.33437228 -0.6410737 0
-0.67252493 0.36187601 -0.54797888 0
-0.36508989 0.37605691 -0.44198418 0
-0.062823296 0.39498854 -0.33211422 0
-0.95261002 0.43773675 -0.65656137 0
-0.68050814 0.45701909 -0.56537151 0
-0.37062788 0.45656061 -0.45395517 0
-0.1286025 0.45077848 -0.3586216 0
-0.61735535 -0.46903276 0.63929701 0
-0.98467779 -0.41995382 -0.56545115 0
-0.69071245 -0.47452927 -0.45704985 0
-0.97566938 -0.35825753 -0.5714097 0
-0.67476845 -0.35865331 -0.46802521 0
-0.96813869 -0.29131174 -0.57721281 0
-0.6643219 -0.22544742 -0.47616768 0
-0.95836687 -0.17496896 -0.58702421 0
-0.65777636 -0.19150877 -0.48565388 0
-0.95120001 -0.061139584 -0.59789371 0
-0.65367222 -0.096706152 -0.49207401 0
-0.6499114 -0.024149179 -0.50119543 0
-0.94715023 0.039956331 -0.60996008 0
-0.64824915 0.098384142 -0.50814247 0
-0.1007843 0.095505238 -0.34173584 0
-0.94566584 0.15332341 -0.6215601 0
-0.64735365 0.17025638 -0.51725817 0
-0.94641209 0.22707343 -0.63703108 0
-0.64807701 0.25982642 -0.52547503 0
-0.22695017 0.23283768 -0.39198971 0
-0.1574049 0.20412779 -0.36131382 0
-0.9503293 0.34332085 -0.65201283 0
-0.65069628 0.33679962 -0.54285049 0
-0.28269148 0.31606531 -0.41606903 0
-0.95743561 0.46592927 -0.66674042 0
-0.65630436 0.43999648 -0.56021166 0
-0.29549026 0.42658806 -0.43391418 0
-0.056346893 0.47053242 -0.33247566 0
-0.88354063 -0.44811869 0.52563334 0
-0.85779524 -0.48600125 -0.51583576 0
-0.84618282 -0.45011711 -0.5241456 0
-0.50587225 -0.42220545 -0.39580822 0
-0.83782291 -0.32614779 -0.52758074 0
-0.49105501 -0.33220863 -0.40793324 0
-0.82960892 -0.24563479 -0.53451681 0
-0.47959852 -0.21326399 -0.41927671 0
-0.82008982 -0.15637898 -0.54643536 0
-0.81341553 -0.024458647 -0.55779743 0
-0.47220612 -0.062771797 -0.42943335 0
-0.46676874 0.078517437 -0.44205761 0
-0.81037474 0.10643673 -0.56926298 0
-0.46482801 0.14814878 -0.45177031 0
-0.80960321 0.24447799 -0.58923864 0
-0.46434736 0.23791432 -0.4630003 0
-0.81249285 0.35784602 -0.60535049 0
-0.46525621 0.31067729 -0.47511625 0
-0.11194038 0.33906555 -0.35341024 0
-0.81657267 0.47642183 -0.61172771 0
-0.46976328 0.4513185 -0.49023914 0
-0.19229078 0.44628525 -0.3831625 0
-0.98927927 -0.43248272 0.59601879 0
-0.77233028 -0.46629739 -0.48509169 0
-0.42406416 -0.45140433 -0.35919619 0
-0.76303816 -0.3750813 -0.49324751 0
-0.4165802 -0.36613202 -0.36561012 0
-0.75749588 -0.23910475 -0.49715614 0
-0.40868187 -0.27948761 -0.37535667 0
-0.75196791 -0.17421341 -0.50579834 0
-0.40289402 -0.1622889 -0.38349867 0
-0.74651527 -0.043242931 -0.51854849 0
-0.39784575 -0.035851955 -0.39652824 0
-0.74331427 0.0596416 -0.53328609 0
-0.39498329 0.081478596 -0.41280365 0
-0.74341679 0.16533971 -0.54260254 0
-0.39515686 0.17616987 -0.42293787 0
-0.74388123 0.20172524 -0.55541992 0
-0.39657354 0.25574923 -0.43481064 0
-0.75021553 0.36819291 -0.57677746 0
-0.74673557 0.30704188 -0.56434679 0
-0.39991856 0.35786223 -0.44661093 0
-0.75679255 0.47878408 -0.5900135 0
-0.40440464 0.44839621 -0.45829964 0
-0.065669537 0.47404718 -0.32849503 0
