# .PCD v0.7 - Point Cloud Data file format
VERSION 0.7
FIELDS x y z intensity
SIZE 4 4 4 4
TYPE F F F F
COUNT 1 1 1 1
WIDTH 1301
HEIGHT 1
VIEWPOINT 0 0 0 1 0 0 0
POINTS 1301
DATA ascii
0.90161991 -0.18573511 -0.79947722 0
0.94590378 -0.20578039 -0.8127681 0
0.66335559 -0.10199678 -0.60227323 0
0.73186731 -0.10043538 -0.65256518 0
0.65556645 -0.0057295561 -0.60311341 0
0.72209716 -0.0078061819 -0.65345013 0
0.66159558 0.084486485 -0.61884844 0
0.71190715 0.088732958 -0.65975326 0
0.66179109 0.19242704 -0.62988716 0
0.70692301 0.18425882 -0.66675645 0
0.66468954 0.28095424 -0.64580464 0
0.70204592 0.2974906 -0.67936748 0
0.77978492 0.32319534 -0.71915895 0
0.6592555 0.3848772 -0.65475732 0
0.72914529 0.39324558 -0.6866008 0
0.79594493 0.35261726 -0.75396466 0
0.85241079 0.35298896 -0.81170738 0
0.9017446 0.37431741 -0.85763562 0
0.99483967 0.35875928 -0.95727122 0
0.64702988 0.48966599 -0.65633261 0
0.7215786 0.47289002 -0.68850398 0
0.29205108 -0.49381566 -0.20926732 0
0.86284828 -0.48611236 -0.62839949 0
0.26291752 -0.45177239 -0.18655199 0
0.29439831 -0.4382118 -0.21514362 0
0.39454794 -0.46327579 -0.29096931 0
0.59521818 -0.41189516 -0.52030802 0
0.67578769 -0.40621662 -0.56618565 0
0.75834537 -0.41121006 -0.6307162 0
0.85406756 -0.41453481 -0.63584822 0
0.59126759 -0.30737698 -0.5237335 0
0.66897202 -0.31716514 -0.57447076 0
0.78438592 -0.30204666 -0.63598692 0
0.85492754 -0.30724323 -0.62452644 0
0.97843933 -0.25798547 -0.69928634 0
0.59084487 -0.22362089 -0.52834427 0
0.66521144 -0.2132498 -0.58385873 0
0.77991271 -0.2197578 -0.63815975 0
0.84419823 -0.2023617 -0.64287454 0
0.96487403 -0.19483864 -0.6912868 0
0.60305691 -0.12564242 -0.54395509 0
0.65455461 -0.11860693 -0.58762956 0
0.72589278 -0.14041221 -0.64052641 0
0.84432673 -0.11010492 -0.64163828 0
0.95834899 -0.11468279 -0.69585377 0
0.83386135 -0.011735559 -0.64682263 0
0.94864035 -0.0080599785 -0.70113611 0
0.8270452 0.086295009 -0.65314507 0
0.91811967 0.096022725 -0.69136786 0
0.82038951 0.1812067 -0.66089284 0
0.93933249 0.19393682 -0.72215247 0
0.80772734 0.29225171 -0.66339087 0
0.90213656 0.3054837 -0.70359075 0
0.97939134 0.32134914 -0.76161975 0
0.76152682 0.39721978 -0.66169512 0
0.81172395 0.3913281 -0.66270828 0
0.91788936 0.39100659 -0.72760582 0
0.9988277 0.37701583 -0.79026711 0
0.75309348 0.46342385 -0.66176355 0
0.81317687 0.47979498 -0.67566085 0
0.19070125 -0.48762244 -0.12435251 0
0.33413601 -0.49399531 -0.15996575 0
0.42915249 -0.47688198 -0.21592075 0
0.87716889 -0.4661752 -0.60907108 0
0.97870207 -0.47274458 -0.66687107 0
0.26674914 -0.45199919 -0.14407933 0
0.34164691 -0.44337851 -0.17794991 0
0.41810489 -0.43175197 -0.20364302 0
0.68640208 -0.42246294 -0.41237688 0
0.72462249 -0.42656374 -0.43605816 0
0.88328671 -0.40780997 -0.61170554 0
0.97795725 -0.43386972 -0.67451656 0
0.68865561 -0.33573174 -0.42494047 0
0.88244367 -0.31088507 -0.61546934 0
0.96835732 -0.32490218 -0.67444414 0
0.87725019 -0.20394039 -0.62340909 0
0.94456816 -0.2272681 -0.66884989 0
0.47483611 -0.49981475 -0.12731463 0
0.61088276 -0.47149909 -0.20038152 0
0.67041898 -0.48939967 -0.28425866 0
0.40324616 -0.45057952 -0.12467426 0
0.48236537 -0.43583488 -0.16131067 0
0.55734944 -0.41849256 -0.18625909 0
0.66548371 -0.44822896 -0.27739519 0
0.70459056 -0.43851411 -0.35006618 0
0.53927255 -0.4538995 -0.11051303 0
0.61928177 -0.4318645 -0.1356498 0
0.69660878 -0.42213881 -0.17112392 0
0.76918316 -0.39854503 -0.18771636 0
0.72197437 -0.35285354 -0.18471271 0
0.68369317 -0.48820269 -0.089537501 0
0.75437999 -0.49347687 -0.10201126 0
0.68364549 -0.44132042 -0.087599635 0
0.76511908 -0.43503904 -0.11631906 0
0.83868241 -0.41211092 -0.15512884 0
0.92000985 -0.41550517 -0.16842341 0
0.80311322 -0.49283159 -0.076372445 0
0.82130456 -0.43096435 -0.069410384 0
0.8967762 -0.42926109 -0.096305132 0
0.97720408 -0.40742791 -0.13515896 0
0.96720576 -0.47141004 -0.066550374 0
0.95922089 -0.43143344 -0.052031279 0
0.71024108 -0.34232414 -0.75862199 0
0.71117783 -0.28118849 -0.75358522 0
0.96860337 0.30260432 -0.91796815 0
0.72024512 0.35609579 -0.68638349 0
0.81588292 0.34567308 -0.78654087 0
0.85683298 0.31500065 -0.80158412 0
0.94264102 0.32588446 -0.88728392 0
0.72398782 0.44101059 -0.69604623 0
0.556041 -0.45179689 -0.54783392 0
0.56764102 -0.349895 -0.53360647 0
0.56707764 -0.2525264 -0.53387606 0
0.67112541 -0.2319833 -0.58498615 0
0.75021482 -0.24597991 -0.64211142 0
0.87959218 -0.2152493 -0.77726811 0
0.57129979 -0.16805542 -0.53265619 0
0.67038035 -0.14921558 -0.59232008 0
0.7444675 -0.15128577 -0.64454865 0
0.90949297 -0.17340505 -0.77474976 0
0.57494259 -0.058781385 -0.5335499 0
0.65792823 -0.062481284 -0.59221768 0
0.72672272 -0.049984932 -0.64422649 0
0.81491399 -0.071903825 -0.6708706 0
0.58928967 0.037223697 -0.55236882 0
0.64733291 0.033424735 -0.59538907 0
0.71890879 0.048305273 -0.65253216 0
0.81306648 0.058270216 -0.66256678 0
0.60816431 0.10376346 -0.57352197 0
0.64776945 0.14520979 -0.60978138 0
0.71284723 0.13874471 -0.66186219 0
0.80800414 0.14914513 -0.66407585 0
0.66110587 0.24985576 -0.62952381 0
0.7237072 0.26513767 -0.66905832 0
0.80979133 0.24156439 -0.66088545 0
0.90127778 0.26376688 -0.69029987 0
0.99662447 0.27181447 -0.7635864 0
0.67453957 0.30313575 -0.64348173 0
0.75351691 0.34627187 -0.66631591 0
0.80485582 0.32984412 -0.66695881 0
0.91386604 0.33005655 -0.73672062 0
0.98416448 0.37445807 -0.76718426 0
0.75129604 0.42968583 -0.6653589 0
0.80903029 0.45011055 -0.66523832 0
0.92245865 0.45489585 -0.73360401 0
0.2120533 -0.46639216 -0.19416922 0
0.26287866 -0.43606716 -0.22169858 0
0.42863488 -0.4982233 -0.38107532 0
0.5908668 -0.46910644 -0.51582235 0
0.68203402 -0.45584238 -0.56079662 0
0.76135802 -0.45589423 -0.62268955 0
0.85732198 -0.45353496 -0.63214356 0
0.19840574 -0.42214239 -0.18527752 0
0.26996636 -0.41154635 -0.22108948 0
0.5997932 -0.36834645 -0.51896405 0
0.68006945 -0.34066594 -0.57279718 0
0.79159904 -0.34987247 -0.63263577 0
0.86078882 -0.36631513 -0.62248635 0
0.58846593 -0.27596951 -0.52038586 0
0.66939616 -0.26679933 -0.57363117 0
0.79692531 -0.26881516 -0.63218641 0
0.86380386 -0.26541674 -0.61936224 0
0.95669937 -0.25934041 -0.67351598 0
0.57847452 -0.21075654 -0.51029313 0
0.80224061 -0.20205438 -0.62944651 0
0.84934473 -0.16234994 -0.63358855 0
0.93875647 -0.14758062 -0.69986272 0
0.84445238 -0.065224886 -0.63858688 0
0.96065521 -0.05818069 -0.70328182 0
0.84407949 0.032028556 -0.64214987 0
0.97660184 0.021725059 -0.72392225 0
0.8408947 0.13637948 -0.64063931 0
0.95151353 0.13753033 -0.71046585 0
0.84324956 0.23150706 -0.64747709 0
0.93557429 0.23156881 -0.70571572 0
0.82929349 0.29592347 -0.63574517 0
0.24916029 -0.49143815 -0.14316809 0
0.32957721 -0.46437037 -0.18465239 0
0.40701509 -0.46149182 -0.2185514 0
0.6702137 -0.48711133 -0.41803211 0
0.72869754 -0.4712503 -0.42608762 0
0.88648248 -0.44747949 -0.61093342 0
0.9936049 -0.44610012 -0.67339396 0
0.21842599 -0.4004429 -0.16158187 0
0.33758378 -0.41673779 -0.18361843 0
0.68054199 -0.39946222 -0.41828734 0
0.73164082 -0.40809941 -0.43176073 0
0.8821919 -0.37790501 -0.60644799 0
0.97158933 -0.35860407 -0.66774964 0
0.38676906 -0.48990667 -0.12075645 0
0.46475482 -0.46515787 -0.16032255 0
0.54361773 -0.45460451 -0.19251251 0
0.67165136 -0.46545076 -0.27506101 0
0.71534014 -0.47607756 -0.36390924 0
0.47725844 -0.42912948 -0.16873109 0
0.54625249 -0.4237572 -0.187249 0
0.70848727 -0.41131043 -0.34941161 0
0.44749284 -0.49492592 -0.090802968 0
0.52213502 -0.48848975 -0.1015352 0
0.60335803 -0.47255385 -0.13197708 0
0.70871663 -0.46187055 -0.16221702 0
0.61081076 -0.4305706 -0.14874047 0
0.67516947 -0.43154299 -0.17059791 0
0.7608583 -0.43235421 -0.18168169 0
0.66162205 -0.48882401 -0.08424437 0
0.74461603 -0.48749924 -0.093777716 0
0.83113647 -0.46294165 -0.12854606 0
0.68013477 -0.44308209 -0.10253066 0
0.74875164 -0.4316597 -0.11721551 0
0.82056069 -0.41581166 -0.15946043 0
0.90265155 -0.41998768 -0.16241175 0
0.80310369 -0.48175025 -0.072997928 0
0.86878514 -0.4877677 -0.075560749 0
0.80112553 -0.43499696 -0.058672488 0
0.90166259 -0.4345634 -0.091670334 0
0.96821499 -0.41825378 -0.1302864 0
0.96718502 -0.46067607 -0.04366827 0
0.94519854 -0.4445374 -0.045202613 0
0.9694736 0.28458023 -0.7614668 0
0.83640337 0.36755168 -0.66788644 0
0.91228294 0.39260757 -0.7285319 0
0.93500638 0.48321497 -0.75455612 0
0.53640842 -0.42006135 -0.54126912 0
0.6692965 -0.2701205 -0.58977032 0
0.74882889 -0.27737081 -0.63530833 0
0.59304094 -0.19770706 -0.53165615 0
0.64701676 -0.21750879 -0.57660007 0
0.74454212 -0.20649529 -0.63999683 0
0.80120921 -0.22988737 -0.68204546 0
0.68400383 -0.12931037 -0.60858679 0
0.80613971 -0.10287774 -0.64690876 0
0.99049973 -0.081192493 -0.73162669 0
0.81287622 -0.0021337271 -0.63773119 0
0.92277098 -0.027740836 -0.68273771 0
0.99915433 -0.016565442 -0.7479825 0
0.78966665 0.10197508 -0.6561383 0
0.81937933 0.09931457 -0.63791955 0
0.932549 0.10389662 -0.70500565 0
0.97912192 0.091495752 -0.73630327 0
0.79596424 0.20447779 -0.64216471 0
0.82177043 0.1697247 -0.64156604 0
0.92042184 0.21027362 -0.71357274 0
0.79853821 0.28254485 -0.63523054 0
0.8551054 0.27460957 -0.67358261 0
0.73831797 -0.49134505 -0.61160004 0
0.84158278 -0.49344909 -0.62094879 0
0.57005644 -0.40501082 -0.51489359 0
0.6723969 -0.41468036 -0.56749243 0
0.76034141 -0.36273539 -0.61665511 0
0.84407783 -0.41895902 -0.61644721 0
0.56834674 -0.31418312 -0.5141744 0
0.6490674 -0.32811952 -0.56168276 0
0.78764009 -0.31653821 -0.62201142 0
0.85302067 -0.30876362 -0.61135 0
0.958323 -0.33851957 -0.66974431 0
0.56305838 -0.21808243 -0.50629157 0
0.79233646 -0.23081148 -0.61070621 0
0.82911181 -0.21029842 -0.6219334 0
0.94615912 -0.21405125 -0.67969882 0
0.83174539 -0.10196388 -0.61814564 0
0.91986585 -0.074486017 -0.67069602 0
0.9987309 -0.11351037 -0.72879636 0
0.86314249 -0.04918623 -0.6330409 0
0.28800941 -0.49348283 -0.19665343 0
0.16136169 -0.47258919 -0.10640204 0
0.22185493 -0.46550155 -0.17991906 0
0.29055905 -0.46519321 -0.2005859 0
0.65459013 -0.43948746 -0.4100253 0
0.71454287 -0.47250402 -0.42426622 0
0.85933518 -0.43762565 -0.59459853 0
0.9573462 -0.44726157 -0.65428019 0
0.64235759 -0.37137079 -0.39938408 0
0.25060582 -0.4850744 -0.13581884 0
0.34559059 -0.47543991 -0.14446074 0
0.4239161 -0.47181952 -0.17348599 0
0.50359797 -0.44748771 -0.19212943 0
0.69427013 -0.46812546 -0.35694915 0
0.47565055 -0.48895758 -0.11458999 0
0.5575304 -0.47349083 -0.14630526 0
0.65276718 -0.46044803 -0.16460919 0
0.52463722 -0.49399531 -0.073648334 0
0.62118244 -0.49093485 -0.084720135 0
0.69856977 -0.48297274 -0.10555089 0
0.7775054 -0.46018934 -0.14670789 0
0.8714962 -0.44154739 -0.16503412 0
0.79247046 -0.39717853 -0.16361409 0
0.87492728 -0.41785753 -0.14946324 0
0.75484753 -0.48578382 -0.064592302 0
0.83552384 -0.48128366 -0.079304516 0
0.93072867 -0.45993745 -0.10998166 0
0.98642898 -0.45463586 -0.13071394 0
0.8518405 -0.4382621 -0.07937783 0
0.92204547 -0.43232191 -0.1155194 0
0.96851993 -0.49361825 -0.052504659 0
0.71913123 0.36302519 -0.69722176 0
0.91815519 0.31125188 -0.85890019 0
0.63100219 0.42973006 -0.64322633 0
0.70714879 0.42227352 -0.68934095 0
0.71666908 -0.37706029 -0.73956752 0
0.39616489 -0.088255644 -0.46217409 0
0.42804027 -0.061908126 -0.47964144 0
0.46342468 0.008464098 -0.5070706 0
0.5203321 0.01597321 -0.53834713 0
0.62305427 0.041838646 -0.58928895 0
0.69239974 0.018314123 -0.63516372 0
0.53868484 0.10211086 -0.54722488 0
0.63836765 0.085307002 -0.60822487 0
0.71616817 0.095123053 -0.66104752 0
0.53651214 0.19150996 -0.553743 0
0.62037659 0.22178268 -0.60629076 0
0.68909431 0.19764316 -0.65323436 0
0.79241705 0.23170197 -0.6661607 0
0.54184461 0.29263771 -0.5590294 0
0.63367653 0.33130372 -0.63233215 0
0.73041344 0.31620479 -0.67134774 0
0.7972002 0.30765867 -0.67534268 0
0.89058065 0.3314687 -0.70154524 0
0.98947835 0.30007458 -0.77588165 0
0.59009027 0.38612652 -0.60248095 0
0.73760009 0.40711582 -0.66688776 0
0.80298233 0.39122081 -0.66028547 0
0.97277951 0.41345656 -0.77032238 0
0.78562188 0.49863482 -0.66830742 0
0.0720222 -0.48256046 -0.21495277 0
0.22451258 -0.497123 -0.37125719 0
0.29163146 -0.48238403 -0.38614058 0
0.55469728 -0.4800117 -0.54091942 0
0.24026299 -0.41860878 -0.35744506 0
0.29429555 -0.39938056 -0.35044819 0
0.55745888 -0.39496529 -0.53691363 0
0.68193102 -0.3828063 -0.5853169 0
0.74475551 -0.36489594 -0.63123339 0
0.78322697 -0.38046539 -0.65479159 0
0.24493694 -0.33071899 -0.35847235 0
0.29719925 -0.31035995 -0.36443412 0
0.38597775 -0.29462361 -0.40457058 0
0.44144702 -0.28316498 -0.44031042 0
0.56144619 -0.30643916 -0.52677941 0
0.66323209 -0.27202797 -0.57000661 0
0.76297355 -0.27810311 -0.65010685 0
0.78482533 -0.29813766 -0.64674491 0
0.86792827 -0.25307286 -0.75136834 0
0.30943203 -0.20817745 -0.38493323 0
0.383147 -0.21274674 -0.42108405 0
0.45643806 -0.18440819 -0.46375212 0
0.56464314 -0.21523094 -0.52823573 0
0.63905501 -0.23619199 -0.5655902 0
0.73215199 -0.19582772 -0.62969804 0
0.82323432 -0.18396795 -0.64897746 0
0.92119789 -0.20513952 -0.77462256 0
0.38926244 -0.11853004 -0.44124186 0
0.47884846 -0.10868716 -0.49124855 0
0.55942202 -0.098923683 -0.52529377 0
0.63150907 -0.10204089 -0.5734849 0
0.71190763 -0.090703845 -0.64033711 0
0.82168126 -0.10834754 -0.64789528 0
0.94009352 -0.055612326 -0.69759095 0
0.45315576 -0.043644547 -0.48161188 0
0.54653358 -0.028589249 -0.53092539 0
0.63127422 -0.0059827566 -0.58678007 0
0.73409152 -0.017793417 -0.66280508 0
0.82328773 -0.00098383427 -0.64295876 0
0.81480813 0.10789406 -0.650985 0
0.93545985 0.12307608 -0.7016238 0
0.81693602 0.20896351 -0.64222026 0
0.91076374 0.17358136 -0.69865859 0
0.98826528 0.24787021 -0.76129287 0
0.90829372 0.26569986 -0.70515668 0
0.16644073 -0.49840242 -0.20198029 0
0.23212647 -0.48128408 -0.22368598 0
0.85218287 -0.48942661 -0.6276809 0
0.17682505 -0.46837777 -0.18926305 0
0.25417948 -0.45788062 -0.20937264 0
0.31955051 -0.42826295 -0.34848267 0
0.58904457 -0.403198 -0.51391852 0
0.66827202 -0.40762532 -0.56354451 0
0.74783111 -0.42318976 -0.61995542 0
0.84577322 -0.39320695 -0.61945885 0
0.96047139 -0.39855051 -0.66074395 0
0.58931184 -0.35405958 -0.51447207 0
0.82646537 -0.31033468 -0.6191588 0
0.97351646 -0.3524667 -0.67964733 0
0.83870244 -0.21049118 -0.62302911 0
0.91762686 -0.20613801 -0.6568588 0
0.84638834 -0.13175476 -0.62294912 0
0.92934036 -0.10131729 -0.67754787 0
0.25654936 -0.48032993 -0.14956009 0
0.32433367 -0.4705016 -0.18734497 0
0.40712166 -0.46599185 -0.20196497 0
0.66550398 -0.45246804 -0.40411997 0
0.7166307 -0.46761239 -0.42016745 0
0.8722353 -0.44203222 -0.59810972 0
0.37148619 -0.49339414 -0.12961686 0
0.46081328 -0.47760928 -0.15173626 0
0.54279184 -0.4726826 -0.18580669 0
0.68884754 -0.47855484 -0.32544279 0
0.5859406 -0.49022841 -0.1193276 0
0.66422582 -0.46017313 -0.15428144 0
0.74977827 -0.43494964 -0.17068624 0
0.64202738 -0.48741555 -0.077130973 0
0.73785114 -0.49159622 -0.092928827 0
0.8103559 -0.46428263 -0.13827252 0
0.88135767 -0.48245895 -0.14057493 0
0.82846761 -0.41901493 -0.15825784 0
0.93601799 -0.4784441 -0.097046196 0
0.96400809 -0.43617332 -0.11211663 0
0.68580985 0.2692374 -0.79753435 0
0.40339184 0.33494282 -0.59353232 0
0.44941998 0.33438766 -0.61988056 0
0.67318845 0.38113678 -0.80529881 0
0.45491576 0.39782798 -0.63554358 0
0.66241932 0.42253542 -0.81765747 0
0.077272415 -0.46480149 -0.43700328 0
0.095504045 -0.36691844 -0.41781357 0
0.11731243 -0.29126573 -0.41317272 0
0.14532638 -0.20706129 -0.41776016 0
0.16858649 -0.12161648 -0.42093372 0
0.19603515 -0.08557117 -0.42491338 0
0.22735476 0.0093325377 -0.43070936 0
0.28658652 0.047433972 -0.46231478 0
0.24322104 0.11370349 -0.44663727 0
0.31028605 0.1022923 -0.48059741 0
0.38425088 0.12522519 -0.52196425 0
0.4513247 0.12142146 -0.55588245 0
0.32160711 0.22247505 -0.51010954 0
0.39799142 0.20648706 -0.55536807 0
0.50342822 0.21731865 -0.59338242 0
0.36314797 0.2962662 -0.55405426 0
0.50766015 0.3237108 -0.59331787 0
0.58233118 0.28110206 -0.6012373 0
0.64718103 0.30874455 -0.65225571 0
0.75270271 0.32540965 -0.71602792 0
0.94082522 0.30785084 -0.87529278 0
0.515095 0.42833722 -0.59839851 0
0.57969904 0.40338778 -0.61065483 0
0.63714075 0.40848637 -0.65756464 0
0.73636985 0.42761993 -0.71226466 0
-0.024626017 -0.49131495 -0.26280677 0
0.13901091 -0.48736811 -0.42385042 0
0.20722461 -0.47539878 -0.40515852 0
0.15215373 -0.39142358 -0.40738207 0
0.21205783 -0.40875697 -0.39475548 0
0.16064382 -0.29158366 -0.40466258 0
0.22816801 -0.29675484 -0.39571363 0
0.1687572 -0.20874476 -0.4136121 0
0.23413134 -0.19577587 -0.40613353 0
0.34342957 -0.18206465 -0.43090567 0
0.39997363 -0.17126966 -0.46338677 0
0.24687076 -0.096658111 -0.41606057 0
0.33914471 -0.09732151 -0.44930869 0
0.43205929 -0.1084038 -0.48826012 0
0.52354407 -0.092956781 -0.53711343 0
0.67027092 -0.066832423 -0.62645286 0
0.25398755 -0.018208981 -0.42998278 0
0.327492 0.00013935566 -0.46361446 0
0.41982579 -0.0055383444 -0.5070976 0
0.53195167 0.01235652 -0.55541801 0
0.59748268 0.0076357126 -0.57565272 0
0.68322682 0.029613376 -0.64318013 0
0.74820542 0.013814211 -0.69506681 0
0.42673993 0.071700573 -0.52879697 0
0.52692842 0.099619985 -0.57406539 0
0.61080599 0.093554258 -0.59958732 0
0.68954635 0.10581684 -0.65677816 0
0.8158834 0.1104275 -0.69367397 0
0.54492521 0.18176854 -0.57262099 0
0.59700274 0.21094465 -0.60519093 0
0.67914319 0.19078028 -0.66032648 0
0.79553556 0.21011829 -0.69620216 0
0.80023932 0.30988908 -0.68413991 0
0.88003159 0.26307988 -0.69668812 0
0.92698145 0.32763934 -0.74647486 0
0.79562449 0.41406798 -0.68508214 0
0.93161988 0.42048669 -0.75963819 0
0.10858297 -0.49514258 -0.24595791 0
0.18540788 -0.48007536 -0.26301068 0
0.24596572 -0.4907403 -0.39606917 0
0.33007622 -0.49291712 -0.42881614 0
0.59064341 -0.4968611 -0.58194453 0
0.14687943 -0.46341461 -0.25293446 0
0.2761054 -0.41888726 -0.38193876 0
0.36222863 -0.40187371 -0.39318323 0
0.57278919 -0.39979637 -0.56553984 0
0.6109364 -0.40752077 -0.55303776 0
0.71766162 -0.37545896 -0.62450397 0
0.79877329 -0.3914125 -0.68451256 0
0.2919271 -0.31779134 -0.38538647 0
0.37464619 -0.30962551 -0.41733867 0
0.42864037 -0.28506553 -0.45132202 0
0.57627773 -0.32053149 -0.5568639 0
0.5996747 -0.30194974 -0.55399078 0
0.79441023 -0.3238734 -0.6745913 0
0.27899909 -0.25606191 -0.38579577 0
0.3579607 -0.22959161 -0.42412186 0
0.45161104 -0.19257128 -0.47612876 0
0.5719192 -0.19048309 -0.5556187 0
0.6099329 -0.18894863 -0.56631559 0
0.69894195 -0.20695019 -0.6253801 0
0.81811786 -0.20871365 -0.67024767 0
0.53921747 -0.13121498 -0.53331816 0
0.63004613 -0.12380505 -0.58977193 0
0.72236657 -0.11085188 -0.66235781 0
0.84422684 -0.097098589 -0.6661728 0
0.83514452 0.0014739037 -0.67353249 0
0.9082098 0.0019233227 -0.69041789 0
0.99388862 -0.04325676 -0.74284482 0
0.83177733 0.086485982 -0.67231625 0
0.96237063 0.12208951 -0.74702871 0
0.83381248 0.16947234 -0.66554284 0
0.87162638 0.15645909 -0.68271124 0
0.23786211 -0.498595 -0.22281903 0
0.73775458 -0.49852526 -0.62691998 0
0.87114429 -0.49573207 -0.65194631 0
0.17370605 -0.47803462 -0.1889953 0
0.25686407 -0.46734607 -0.24725485 0
0.32662797 -0.43698061 -0.24314189 0
0.61033797 -0.43846238 -0.53287792 0
0.86250472 -0.42168546 -0.64997715 0
0.89701271 -0.41219211 -0.6283555 0
0.8394165 -0.3254596 -0.64832383 0
0.94665265 -0.34581435 -0.67499387 0
0.99709225 -0.2866627 -0.72405708 0
0.85519218 -0.23350263 -0.64084816 0
0.90323472 -0.24203134 -0.65824187 0
0.86368775 -0.13584232 -0.64497036 0
0.95623326 -0.15850878 -0.70761383 0
0.34118533 -0.4965322 -0.24477315 0
0.31989169 -0.49521261 -0.17374742 0
0.3992641 -0.47357142 -0.21077013 0
0.48559737 -0.48269153 -0.22862494 0
0.65833068 -0.46555305 -0.43481362 0
0.72220325 -0.46687818 -0.43792999 0
0.97868299 -0.45380056 -0.68077672 0
0.53105164 -0.48498726 -0.18836808 0
0.61194777 -0.4726851 -0.20279211 0
0.70627308 -0.48990571 -0.3521266 0
0.72240353 -0.48637533 -0.38344407 0
0.67384839 -0.4832902 -0.16274667 0
0.77010298 -0.46583974 -0.18994749 0
0.77936745 -0.44097209 -0.19341713 0
0.7279284 -0.49624884 -0.11105436 0
0.90548086 -0.47761917 -0.17578429 0
0.82594275 -0.45196354 -0.14665771 0
0.88926983 -0.43646801 -0.17520791 0
0.86626339 -0.44476306 -0.093012869 0
0.96717906 -0.46994328 -0.11280912 0
0.98605227 0.28366792 -0.90741742 0
0.62233377 0.13355625 -0.60453546 0
0.6975553 0.073137999 -0.65925086 0
0.78512573 0.13315797 -0.66964531 0
0.78300977 0.20439434 -0.67818236 0
0.77265263 0.29280388 -0.65998131 0
0.90777445 0.23648667 -0.71877074 0
0.76974821 0.38924098 -0.6577512 0
0.90698934 0.34230375 -0.72550416 0
0.9556067 0.43712306 -0.77824485 0
0.78228116 0.47293508 -0.65660536 0
0.29471779 -0.24688172 -0.38818777 0
0.34653616 -0.18309665 -0.41451454 0
0.40350151 -0.20325482 -0.44481075 0
0.54840779 -0.20992088 -0.52622485 0
0.7659905 -0.25759006 -0.65535331 0
0.93307137 -0.2386241 -0.76578867 0
0.35350466 -0.15450835 -0.42496872 0
0.42350364 -0.13387525 -0.46538115 0
0.50684071 -0.11749649 -0.50755274 0
0.62150908 -0.10156977 -0.57364756 0
0.69788623 -0.13965058 -0.62077838 0
0.8089304 -0.13274169 -0.65404147 0
0.52118325 -0.017075777 -0.53018093 0
0.5772419 -0.062787771 -0.55208862 0
0.67582178 0.030735254 -0.62861753 0
0.8014245 -0.023509026 -0.64646161 0
0.86101246 -0.037190318 -0.64066553 0
0.53196931 0.0474751 -0.53511506 0
0.60896039 0.085137844 -0.58080763 0
0.80303335 0.080340385 -0.64901137 0
0.92600298 0.043612361 -0.70016664 0
0.80456853 0.19117725 -0.64149261 0
0.89418077 0.2059443 -0.69187826 0
0.17816401 -0.49646497 -0.37831587 0
0.19006467 -0.4363001 -0.36676437 0
0.25253558 -0.43261194 -0.3534168 0
0.32724094 -0.42077827 -0.34987044 0
0.55888414 -0.42199266 -0.52443504 0
0.59665585 -0.45382297 -0.5202629 0
0.67367768 -0.43062341 -0.57584953 0
0.81580281 -0.42273164 -0.63919663 0
0.26439834 -0.33011782 -0.3585394 0
0.35012484 -0.34046912 -0.3823331 0
0.55861092 -0.33371496 -0.52026916 0
0.69568348 -0.35216248 -0.60530674 0
0.80687451 -0.32825458 -0.62568927 0
0.87679291 -0.31851768 -0.62199414 0
0.27894473 -0.25394058 -0.36792135 0
0.35224032 -0.24553812 -0.40318626 0
0.42981791 -0.24655986 -0.44264966 0
0.55578971 -0.2525574 -0.51891518 0
0.59573197 -0.23257887 -0.5375104 0
0.82109213 -0.23976767 -0.62558568 0
0.99002028 -0.24563527 -0.71697873 0
0.8279202 -0.14418459 -0.6286608 0
0.89974785 -0.18827748 -0.65492308 0
0.82778049 -0.078064561 -0.62484801 0
0.034666777 -0.49535483 -0.14921004 0
0.10511804 -0.47155905 -0.20111918 0
0.20885539 -0.47964579 -0.20255142 0
0.2771244 -0.48587334 -0.22163421 0
0.65946698 -0.46110606 -0.41631448 0
0.85340142 -0.45831251 -0.61248732 0
0.85669041 -0.35306203 -0.59966904 0
0.56856418 -0.48314834 -0.17644215 0
0.65775347 -0.46834779 -0.17667931 0
0.65031958 -0.45424068 -0.19117224 0
0.7030375 -0.49923873 -0.13622499 0
0.642766 -0.4681673 -0.092982352 0
0.70064378 -0.46306384 -0.13132405 0
0.77570033 -0.43178797 -0.17691684 0
0.77192593 -0.49406052 -0.063689947 0
0.8463335 -0.48534119 -0.091428518 0
0.91663861 -0.47074211 -0.13692981 0
0.97016144 -0.48063409 -0.073712468 0
0.74276471 -0.24851811 -0.64894009 0
0.66003966 -0.15254426 -0.59482563 0
0.78258252 -0.10109055 -0.64134932 0
0.78007674 -0.00013434887 -0.63834494 0
0.79017091 0.052640557 -0.62210882 0
0.78667402 0.16732931 -0.61878121 0
0.53764629 -0.42182231 -0.50973713 0
0.63579464 -0.40901256 -0.55110371 0
0.75993848 -0.40349972 -0.62811518 0
0.81420684 -0.43483567 -0.61812598 0
0.37521148 -0.3351481 -0.39717895 0
0.5328114 -0.31882215 -0.50783318 0
0.76107359 -0.3215574 -0.61658692 0
0.81945229 -0.30691433 -0.60332704 0
0.52910304 -0.21271586 -0.50376689 0
0.57473469 -0.24357784 -0.5267992 0
0.78167009 -0.21165681 -0.62314707 0
0.82665062 -0.23753035 -0.61120427 0
0.79810357 -0.11264956 -0.62020218 0
0.85427856 -0.11283255 -0.63545901 0
0.80312657 -0.039674759 -0.61055142 0
0.24783874 -0.49211055 -0.3397699 0
0.25868416 -0.44684631 -0.33416706 0
0.30095696 -0.42629611 -0.34485942 0
0.57328844 -0.46530032 -0.5030337 0
0.8290205 -0.44810283 -0.59811747 0
0.28545046 -0.36035001 -0.33743882 0
0.82624364 -0.35353768 -0.59533858 0
0.11012959 -0.49196631 -0.15522212 0
0.14433312 -0.4661268 -0.19666451 0
0.26691246 -0.48648548 -0.18967974 0
0.33754063 -0.46919405 -0.19158489 0
0.66220427 -0.48145437 -0.38082421 0
0.68564868 -0.46080244 -0.41732353 0
0.29261994 -0.48633248 -0.1381439 0
0.39667773 -0.48016518 -0.14881176 0
0.48329806 -0.47919965 -0.16766989 0
0.56692481 -0.49183786 -0.18239278 0
0.65404654 -0.49383652 -0.31256086 0
0.52525568 -0.49344492 -0.11127841 0
0.61758065 -0.48597562 -0.13206702 0
0.69293904 -0.45918262 -0.1471473 0
0.84639192 -0.48267388 -0.12271065 0
0.95069051 -0.48066366 -0.14668763 0
0.73911834 -0.4514339 -0.098858833 0
0.83742237 -0.45888925 -0.1310789 0
0.96857738 -0.44704032 -0.12697804 0
0.80525374 -0.48058999 -0.037735641 0
0.90372109 -0.47663152 -0.068215132 0
0.98931813 -0.49569452 -0.026821852 0
0.8843348 -0.21255291 -0.74322778 0
0.52267456 -0.35620368 -0.52346754 0
0.74006581 -0.39812529 -0.62523627 0
0.53051949 -0.2854836 -0.50895631 0
0.6783855 -0.24720979 -0.61402619 0
0.76069808 -0.31712461 -0.61985618 0
0.77675366 -0.23124146 -0.61788911 0
0.79857635 -0.11569428 -0.61937785 0
0.78460908 -0.0082012415 -0.63194108 0
0.7923553 0.064332962 -0.62032062 0
0.26820493 -0.43491054 -0.33505809 0
0.54401851 -0.47536457 -0.50708115 0
0.32633257 -0.37084353 -0.36987388 0
0.53773665 -0.35601699 -0.50072038 0
0.78154445 -0.39285171 -0.59990942 0
0.81935883 -0.46210718 -0.61006904 0
0.5644381 -0.31785095 -0.51387376 0
0.77595615 -0.35565531 -0.60030258 0
0.82484913 -0.36150992 -0.59824592 0
0.82170343 -0.2485435 -0.5965817 0
0.6342535 -0.44638193 -0.40220231 0
0.70717669 -0.44250035 -0.4445377 0
0.41986656 -0.48023254 -0.18190533 0
0.68626428 -0.49529731 -0.38475966 0
0.67537999 -0.45612025 -0.3478269 0
0.47222829 -0.49429464 -0.12107056 0
0.54688025 -0.49309993 -0.17216635 0
0.58064866 -0.47329104 -0.14271134 0
0.66931438 -0.47339523 -0.16375285 0
0.59784627 -0.47165561 -0.10307974 0
0.72178245 -0.48609304 -0.11884373 0
0.83402586 -0.46766937 -0.14607829 0
0.89759707 -0.43892622 -0.085066259 0
0.96110916 -0.49088967 -0.030044913 0
-0.1023376 -0.095595598 -0.43894988 0
-0.077554941 -0.047330379 -0.4421978 0
-0.055768967 -0.048142791 -0.43941057 0
-0.045856953 0.068787456 -0.42965686 0
-0.0032327175 0.059977651 -0.43612695 0
-0.023691177 0.14069855 -0.41909575 0
0.021902561 0.14492452 -0.42598432 0
0.0015187263 0.26211834 -0.40223724 0
0.059350491 0.22733212 -0.41689873 0
0.12415528 0.25624096 -0.4292649 0
0.016659021 0.34949768 -0.39089605 0
0.075713634 0.33501244 -0.41586441 0
0.16897297 0.32375968 -0.45578796 0
0.2212503 0.30440962 -0.48814595 0
0.31392431 0.28765607 -0.5455119 0
0.10298038 0.4399426 -0.43752512 0
0.14069319 0.38358164 -0.44272679 0
0.25948215 0.42574954 -0.52631348 0
0.34527087 0.39137352 -0.57231355 0
0.45023465 0.32656503 -0.60946071 0
0.67354226 0.32890594 -0.75694335 0
0.2044735 0.46746385 -0.49965453 0
0.36375499 0.46561193 -0.60225904 0
0.46502638 0.44904697 -0.60444355 0
0.66420269 0.37791216 -0.76755762 0
-0.10143995 -0.46193546 -0.45026332 0
-0.30525804 -0.30967844 -0.25067657 0
-0.12517238 -0.32676619 -0.43611094 0
-0.08865118 -0.36728281 -0.43293953 0
-0.36201167 -0.22689003 -0.19653583 0
-0.26577854 -0.19503367 -0.2683925 0
-0.11001444 -0.26248193 -0.42561421 0
-0.056561947 -0.26259255 -0.41827863 0
-0.27039933 -0.13003087 -0.26523864 0
-0.10223222 -0.16061544 -0.43292686 0
-0.027182817 -0.16064143 -0.42316231 0
0.0079510212 -0.069457412 -0.42822593 0
0.085381985 -0.07380867 -0.41919279 0
0.045231581 0.01994431 -0.43309495 0
0.12428617 0.0004222393 -0.42154384 0
0.062000036 0.11060143 -0.43605399 0
0.14499879 0.1006707 -0.42856884 0
0.24558258 0.11894703 -0.45195109 0
0.091549873 0.18433368 -0.42868173 0
0.15047598 0.19038832 -0.43314198 0
0.26883745 0.15432858 -0.46451691 0
0.36374235 0.16243875 -0.51856291 0
0.46544361 0.16556418 -0.56584269 0
0.1527493 0.28712237 -0.43238515 0
0.26486039 0.25306833 -0.48949873 0
0.38031244 0.25737798 -0.56156319 0
0.47091794 0.26738811 -0.60159326 0
0.49932933 0.20441675 -0.57986665 0
0.49791121 0.34139216 -0.57440293 0
0.72195005 0.28147554 -0.69784927 0
0.82008362 0.27422881 -0.7608915 0
0.95021749 0.28812635 -0.83303356 0
0.49814034 0.44876611 -0.56834388 0
0.60042524 0.37158358 -0.62520623 0
0.6701293 0.38177919 -0.66639602 0
0.7320118 0.37877643 -0.67760772 0
0.77413034 0.47947347 -0.67752355 0
-0.50820875 -0.48517483 -0.15410972 0
-0.48231745 -0.37940931 -0.13190353 0
-0.39427996 -0.41086805 -0.19611025 0
-0.32496667 -0.4407602 -0.25358009 0
-0.05401063 -0.47444129 -0.43932673 0
0.02460289 -0.49383223 -0.42138413 0
-0.46012759 -0.32203752 -0.13203323 0
-0.391927 -0.32985771 -0.1836316 0
-0.02306962 -0.38485467 -0.41829583 0
0.044971228 -0.40626514 -0.40324223 0
0.0059492588 -0.29815698 -0.40668121 0
0.080231667 -0.29829192 -0.3940101 0
0.095259428 -0.2065196 -0.40196171 0
0.18540692 -0.18724203 -0.39408913 0
0.13938141 -0.12075007 -0.40452489 0
0.21102691 -0.10899532 -0.39905998 0
0.18065286 -0.030161977 -0.4084945 0
0.23219323 -0.031585813 -0.41525888 0
0.35825562 -0.045670033 -0.46334773 0
0.45664024 -0.053532958 -0.51445132 0
0.53387356 -0.055084705 -0.5498789 0
0.24935389 0.065346241 -0.43338531 0
0.34930348 0.028666735 -0.48338905 0
0.47272205 0.031653285 -0.53670061 0
0.53404713 0.023259878 -0.54379427 0
0.63930702 -0.0075975657 -0.60095471 0
0.46485949 0.092710137 -0.54502982 0
0.51962471 0.11705971 -0.55830359 0
0.53989291 0.20423067 -0.56416851 0
0.79035234 0.19261944 -0.67127436 0
0.79140306 0.13191807 -0.67308462 0
0.77660942 0.27624929 -0.6611805 0
0.7886188 0.37925482 -0.66465783 0
0.1046772 -0.40900373 -0.38910699 0
0.17604661 -0.43010718 -0.37421709 0
0.13922119 -0.33275592 -0.38400829 0
0.20632219 -0.34997165 -0.37437809 0
0.2255404 -0.24926496 -0.38148218 0
0.33115864 -0.29393613 -0.40437299 0
0.39586663 -0.26414025 -0.42768544 0
0.25775313 -0.18178082 -0.39277989 0
0.34446239 -0.17540693 -0.42549735 0
0.44790649 -0.18358088 -0.47082919 0
0.55281258 -0.18970585 -0.52416098 0
0.94919372 -0.23965037 -0.80058193 0
0.38904595 -0.10623753 -0.45657086 0
0.46619844 -0.087582827 -0.49925286 0
0.54200625 -0.10658693 -0.5428164 0
0.82047892 -0.15431333 -0.65203017 0
0.71284437 -0.078196287 -0.65009177 0
0.81192517 -0.052956939 -0.65610099 0
0.81365871 0.038339257 -0.64767236 0
0.81148005 0.1213938 -0.64870751 0
0.91416621 0.1070075 -0.70440328 0
0.13164258 -0.4940719 -0.2207132 0
0.25441909 -0.45401722 -0.35738081 0
0.30841708 -0.46249276 -0.35373747 0
0.26745152 -0.37655342 -0.36020029 0
0.32495618 -0.34400463 -0.36672533 0
0.56952405 -0.45470178 -0.52421594 0
0.79599261 -0.43076563 -0.63738245 0
0.35898042 -0.30856121 -0.39987457 0
0.57023025 -0.34111428 -0.5330497 0
0.69627833 -0.36039674 -0.60465914 0
0.80484557 -0.36160994 -0.63302016 0
0.83968639 -0.43462062 -0.64007378 0
0.81901717 -0.28157198 -0.63116044 0
0.83139586 -0.17328811 -0.6349861 0
0.83975148 -0.10918307 -0.62216067 0
0.63968182 -0.48070955 -0.41340286 0
0.86282158 -0.37098956 -0.60441589 0
0.45136023 -0.48425257 -0.19596767 0
0.72030139 -0.49126935 -0.42860681 0
0.73159862 -0.44695294 -0.17499965 0
0.89246655 -0.49774539 -0.13577425 0
-0.20858335 -0.079798341 -0.35479516 0
-0.096794844 -0.10375905 -0.44171089 0
-0.27671361 0.00791049 -0.30387998 0
-0.20410776 0.00073182583 -0.37191355 0
-0.061708927 -0.05473268 -0.44882309 0
-0.11754894 0.085688233 -0.42197037 0
-0.035386562 0.049497247 -0.44096312 0
-0.10912156 0.17265904 -0.40991291 0
-0.002081871 0.15000916 -0.4289012 0
-0.097597361 0.32246816 -0.38777795 0
-0.056019068 0.26330209 -0.40255976 0
0.03720212 0.24333286 -0.41923881 0
-0.084565163 0.38095808 -0.3779507 0
-0.0065095425 0.34658825 -0.39824921 0
0.077598333 0.35322666 -0.42102388 0
-0.052595139 0.46657503 -0.38631326 0
-0.019097328 0.44477999 -0.40038919 0
0.091210127 0.40813351 -0.43838304 0
0.19674826 0.38625431 -0.48108518 0
0.31496668 0.32089996 -0.55336303 0
0.1044867 0.49140739 -0.45143625 0
0.23592019 0.49666405 -0.53491712 0
0.29346871 0.42351604 -0.55963242 0
0.38897705 0.45170152 -0.61202294 0
0.41697001 0.36016655 -0.60959619 0
0.66786408 0.31783485 -0.77523804 0
0.4800694 0.47332597 -0.59868896 0
0.6647172 0.42172897 -0.77068853 0
0.98937678 0.47208393 -0.93566227 0
-0.69213915 -0.46077514 -0.055606842 0
-0.53228354 -0.48191202 -0.15672296 0
-0.30455327 -0.38416153 -0.26743853 0
-0.091827869 -0.46981555 -0.45667645 0
-0.5234015 -0.21303564 -0.099604428 0
-0.43362951 -0.23217469 -0.1523701 0
-0.38592601 -0.243442 -0.19020629 0
-0.31081629 -0.28422219 -0.24991685 0
-0.11932993 -0.3270849 -0.44389206 0
-0.067397356 -0.37557614 -0.43689853 0
-0.4902041 -0.13332927 -0.12758768 0
-0.42230654 -0.13495409 -0.17937982 0
-0.34853578 -0.16132557 -0.21813816 0
-0.2589798 -0.18167484 -0.28184485 0
-0.091467619 -0.24240708 -0.43233916 0
-0.047359467 -0.26588976 -0.42329401 0
-0.31851435 -0.090775847 -0.25760597 0
-0.24566913 -0.076828361 -0.30918628 0
-0.065229893 -0.13570011 -0.43260944 0
0.0094664097 -0.17885244 -0.42380798 0
-0.038179159 -0.089814782 -0.43814701 0
0.03981638 -0.086886644 -0.43205485 0
0.026738167 0.065912485 -0.44063699 0
0.083351135 -0.0016288757 -0.43281272 0
0.062167406 0.14689672 -0.44034922 0
0.10669446 0.07918632 -0.43890771 0
0.17400002 0.066517711 -0.43431759 0
0.088691235 0.24553025 -0.42616639 0
0.14392304 0.17445004 -0.44068879 0
0.23678565 0.12997997 -0.44818926 0
0.35096359 0.10120714 -0.51503599 0
0.4446516 0.1221267 -0.56316006 0
0.16597939 0.27215159 -0.43991765 0
0.25293231 0.24814475 -0.49066055 0
0.35043001 0.22004592 -0.5357855 0
0.42217135 0.20083106 -0.55903852 0
0.49787998 0.20697284 -0.59009749 0
0.33443189 0.31118917 -0.54955828 0
0.47096801 0.27131069 -0.58292645 0
0.4991107 0.39882267 -0.57872951 0
0.59872818 0.36068964 -0.6264782 0
0.69850659 0.28252161 -0.73649478 0
0.79952025 0.25991583 -0.75414014 0
0.73739529 0.3764565 -0.68050301 0
-0.63997388 -0.48075622 -0.082585812 0
-0.65054464 -0.37442851 -0.046861053 0
-0.58221245 -0.38956475 -0.086166322 0
-0.50930738 -0.43181211 -0.13866937 0
-0.45533657 -0.43903917 -0.17861146 0
-0.34897923 -0.48989236 -0.2630325 0
-0.61842823 -0.28619021 -0.035599649 0
-0.56358218 -0.30121279 -0.070288718 0
-0.47264481 -0.31874192 -0.13053024 0
-0.40659523 -0.37674427 -0.19106084 0
-0.34719205 -0.40340912 -0.23609233 0
-0.29162669 -0.4479599 -0.28669643 0
-0.51272774 -0.25024831 -0.094552219 0
-0.010278463 -0.38041288 -0.42301378 0
0.043875456 -0.43231958 -0.41550985 0
0.013005018 -0.28929901 -0.41003063 0
0.075173616 -0.33250546 -0.40132403 0
0.063234329 -0.20865667 -0.41521704 0
0.1259613 -0.2406106 -0.40194079 0
0.098865509 -0.13441694 -0.41442108 0
0.16700768 -0.14013898 -0.40570804 0
0.18860388 -0.049030185 -0.41414812 0
0.30165291 -0.041183114 -0.43564773 0
0.37520814 -0.074709296 -0.48913229 0
0.20901418 0.039479852 -0.4209578 0
0.31564093 0.022428513 -0.46496302 0
0.41561031 -0.038706899 -0.49416816 0
0.53551531 -0.029124737 -0.5544982 0
0.2714045 0.12586939 -0.45468372 0
0.35734248 0.096010447 -0.50133747 0
0.44568181 0.056296945 -0.53683805 0
0.52972436 0.042733431 -0.5582459 0
0.71635652 -0.066437483 -0.66951621 0
0.51537752 0.16416073 -0.56935018 0
0.52145815 0.22222602 -0.56030238 0
0.59482026 0.22285247 -0.59870803 0
0.80773783 0.16685021 -0.65785271 0
0.79575229 0.10372996 -0.67951608 0
0.77523017 0.24906802 -0.67346191 0
0.79324865 0.32730818 -0.66908497 0
0.79515457 0.43360686 -0.65944326 0
0.099605799 -0.4401418 -0.40244931 0
0.16205215 -0.47129029 -0.39072967 0
0.14492798 -0.3575716 -0.38678914 0
0.21427131 -0.38131344 -0.3771584 0
0.17442203 -0.28960383 -0.38934523 0
0.24353004 -0.27907348 -0.38368911 0
0.32913566 -0.33055711 -0.39086109 0
0.24576187 -0.18725288 -0.39133871 0
0.35949445 -0.2605896 -0.42195839 0
0.48519468 -0.21921384 -0.50003195 0
0.5556531 -0.25961423 -0.54064834 0
0.31824327 -0.13063002 -0.42854288 0
0.39870906 -0.16505671 -0.45787835 0
0.56212258 -0.2111429 -0.52942264 0
0.78316879 -0.26559138 -0.6530987 0
0.78751135 -0.28576279 -0.68195248 0
0.47632527 -0.094129801 -0.51255268 0
0.54870462 -0.11573994 -0.54137051 0
0.81557775 -0.14583623 -0.66393012 0
0.82753921 -0.16914237 -0.65059811 0
0.82512879 -0.053515911 -0.6476441 0
0.81050587 0.024861574 -0.66316199 0
0.24098158 -0.48627996 -0.3722592 0
0.27929187 -0.41209316 -0.36534417 0
0.32504821 -0.44105625 -0.36614805 0
0.3817234 -0.34332204 -0.40937942 0
0.56933022 -0.36351192 -0.52645099 0
0.60629821 -0.41377258 -0.53366542 0
0.56422424 -0.34933639 -0.53685039 0
0.81383061 -0.39393055 -0.64074707 0
0.80081606 -0.27178812 -0.63025182 0
0.85170698 -0.31955588 -0.62662184 0
0.84110737 -0.20514357 -0.63465989 0
0.69298816 -0.46174145 -0.43498307 0
0.86263061 -0.45945716 -0.62108088 0
0.85405707 -0.49391031 -0.17137325 0
0.89405823 -0.48289597 -0.1325106 0
0.99268007 0.12574625 -0.87210667 0
0.98632908 0.070082545 -0.88312674 0
0.66986847 0.023228168 -0.63589138 0
0.76128006 0.27134466 -0.63295567 0
0.75606847 0.19309235 -0.64299315 0
0.75593495 0.33616674 -0.63378781 0
0.34956527 -0.14207947 -0.42489815 0
0.4084084 -0.10683668 -0.46166453 0
0.4654429 -0.14401793 -0.47938836 0
0.5183897 -0.19076216 -0.5017488 0
0.49116969 -0.038774252 -0.50892562 0
0.59546804 -0.094867706 -0.56581521 0
0.74576759 -0.27871251 -0.62234581 0
0.73933196 -0.33311737 -0.63366419 0
0.78379774 -0.21000671 -0.62944967 0
0.79632401 -0.26731384 -0.69103664 0
0.78566074 -0.021615386 -0.6167326 0
0.78588295 -0.075569868 -0.61764401 0
0.77123308 0.049812198 -0.6322335 0
0.13480854 -0.47345066 -0.3590157 0
0.17279315 -0.34270442 -0.34553665 0
0.19171286 -0.40957922 -0.33815455 0
0.26375651 -0.42251492 -0.33172375 0
0.21526933 -0.2601589 -0.34501159 0
0.23652291 -0.34493876 -0.33719677 0
0.31920648 -0.36375868 -0.36090171 0
0.25843334 -0.20207214 -0.36891085 0
0.33095217 -0.27741098 -0.38764328 0
0.52956748 -0.48794854 -0.50477046 0
0.36679673 -0.16532385 -0.41536409 0
0.53331733 -0.34627783 -0.50278366 0
0.53600669 -0.43604434 -0.49350524 0
0.55636501 -0.27124012 -0.51640689 0
0.72523761 -0.455477 -0.61828846 0
0.78062367 -0.37278605 -0.60489881 0
0.81667948 -0.46020746 -0.59816313 0
0.79332781 -0.25452757 -0.59806496 0
0.81055641 -0.28785396 -0.59636885 0
0.98132443 -0.48578978 -0.68946111 0
0.80470324 -0.13924062 -0.5945183 0
0.040060997 -0.49237013 -0.21137404 0
0.14867616 -0.47518432 -0.21110874 0
0.27981257 -0.4206481 -0.32256895 0
0.6573565 -0.49293089 -0.33082324 0
0.327142 -0.47722554 -0.1270712 0
0.52821827 -0.47590315 -0.1526376 0
0.66562867 -0.47224152 -0.15184247 0
0.70881391 -0.49413157 -0.11720109 0
0.82676077 -0.46436095 -0.14335924 0
0.84905267 -0.48662162 -0.093899548 0
0.9087863 -0.49710369 -0.079491735 0
0.97104716 -0.43608999 -0.13023788 0
0.9135468 -0.46424747 -0.04689908 0
0.98708439 -0.032986999 -0.88016999 0
0.9751153 0.14268804 -0.88291383 0
0.99270773 0.043890834 -0.86763597 0
0.97992182 0.22593749 -0.87047243 0
0.65960479 0.10124254 -0.6363045 0
0.75559354 0.11541235 -0.63772541 0
0.75306845 0.058124304 -0.64149445 0
0.70989633 0.33172965 -0.62568378 0
0.749259 0.28356504 -0.63716042 0
0.75902867 0.191136 -0.62936127 0
0.89285684 0.087353349 -0.6912657 0
0.9716804 -0.0069717169 -0.73553485 0
0.7447145 0.40722132 -0.63668239 0
0.11700535 -0.43607825 -0.35721672 0
0.15346599 -0.31035376 -0.3441425 0
0.12421632 -0.39926487 -0.34982431 0
0.19085741 -0.24584222 -0.35035992 0
0.24632955 -0.17424476 -0.37198919 0
0.31070757 -0.088498235 -0.40801722 0
0.35646081 -0.13746369 -0.41836017 0
0.40823913 -0.19275093 -0.43399322 0
0.51497769 -0.27700973 -0.50154942 0
0.41371846 -0.064572334 -0.46316755 0
0.50899005 -0.15274203 -0.50219536 0
0.52014732 -0.24488938 -0.494003 0
0.46980405 0.015575647 -0.50534624 0
0.5023005 -0.060824752 -0.5076741 0
0.55775356 -0.15310633 -0.5324142 0
0.72172689 -0.29749441 -0.62049651 0
0.60951781 -0.03189826 -0.58393252 0
0.75752425 -0.23031497 -0.59306055 0
0.77177477 -0.0080935955 -0.62375712 0
0.78940129 -0.092425108 -0.61537218 0
0.8294282 -0.2048018 -0.68227035 0
0.99018264 -0.35968471 -0.70586503 0
0.77619886 0.10127127 -0.60862935 0
-0.073947191 -0.49940801 -0.21040118 0
0.14993906 -0.46459246 -0.35247409 0
0.13289881 -0.38604695 -0.34494078 0
0.19148254 -0.40861654 -0.33601993 0
0.20628619 -0.28784645 -0.34043866 0
0.26212692 -0.36166227 -0.33342582 0
0.27907348 -0.22044802 -0.36266959 0
0.34254479 -0.27998769 -0.38736266 0
0.52358627 -0.49791563 -0.49376643 0
0.52444839 -0.36315954 -0.49462801 0
0.61936474 -0.39642763 -0.53810126 0
0.79463458 -0.39152551 -0.5986138 0
0.82653522 -0.44035852 -0.59877801 0
0.80448127 -0.25901544 -0.59287429 0
0.056848526 -0.49259263 -0.17400521 0
0.25953293 -0.48176152 -0.19979149 0
0.62150097 -0.38147128 -0.3908906 0
0.64385629 -0.45159638 -0.38074064 0
0.29820585 -0.48532927 -0.13273156 0
0.27849054 -0.49591684 -0.18101847 0
0.38728476 -0.46154177 -0.16793531 0
0.49041128 -0.44404161 -0.17974412 0
0.44554877 -0.47207642 -0.11199087 0
0.51869273 -0.45574701 -0.14980137 0
0.56974435 -0.4614476 -0.11900979 0
0.65912509 -0.44620037 -0.1486361 0
0.49220276 -0.49270618 -0.065230548 0
0.61398315 -0.49900663 -0.068450809 0
0.70013952 -0.46709239 -0.094669044 0
0.7384131 -0.47895706 -0.067798793 0
0.81799746 -0.44327676 -0.13496435 0
0.87755299 -0.45687616 -0.069007456 0
0.9630909 -0.39089334 -0.13524032 0
0.92904639 -0.47560084 -0.03123939 0
0.98361301 0.12697077 -0.88319778 0
0.98010206 0.042070627 -0.8945027 0
0.97740173 0.2084105 -0.88613337 0
0.95883918 0.44705772 -0.89773929 0
0.40862155 0.12764597 -0.5068137 0
0.47141671 0.18049455 -0.54529291 0
0.4798975 0.27188528 -0.53082144 0
0.69337654 -0.034786463 -0.64153063 0
0.75310874 0.1308589 -0.65219891 0
0.68260646 0.34928703 -0.64111978 0
0.73220205 0.26626718 -0.65205985 0
0.75718284 0.20015669 -0.64253855 0
0.74043894 0.48511899 -0.64877421 0
0.71017146 0.39572847 -0.65411884 0
0.76487875 0.32071555 -0.62578046 0
0.073101044 -0.38720369 -0.36297572 0
0.099237442 -0.49201769 -0.37032294 0
0.11248374 -0.34370923 -0.35332787 0
0.14370584 -0.41879123 -0.34869653 0
0.14684916 -0.22572899 -0.35931081 0
0.15647912 -0.28048646 -0.35387051 0
0.1888423 -0.13625252 -0.36571169 0
0.25979686 -0.1612345 -0.37084961 0
0.25411391 -0.045690179 -0.39587551 0
0.32964683 -0.096998334 -0.42645842 0
0.35421872 -0.1977483 -0.41361845 0
0.52274323 -0.37342119 -0.50822681 0
0.29323387 -0.0053838491 -0.43427461 0
0.39102435 -0.06473124 -0.46655333 0
0.45473957 -0.13045382 -0.47611398 0
0.52223277 -0.2122227 -0.50692594 0
0.63849521 -0.38080978 -0.55595392 0
0.34779549 0.074779272 -0.46640903 0
0.46492457 -0.0061839819 -0.50766605 0
0.51330018 -0.096297264 -0.50857669 0
0.70401335 -0.23098123 -0.61623996 0
0.75056124 -0.29217064 -0.61707866 0
0.7453506 -0.34887111 -0.62678379 0
0.48943543 0.13005495 -0.52526826 0
0.49426484 0.080772042 -0.52075255 0
0.78707409 -0.19644058 -0.62354308 0
0.50513864 0.18266523 -0.52682412 0
0.78941464 -0.076730132 -0.61381948 0
0.81858253 -0.22155988 -0.69717211 0
0.77057719 0.13150382 -0.62799686 0
0.77931476 0.040122271 -0.6209321 0
0.77741075 0.19044375 -0.61802673 0
0.16190839 -0.35502124 -0.34290868 0
0.19948387 -0.433285 -0.33740211 0
0.23582935 -0.48192877 -0.33444804 0
0.20734358 -0.29118228 -0.34347171 0
0.27515221 -0.35255611 -0.34364808 0
0.27528191 -0.22391319 -0.36252862 0
0.33672953 -0.24999976 -0.38274378 0
0.40373302 -0.27443862 -0.42982227 0
0.53556633 -0.43635893 -0.49423182 0
0.5303607 -0.2704488 -0.49155599 0
0.80191779 -0.37217069 -0.59293145 0
0.81485796 -0.45981169 -0.60119438 0
0.80029893 -0.24171436 -0.59304881 0
0.18344975 -0.49081069 -0.18611914 0
0.68499827 -0.46354711 -0.39651638 0
0.3089447 -0.4571898 -0.16528416 0
0.32519364 -0.493806 -0.15856719 0
0.43393469 -0.48393065 -0.18001854 0
0.46643972 -0.48041022 -0.1106438 0
0.57094836 -0.45328045 -0.15854311 0
0.71711016 -0.43304408 -0.13566953 0
0.76186585 -0.4519552 -0.11299729 0
0.85936213 -0.44684219 -0.14563417 0
0.88444901 -0.47348821 -0.1256097 0
0.91057301 -0.47468531 -0.10368186 0
0.95701098 -0.43883169 -0.073652446 0
0.75478148 -0.30193305 -0.60995477 0
0.7931397 -0.37394249 -0.60186839 0
0.83600378 -0.47636187 -0.57299882 0
0.77784729 -0.20995271 -0.61396515 0
0.80710483 -0.30193353 -0.60044813 0
0.94803119 -0.38254058 -0.65198851 0
0.77057195 -0.019501567 -0.63237685 0
0.79177499 -0.089210272 -0.60773075 0
0.78617597 0.12772274 -0.60200119 0
0.77380252 0.052529573 -0.62471455 0
0.7604177 0.2556318 -0.63200766 0
0.77380323 0.17553723 -0.61805117 0
0.70929646 0.46278501 -0.62793899 0
0.73736477 0.38238168 -0.63913894 0
0.79946661 0.3514092 -0.63460493 0
0.86820817 0.39718843 -0.70233989 0
0.90518999 0.4954704 -0.74046081 0
0.3771193 -0.47909194 -0.30891645 0
0.68562436 -0.42554808 -0.41597313 0
0.6944561 -0.43564463 -0.4632327 0
0.2027781 -0.4707914 -0.13819748 0
0.26777935 -0.42025214 -0.18432111 0
0.32368755 -0.45389485 -0.16583854 0
0.41991639 -0.39809835 -0.18531477 0
0.66767788 -0.43792236 -0.3496899 0
0.24344277 -0.45739239 -0.091834843 0
0.30746031 -0.49367976 -0.085242152 0
0.28923225 -0.43540859 -0.089429855 0
0.37429285 -0.44464183 -0.11469346 0
0.48608208 -0.43320036 -0.13842654 0
0.57979298 -0.39666247 -0.16495824 0
0.51580143 -0.4596796 -0.078594387 0
0.59570169 -0.48905921 -0.069702864 0
0.64683342 -0.43073797 -0.13553602 0
0.73316979 -0.40859652 -0.12107575 0
0.68878889 -0.45394468 -0.04866755 0
0.76903868 -0.41793144 -0.080048025 0
0.8255372 -0.45822179 -0.040995121 0
0.8713975 -0.41445243 -0.10603082 0
0.95098901 -0.42107642 -0.079808533 0
0.98569512 -0.36961925 -0.1343205 0
0.9982655 -0.44182849 -0.034454942 0
0.69840813 -0.40619636 -0.043340445 0
0.7560184 -0.43931258 -0.031289279 0
0.76928186 -0.3617487 -0.088724136 0
0.81160545 -0.41634965 -0.050316036 0
0.85478973 -0.47452128 -0.042907476 0
0.89340115 -0.38014126 -0.10282731 0
0.88879752 -0.39938903 -0.010655522 0
0.99759626 -0.38876879 -0.043438673 0
0.73969507 -0.37989545 -0.13058043 0
0.64987516 -0.45361435 -0.060431421 0
0.74503207 -0.46105337 -0.065901637 0
0.67972922 -0.40240622 -0.064486861 0
0.7967968 -0.39186943 -0.052006662 0
0.8646729 -0.48489499 -0.055122435 0
0.77938032 -0.35426307 -0.10384595 0
0.89755964 -0.35336065 -0.11147857 0
0.98370671 -0.32954133 -0.097036719 0
0.91537356 -0.42323744 -0.040684342 0
0.91472602 -0.38153231 -0.030448556 0
0.6959703 0.49820685 -0.61572742 0
0.733881 0.42518401 -0.62965351 0
0.74143314 0.35182595 -0.62407476 0
0.67113948 0.46706522 -0.65193272 0
0.75125742 0.24603665 -0.61787128 0
0.67789292 0.41248047 -0.64557576 0
0.7577405 0.20171237 -0.61050308 0
0.98097849 0.29052055 -0.8468225 0
0.76643777 0.084965467 -0.60769302 0
0.98934126 0.19604409 -0.84305847 0
0.77308559 0.047855139 -0.59876323 0
0.9991262 0.083764434 -0.83870232 0
0.78064418 -0.057170033 -0.59648788 0
0.7391932 0.14289689 -0.63693881 0
0.78631067 -0.05038178 -0.58373684 0
0.74585891 0.10528588 -0.62801731 0
0.8397491 -0.34012473 -0.11082035 0
0.65878487 -0.39475906 -0.3568387 0
0.79463339 -0.15223002 -0.57905859 0
0.75398827 -0.035259843 -0.62893772 0
0.74731636 -0.44625235 -0.056717396 0
0.59435058 -0.36833847 -0.13329911 0
0.65341783 -0.42505145 -0.34260684 0
0.70419455 -0.32780874 -0.4386481 0
0.80264521 -0.2847017 -0.57885993 0
0.76055837 -0.061448693 -0.6184119 0
0.97035718 -0.35111034 -0.051498413 0
0.75776434 -0.46274948 -0.048623264 0
0.80245495 -0.3549943 -0.13544357 0
0.51365852 -0.38287365 -0.075334549 0
0.36515284 -0.38976252 -0.15398967 0
0.66820741 -0.37502635 -0.40606773 0
0.80956149 -0.36247349 -0.5737285 0
0.73729038 -0.175228 -0.59859526 0
0.93609381 -0.44090331 -0.025303245 0
0.71583748 -0.37482786 -0.076194704 0
0.51034474 -0.46418715 -0.067060471 0
0.56560731 -0.38619685 -0.16219521 0
0.29805207 -0.4421407 -0.10672349 0
0.66321778 -0.48832405 -0.39866406 0
0.81547594 -0.38366985 -0.56339365 0
0.74455667 -0.21945047 -0.58847547 0
0.93827772 -0.3636179 -0.082753181 0
0.66476202 -0.44091475 -0.041200757 0
0.48822737 -0.36303949 -0.10219669 0
0.27475166 -0.48418474 -0.084050477 0
0.33450055 -0.37949431 -0.17623603 0
0.78050733 -0.28667033 -0.60399938 0
0.84025693 -0.42646623 -0.022781253 0
0.6850462 -0.38500249 -0.10549939 0
