# .PCD v0.7 - Point Cloud Data file format
VERSION 0.7
FIELDS x y z intensity
SIZE 4 4 4 4
TYPE F F F F
COUNT 1 1 1 1
WIDTH 1297
HEIGHT 1
VIEWPOINT 0 0 0 1 0 0 0
POINTS 1297
DATA ascii
0.96363926 0.26341581 -0.35112453 0
0.36160564 0.33684802 -0.34930372 0
0.4340148 0.34763479 -0.34889984 0
0.55482626 0.34883833 -0.3484149 0
0.66261387 0.37911034 -0.34394813 0
0.75938082 0.3434298 -0.34564638 0
0.85231495 0.34867597 -0.34892821 0
0.95293903 0.3774569 -0.34631705 0
0.34785557 0.46525383 -0.34999299 0
0.44423771 0.45872164 -0.34680486 0
0.56515694 0.46651125 -0.34674025 0
0.64539146 0.4555037 -0.34688091 0
0.73617792 0.46263194 -0.34838223 0
0.83441734 0.45264888 -0.34934378 0
0.93935633 0.4500351 -0.34826112 0
-0.26875639 -0.48214054 -0.15711117 0
-0.32153606 -0.47766376 -0.048354626 0
-0.26351213 -0.46942544 -0.032459259 0
-0.90359402 -0.44864488 0.11132026 0
-0.83237791 -0.46147943 0.10905874 0
-0.67614889 -0.45253158 0.1110549 0
-0.29546022 -0.4807117 0.095299363 0
-0.98551226 -0.48910451 0.13066542 0
-0.80434036 -0.49038625 0.18269575 0
-0.71508598 -0.49641562 0.1152271 0
-0.46687698 -0.49573874 0.13605988 0
-0.34238958 -0.49129939 0.20761716 0
-0.28460503 -0.49420118 0.12636817 0
-0.065978527 -0.49754214 0.16979039 0
0.38680887 -0.49416614 0.14704204 0
-0.94855022 -0.44094586 0.16218305 0
-0.8491478 -0.44051862 0.16065276 0
-0.75098991 -0.44563127 0.16097105 0
-0.64856434 -0.44549799 0.16169882 0
-0.55297804 -0.446594 0.16455007 0
-0.43338203 -0.45608139 0.16413534 0
-0.35436964 -0.45112014 0.15996051 0
-0.28642845 -0.45157409 0.16745627 0
-0.15503359 -0.47448206 0.16927457 0
-0.068809509 -0.47869515 0.1551621 0
0.025897503 -0.46710443 0.18287826 0
0.12944412 -0.45963693 0.17153335 0
0.24448538 -0.48635077 0.18481231 0
0.37786007 -0.46858788 0.19554138 0
0.40236568 -0.47889996 0.14821315 0
0.53166771 -0.48834634 0.12576771 0
0.91953278 -0.48421621 0.20109844 0
-0.74216032 -0.49200511 0.21276128 0
-0.15659523 -0.49590206 0.2513243 0
-0.061408043 -0.49106312 0.22718501 0
0.035931587 -0.49096918 0.21402609 0
-0.95058441 -0.43563986 0.24451518 0
-0.85171175 -0.43672395 0.246521 0
-0.7477355 -0.44399023 0.24467015 0
-0.6537447 -0.44116521 0.24780571 0
-0.55154705 -0.4454186 0.24291837 0
-0.43806696 -0.44764423 0.24859297 0
-0.3506813 -0.45136833 0.24840426 0
-0.2765851 -0.46640348 0.26106596 0
-0.15133762 -0.47666883 0.24636626 0
-0.073297977 -0.46111774 0.25984156 0
0.030661106 -0.46643496 0.25498855 0
0.24546146 -0.47575474 0.26843572 0
0.3847127 -0.47907591 0.24546194 0
0.55229282 -0.47013783 0.221349 0
-0.27490425 -0.47215295 0.35739958 0
-0.29006338 -0.47429013 0.47616374 0
-0.32133722 -0.48669219 0.51360095 0
-0.2371583 -0.47015738 0.57285428 0
-0.13569307 -0.45785427 0.64046991 0
-0.070762157 -0.46943569 0.65425026 0
0.052576065 -0.47142768 0.64861357 0
0.1545167 -0.47712493 0.67411494 0
0.2507267 -0.47251701 0.67354524 0
0.40666151 -0.48688459 0.65002418 0
0.42077398 -0.48651814 0.71584046 0
0.082409382 -0.45901179 -0.34086418 0
0.13319492 -0.46050692 -0.3595798 0
0.2326293 -0.46182418 -0.34989381 0
0.33303499 -0.43554926 -0.35218382 0
0.43067217 -0.45801377 -0.35486269 0
0.54885054 -0.45430017 -0.35396194 0
0.63528585 -0.44311571 -0.35620189 0
0.73896599 -0.45055056 -0.35694671 0
0.83540726 -0.47061467 -0.35572743 0
0.96879625 -0.44449854 -0.35536337 0
0.15054178 -0.3508749 -0.35453582 0
0.22550488 -0.33479285 -0.35168266 0
0.33807898 -0.35416412 -0.35343242 0
0.43394041 -0.33355093 -0.35477805 0
0.55672741 -0.32484531 -0.35648346 0
0.64909697 -0.34241271 -0.35285473 0
0.75639915 -0.3409152 -0.35722661 0
0.85333061 -0.35688519 -0.35565424 0
0.97914028 -0.34107566 -0.34893513 0
0.98703861 -0.33601975 -0.35972142 0
0.16788244 -0.24940085 -0.35581303 0
0.24120569 -0.2532661 -0.35529566 0
0.31622553 -0.26283002 -0.35703826 0
0.44612265 -0.2389071 -0.35420799 0
0.56488371 -0.26143765 -0.35704231 0
0.66223049 -0.25072837 -0.35517025 0
0.76382494 -0.27217364 -0.35586834 0
0.86626577 -0.23671937 -0.35416603 0
0.99610567 -0.2272861 -0.35726357 0
0.17643213 -0.17184401 -0.35574985 0
0.25307178 -0.13006258 -0.35428619 0
0.32678938 -0.14412141 -0.35512066 0
0.41927624 -0.13741922 -0.35488939 0
0.57475471 -0.13379169 -0.35416579 0
0.67081642 -0.14820504 -0.35518074 0
0.77150917 -0.16439223 -0.35253382 0
0.87284756 -0.17153382 -0.35854506 0
0.18292809 -0.047260761 -0.35024405 0
0.21341848 -0.022696972 -0.3563602 0
0.33121204 -0.064281702 -0.35648322 0
0.43334007 -0.049141407 -0.35465407 0
0.54108 -0.04666853 -0.35574532 0
0.67473698 -0.046384811 -0.35574031 0
0.77720261 -0.04024744 -0.35336542 0
0.87658024 -0.053207874 -0.35760188 0
0.18312311 0.080943108 -0.35343695 0
0.25667429 0.051570415 -0.35568666 0
0.33086586 0.046135426 -0.35638404 0
0.43270111 0.057573557 -0.35782456 0
0.52218103 0.046645641 -0.35561776 0
0.67420483 0.068505049 -0.35401201 0
0.77682114 0.044319153 -0.35753179 0
0.87568283 0.053500414 -0.35835004 0
0.17914295 0.15020657 -0.35305977 0
0.24972391 0.16256785 -0.35730171 0
0.32580042 0.14676023 -0.35684562 0
0.42239761 0.13284993 -0.35755587 0
0.57429743 0.14106512 -0.35469747 0
0.6702776 0.13865256 -0.35645556 0
0.7714653 0.15048695 -0.35767746 0
0.87120914 0.1507647 -0.35732961 0
0.16692114 0.27057981 -0.35213995 0
0.24005651 0.26471782 -0.35458469 0
0.31643248 0.24132586 -0.35621095 0
0.43694067 0.25221443 -0.3553946 0
0.56300068 0.25978208 -0.35514474 0
0.66138411 0.26264024 -0.35257816 0
0.7643466 0.22890878 -0.35867786 0
0.86357307 0.2559135 -0.35488772 0
0.99272108 0.22677112 -0.35665774 0
0.14820337 0.3592658 -0.3562851 0
0.22682047 0.35017776 -0.35418272 0
0.34748507 0.34450412 -0.35617375 0
0.45399857 0.36486793 -0.35542417 0
0.54996586 0.3610599 -0.35432458 0
0.64848042 0.37372923 -0.35078597 0
0.75636292 0.33331871 -0.35228634 0
0.84937 0.34730554 -0.35836816 0
0.97934055 0.35662413 -0.35470629 0
0.13013697 0.44181061 -0.35616755 0
0.22463417 0.46104169 -0.35268378 0
0.3242836 0.42927885 -0.35531998 0
0.43564653 0.45328736 -0.35625958 0
0.53069353 0.45234084 -0.35616374 0
0.63034487 0.453547 -0.35479236 0
0.74407911 0.42016888 -0.35149527 0
0.83021545 0.45781827 -0.35879707 0
0.96498823 0.44426084 -0.35558081 0
-0.25915241 -0.47889256 -0.24469995 0
-0.31011629 -0.48585749 -0.15522361 0
-0.31022787 -0.47838092 -0.054111242 0
-0.97183752 -0.47403574 0.10252607 0
-0.51711798 -0.46831083 0.10513604 0
-0.27166605 -0.49420881 0.091071844 0
-0.52060127 -0.49699473 0.16847289 0
-0.96980906 -0.45190048 0.15668821 0
-0.86928511 -0.44852209 0.15546882 0
-0.76276112 -0.45067072 0.15737021 0
-0.66758251 -0.44996786 0.15641546 0
-0.56969404 -0.45454383 0.16140282 0
-0.47088003 -0.46384072 0.15359485 0
-0.36629868 -0.4590826 0.15356374 0
-0.28064537 -0.46599936 0.15663791 0
-0.099003315 -0.48517513 0.14058864 0
0.0037660599 -0.47687721 0.16715765 0
0.15891647 -0.48327923 0.16276741 0
0.29823923 -0.48886228 0.15985847 0
0.48036623 -0.47557807 0.16881227 0
0.48743248 -0.49724555 0.13355398 0
-0.83157492 -0.38664603 0.17601335 0
0.49818945 -0.49804139 0.23537946 0
-0.96772003 -0.44676948 0.24022293 0
-0.86288214 -0.44688964 0.24020767 0
-0.76323175 -0.4437983 0.24067771 0
-0.66478539 -0.4484992 0.24167824 0
-0.56881285 -0.4556613 0.24301112 0
-0.47357845 -0.45567584 0.23954821 0
-0.36452055 -0.47448421 0.23365772 0
-0.27404308 -0.47514868 0.24285316 0
-0.097762585 -0.49232817 0.24509084 0
0.013279915 -0.48676872 0.23722446 0
0.14877558 -0.47844338 0.250561 0
0.30978537 -0.49409509 0.21361661 0
0.49343348 -0.48004603 0.23835588 0
0.6976943 -0.4785893 0.26521254 0
-0.28795767 -0.49207592 0.43534136 0
-0.30668926 -0.4902935 0.57970703 0
-0.35782957 -0.48807669 0.6285181 0
-0.28167057 -0.47807384 0.63136673 0
-0.18705845 -0.48226213 0.64228535 0
-0.08648777 -0.47248673 0.65536416 0
0.029513836 -0.47250628 0.64894044 0
0.12084246 -0.49111724 0.66749942 0
0.19331694 -0.48328376 0.6323092 0
0.69357061 -0.47439528 0.64620674 0
-0.23602962 -0.44729233 -0.31521392 0
-0.11674452 -0.46153927 -0.36430836 0
-0.00022315979 -0.44539618 -0.35764098 0
0.10334826 -0.46703434 -0.34888244 0
0.18656492 -0.47565293 -0.35399556 0
0.29346704 -0.44323778 -0.35682964 0
0.38089466 -0.42588997 -0.36180663 0
0.47891665 -0.43154263 -0.35853934 0
0.57720661 -0.45072293 -0.36121297 0
0.70380974 -0.4230597 -0.35621357 0
0.8371129 -0.44750595 -0.35988855 0
0.97816038 -0.46516132 -0.36276603 0
-0.10215616 -0.36403441 -0.35879445 0
-0.025699139 -0.35545588 -0.35974002 0
0.09341383 -0.35377169 -0.35846972 0
0.20167446 -0.343153 -0.3573935 0
0.30035496 -0.33930016 -0.36341596 0
0.39474487 -0.325001 -0.3589139 0
0.49876118 -0.32078099 -0.36163163 0
0.59415913 -0.33310461 -0.35962081 0
0.71720314 -0.34790254 -0.35866308 0
0.85416746 -0.33158612 -0.36073256 0
0.99283028 -0.32383418 -0.35660529 0
-0.085650921 -0.27520537 -0.36012053 0
-0.0079083443 -0.23392987 -0.35917091 0
0.11463499 -0.25760818 -0.36057687 0
0.21779156 -0.24220848 -0.35938454 0
0.31289816 -0.21226358 -0.35917735 0
0.40204144 -0.25380278 -0.3563211 0
0.50840044 -0.22173929 -0.35907674 0
0.60460281 -0.22550941 -0.35659623 0
0.72826338 -0.25484419 -0.35908818 0
0.86225176 -0.23447824 -0.35692811 0
-0.072213173 -0.15290117 -0.35857177 0
0.0037035942 -0.11116409 -0.35878468 0
0.073408127 -0.15628171 -0.35858917 0
0.19625711 -0.15012121 -0.36065412 0
0.31892729 -0.1412313 -0.35997725 0
0.41168976 -0.16620207 -0.35903645 0
0.51377296 -0.13607144 -0.35594869 0
0.6114254 -0.16065288 -0.36051416 0
0.73711872 -0.12544107 -0.35706615 0
0.86881542 -0.15328407 -0.35923243 0
-0.066801548 -0.059371471 -0.35632348 0
0.0066814423 -0.027612925 -0.35580468 0
0.079841614 -0.039092302 -0.35936356 0
0.18555593 -0.043275833 -0.3587606 0
0.32252169 -0.044236898 -0.35651803 0
0.41759777 -0.031917572 -0.35719991 0
0.51817846 -0.050764561 -0.3594265 0
0.6155982 -0.058429241 -0.35851264 0
0.74101353 -0.015659571 -0.35774899 0
0.87306595 -0.075441837 -0.36411667 0
-0.065447807 0.035529852 -0.35731864 0
0.0069966316 0.041840315 -0.35862255 0
0.07996273 0.060032845 -0.35780859 0
0.20100689 0.05487299 -0.35775709 0
0.32304001 0.040786982 -0.3594861 0
0.41765785 0.063019276 -0.35871768 0
0.51770973 0.063622952 -0.36204886 0
0.61647797 0.043277502 -0.35660625 0
0.7404089 0.072986603 -0.35892296 0
0.87315559 0.045382977 -0.35963249 0
-0.071221352 0.14817643 -0.3603425 0
0.0027561188 0.15783381 -0.35594249 0
0.074510098 0.16646957 -0.35767722 0
0.18205833 0.14250994 -0.35855627 0
0.31786299 0.15078688 -0.36141872 0
0.41273403 0.15576744 -0.36082935 0
0.51260567 0.19087243 -0.35814571 0
0.61305046 0.14135075 -0.35869718 0
0.73653173 0.17372584 -0.35786963 0
0.8701725 0.12348175 -0.36348844 0
-0.083797455 0.26227093 -0.36065114 0
-0.0072522163 0.24799609 -0.35849595 0
0.11036587 0.25993681 -0.35876822 0
0.21752119 0.25316072 -0.35929465 0
0.30685997 0.26263309 -0.36218643 0
0.40436077 0.2589159 -0.35991406 0
0.50483418 0.26777411 -0.3597362 0
0.60248327 0.26317835 -0.36097622 0
0.72919893 0.24271226 -0.36233354 0
0.86590004 0.23460531 -0.35637569 0
-0.10003471 0.36516047 -0.35953438 0
-0.011168957 0.35595751 -0.36078596 0
0.091075897 0.32616353 -0.36156869 0
0.20473528 0.36407018 -0.35684347 0
0.29650688 0.3465898 -0.360883 0
0.39329338 0.35221314 -0.35878778 0
0.49376202 0.35902691 -0.35924745 0
0.58912659 0.38031363 -0.3593936 0
0.72204018 0.31792617 -0.36113548 0
0.85690403 0.3299067 -0.35689497 0
0.99595165 0.33787799 -0.35745215 0
-0.097413063 0.46696591 -0.35916841 0
-3.0040741e-05 0.46225262 -0.35808396 0
0.11247683 0.43019652 -0.35934424 0
0.1880846 0.44164205 -0.35888577 0
0.27826786 0.45159197 -0.35998583 0
0.37620974 0.45663857 -0.35816169 0
0.4800601 0.43926096 -0.36000919 0
0.5742979 0.48233199 -0.3573215 0
0.70860958 0.43922925 -0.35673046 0
0.83674145 0.47957253 -0.35652399 0
0.84787655 0.43172526 -0.35221171 0
0.98289776 0.44247222 -0.3572917 0
-0.45635176 -0.45834303 -0.26151562 0
-0.39898825 -0.44281888 -0.27100992 0
-0.29316235 -0.45562363 -0.26755619 0
-0.27696085 -0.49575019 -0.12616205 0
-0.26580095 -0.49605584 -0.095849514 0
-0.25676918 -0.48947763 0.016914606 0
-0.91182899 -0.45769787 0.15105009 0
-0.80084229 -0.45077109 0.15615296 0
-0.69758129 -0.45358634 0.14545572 0
-0.6124382 -0.45083618 0.15418351 0
-0.5263834 -0.45968437 0.1502955 0
-0.42396593 -0.47382021 0.14681852 0
-0.31688881 -0.45615697 0.15272582 0
-0.1017313 -0.47461867 0.14837611 0
0.057344913 -0.47453094 0.17199731 0
0.22778893 -0.48880672 0.10807419 0
0.707654 -0.48232889 0.16337109 0
-0.91155529 -0.45256257 0.23501027 0
-0.79239368 -0.4519825 0.23634529 0
-0.69131327 -0.45528626 0.23309374 0
-0.61093616 -0.46623731 0.23341048 0
-0.52137661 -0.46224737 0.22992778 0
-0.4231534 -0.44448805 0.24277437 0
-0.31160641 -0.46194863 0.23509741 0
-0.089156628 -0.48799515 0.24008512 0
0.070083618 -0.47843266 0.23595858 0
0.48864222 -0.48291683 0.20917034 0
0.76241398 -0.46727657 0.21370339 0
-0.22587395 -0.49222898 0.46771502 0
-0.29222679 -0.48845601 0.54181623 0
-0.60740471 -0.49553657 0.6219182 0
-0.52696896 -0.48979354 0.62405181 0
-0.43914795 -0.48556137 0.63675117 0
-0.3023653 -0.48487473 0.66054058 0
-0.213027 -0.48315501 0.62739849 0
-0.079356194 -0.47897696 0.64958143 0
0.31066513 -0.47463346 0.63173056 0
0.50382614 -0.48000646 0.66597474 0
-0.48057032 -0.44854808 -0.31427693 0
-0.38474655 -0.49872375 -0.31132174 0
-0.33288336 -0.46725655 -0.35378718 0
-0.22005939 -0.44917083 -0.35238075 0
-0.0843153 -0.44634151 -0.35925412 0
-0.0074853897 -0.43224454 -0.36258888 0
0.086537838 -0.44969106 -0.35230446 0
0.17509937 -0.46100211 -0.36002588 0
0.28051567 -0.44195056 -0.35993195 0
0.37890482 -0.44644451 -0.35973096 0
0.50796986 -0.45572662 -0.36123705 0
0.60020828 -0.46488738 -0.3513248 0
0.79357386 -0.46586752 -0.35166335 0
0.93030548 -0.43327522 -0.35955167 0
-0.29609346 -0.33899498 -0.36006689 0
-0.20608234 -0.34131646 -0.35783529 0
-0.094992638 -0.33281064 -0.35999179 0
0.010230541 -0.31782317 -0.3597734 0
0.096896648 -0.36370087 -0.36075807 0
0.19094753 -0.36464787 -0.35822368 0
0.29989958 -0.34919667 -0.36256027 0
0.39909983 -0.33104062 -0.35944152 0
0.52547407 -0.34613252 -0.36213613 0
0.65746117 -0.35964775 -0.3610673 0
0.79961586 -0.3510778 -0.3599596 0
0.94481421 -0.31035089 -0.35676908 0
-0.27799082 -0.26353264 -0.36666226 0
-0.2064333 -0.23457575 -0.35908103 0
-0.12109995 -0.25532126 -0.35759568 0
-0.004509449 -0.23988533 -0.3600471 0
0.11364889 -0.25383234 -0.36250234 0
0.20779181 -0.24346662 -0.35785317 0
0.31068468 -0.264045 -0.36262226 0
0.40978622 -0.2474587 -0.36030388 0
0.53686428 -0.25232625 -0.36275196 0
0.67149258 -0.21959758 -0.35819292 0
0.80839109 -0.26867986 -0.35876894 0
0.95282745 -0.23479843 -0.357692 0
-0.26930904 -0.13690996 -0.35862732 0
-0.1956315 -0.15110779 -0.36282921 0
-0.1227107 -0.14556074 -0.36004424 0
-0.017400742 -0.16060066 -0.3595705 0
0.1228466 -0.14800453 -0.36136103 0
0.21760082 -0.16759109 -0.36277652 0
0.31857204 -0.18720889 -0.36449838 0
0.41759634 -0.14767957 -0.35891628 0
0.54253244 -0.15863061 -0.35840702 0
0.5464325 -0.12101984 -0.36392093 0
0.67662001 -0.18481827 -0.36400032 0
0.81540585 -0.17883348 -0.35731864 0
0.95907068 -0.13766003 -0.35485435 0
-0.26428938 -0.058761358 -0.35971427 0
-0.19056654 -0.030221224 -0.35910439 0
-0.11726809 -0.053742409 -0.36187625 0
0.0036234856 -0.061642408 -0.35833001 0
0.12746668 -0.026968002 -0.36055923 0
0.22209501 -0.050269127 -0.3567059 0
0.32335138 -0.064517021 -0.35792494 0
0.42234755 -0.063528538 -0.36306596 0
0.5484972 -0.042847633 -0.36219192 0
0.6812067 -0.060173035 -0.35996985 0
0.82106543 -0.071718931 -0.35627198 0
0.96285295 -0.063817263 -0.35646534 0
-0.26332331 0.058509111 -0.35867596 0
-0.1902771 0.041322947 -0.3622992 0
-0.11663198 0.03895092 -0.36154008 0
-0.0029535294 0.045793056 -0.36127067 0
0.12740755 0.079884291 -0.35979033 0
0.22341537 0.047781944 -0.35753679 0
0.3249507 0.056809425 -0.35573554 0
0.42286015 0.071652412 -0.35958147 0
0.54845428 0.038311481 -0.36481023 0
0.68220758 0.071282864 -0.35873318 0
0.82318115 0.023215532 -0.35850453 0
0.96445608 0.056900501 -0.3586812 0
-0.26930618 0.16902995 -0.36004543 0
-0.19391441 0.12448812 -0.36214006 0
-0.12150955 0.1506505 -0.3605175 0
-0.0073142052 0.17107272 -0.35844159 0
0.1236434 0.15301156 -0.36060786 0
0.22053623 0.1394825 -0.35953689 0
0.32090092 0.16870809 -0.35821033 0
0.41955948 0.1637044 -0.3588748 0
0.54657936 0.1543417 -0.35670996 0
0.67870426 0.16103697 -0.36083865 0
0.82062531 0.14789963 -0.35873818 0
0.96164608 0.13181138 -0.36480093 0
-0.27990866 0.26570511 -0.36006296 0
-0.20302153 0.25190425 -0.35767484 0
-0.093790531 0.25053 -0.36265957 0
-0.025877953 0.22156954 -0.36143422 0
0.11542368 0.27333212 -0.35698748 0
0.21274424 0.24531603 -0.35928035 0
0.31234837 0.2537303 -0.36239433 0
0.41268921 0.23820662 -0.36210608 0
0.54265499 0.20141268 -0.36029434 0
0.67422485 0.24477196 -0.35877347 0
0.81270218 0.27622271 -0.3590939 0
0.95895195 0.2170558 -0.35930848 0
-0.29815197 0.3775208 -0.35954154 0
-0.20259094 0.36957002 -0.35853577 0
-0.11042976 0.34955359 -0.3587836 0
0.011845589 0.33575583 -0.35969639 0
0.10610151 0.33920527 -0.35867262 0
0.2010293 0.34084368 -0.36029267 0
0.30481148 0.37382555 -0.35312104 0
0.40066481 0.35520411 -0.3602457 0
0.53124189 0.33152294 -0.35905838 0
0.66460085 0.34778094 -0.35808587 0
0.80528402 0.32446098 -0.36395001 0
0.95316648 0.31812263 -0.3552227 0
-0.3142581 0.44524479 -0.36071336 0
-0.20942068 0.46486235 -0.35767817 0
-0.089522839 0.4753828 -0.35825491 0
-0.0069875717 0.44040871 -0.36053514 0
0.085206985 0.45989132 -0.35892463 0
0.18765306 0.44045258 -0.35768175 0
0.28791094 0.44407129 -0.35958481 0
0.38285112 0.46633554 -0.3609643 0
0.51534653 0.46660376 -0.35598397 0
0.64453506 0.46869874 -0.36239648 0
0.65162516 0.4358778 -0.36035085 0
0.79595661 0.46080661 -0.35354877 0
0.9380064 0.45565462 -0.35521793 0
-0.65749741 -0.4884727 -0.26742733 0
-0.60694885 -0.47117877 -0.26933527 0
-0.50640059 -0.44755626 -0.26837516 0
-0.39508581 -0.46790171 -0.27552485 0
-0.31833172 -0.47270441 -0.26060414 0
-0.22498751 -0.44953227 -0.26481271 0
-0.25622082 -0.48833084 -0.12974715 0
-0.22478914 -0.49695587 -0.0086686611 0
-0.2868824 -0.48442626 0.075309753 0
-0.90970182 -0.44910884 0.15517092 0
-0.80253983 -0.44506931 0.14879274 0
-0.67846298 -0.45154166 0.14858544 0
-0.56857252 -0.44725204 0.15381837 0
-0.44091177 -0.45802879 0.1489563 0
-0.30409098 -0.47879481 0.15065742 0
-0.037878513 -0.48132968 0.14876366 0
0.13792133 -0.49327493 0.10215902 0
0.17163134 -0.48982692 0.1647594 0
0.42604971 -0.46903348 0.15398145 0
0.71182728 -0.4618814 0.19126248 0
0.76257849 -0.49229407 0.13129091 0
-0.92671347 -0.43878746 0.23901212 0
-0.81189585 -0.44483113 0.2324599 0
-0.67038488 -0.45756745 0.23033392 0
-0.56813526 -0.45315003 0.23397207 0
-0.55185604 -0.46014547 0.2323842 0
-0.43882275 -0.45004821 0.23747063 0
-0.30287504 -0.44841242 0.23565984 0
-0.24593496 -0.48093247 0.29827726 0
-0.027249813 -0.4872539 0.23194993 0
0.20700216 -0.4727366 0.20954156 0
0.46965885 -0.48923588 0.20853472 0
0.77878428 -0.49329329 0.21008444 0
-0.30564547 -0.48708344 0.36661279 0
-0.23596478 -0.49152374 0.35095918 0
-0.3054409 -0.47807479 0.5609858 0
-0.21450853 -0.47360158 0.50098324 0
-0.79848814 -0.48940039 0.62085807 0
-0.69135523 -0.48758006 0.62529778 0
-0.58273125 -0.47536588 0.64662957 0
-0.50383949 -0.47596312 0.62713766 0
-0.4027729 -0.4639523 0.64139557 0
-0.33174467 -0.49155641 0.64774621 0
-0.19088697 -0.46592975 0.64327884 0
-0.14219379 -0.48209214 0.65265501 0
-0.020549774 -0.48939109 0.6450485 0
0.22406816 -0.48445964 0.68514681 0
0.4412694 -0.47894526 0.66857386 0
-0.43506622 -0.48438048 0.71336877 0
-0.25214386 -0.49188805 0.71356833 0
-0.14655209 -0.48674703 0.72350812 0
-0.70871925 -0.44359708 -0.3019141 0
-0.574296 -0.44076037 -0.32991529 0
-0.53177881 -0.41864157 -0.35132778 0
-0.43365145 -0.43002415 -0.33490014 0
-0.30526352 -0.43411589 -0.35599136 0
-0.23653746 -0.4541018 -0.3294847 0
-0.13642311 -0.42498851 -0.35351825 0
-0.048443794 -0.45562148 -0.3515451 0
0.056561947 -0.44769764 -0.35348392 0
0.1544261 -0.41987324 -0.34787297 0
0.27555656 -0.46787405 -0.35189009 0
0.39682198 -0.46080112 -0.34811044 0
0.55594301 -0.41227865 -0.3508153 0
0.69017506 -0.44402385 -0.34896255 0
0.87085247 -0.42040849 -0.34967208 0
-0.51550388 -0.34014177 -0.3518889 0
-0.40982151 -0.34369683 -0.34795308 0
-0.31200266 -0.33603859 -0.35085845 0
-0.22529221 -0.38508153 -0.34999299 0
-0.12364769 -0.34587288 -0.35331655 0
-0.034277916 -0.35244107 -0.34787393 0
0.070261002 -0.36240411 -0.35346842 0
0.16483974 -0.36631608 -0.3502512 0
0.2889266 -0.36720037 -0.34970808 0
0.42504358 -0.35905147 -0.35335279 0
0.56494427 -0.32372808 -0.34795094 0
0.70371103 -0.35053277 -0.35140061 0
0.88136196 -0.31996274 -0.34801817 0
-0.50045061 -0.24002075 -0.35122907 0
-0.42994118 -0.25165343 -0.35079372 0
-0.3375845 -0.26267862 -0.35279322 0
-0.20838404 -0.25730038 -0.34724903 0
-0.11178875 -0.24494529 -0.35260582 0
-0.018699169 -0.24650025 -0.35035086 0
0.080484867 -0.26196694 -0.35071993 0
0.1779089 -0.2536006 -0.34973359 0
0.30276728 -0.26067591 -0.35194373 0
0.43730736 -0.22207069 -0.35104799 0
0.5741992 -0.22772241 -0.34827304 0
0.71365404 -0.23948956 -0.3512404 0
0.88825941 -0.22991753 -0.34659719 0
-0.49201393 -0.14982247 -0.34979188 0
-0.41898918 -0.13778377 -0.34917378 0
-0.30426598 -0.15859008 -0.35104656 0
-0.21360302 -0.13463569 -0.35166621 0
-0.10503387 -0.16558146 -0.35207963 0
-0.010138512 -0.15974808 -0.3531208 0
0.090363503 -0.13389468 -0.35029435 0
0.18668127 -0.13907123 -0.34907484 0
0.30818605 -0.18865204 -0.35097885 0
0.44279909 -0.12269497 -0.35004759 0
0.58039999 -0.13664651 -0.35033107 0
0.71840811 -0.18006015 -0.35479832 0
0.89335489 -0.15299463 -0.34762454 0
-0.48652077 -0.062096119 -0.35151768 0
-0.41455126 -0.029649734 -0.34901345 0
-0.3414259 -0.040561914 -0.35158336 0
-0.22116709 -0.01728487 -0.34872341 0
-0.1011939 -0.050789833 -0.34613037 0
-0.0064201355 -0.053657532 -0.35226893 0
0.093833447 -0.025349617 -0.35040879 0
0.19013643 -0.028346777 -0.35221529 0
0.31302977 -0.055109501 -0.3482821 0
0.44509172 -0.034940004 -0.35132027 0
0.58282042 -0.062471867 -0.3508265 0
0.7211585 -0.06842041 -0.34960842 0
0.89641666 -0.046893358 -0.34864807 0
-0.48672819 0.06769371 -0.34835923 0
-0.41499662 0.046746731 -0.3528825 0
-0.34251261 0.070317984 -0.35071957 0
-0.22935915 0.056338549 -0.35067904 0
-0.10010242 0.022432089 -0.35101891 0
-0.0069308281 0.054768801 -0.35197854 0
0.093232632 0.068963766 -0.3479979 0
0.3135767 0.064080477 -0.34805822 0
0.44473743 0.030337572 -0.35289979 0
0.58308697 0.026852608 -0.34870529 0
0.72153378 0.039612532 -0.34925675 0
0.89640141 0.05734992 -0.34944534 0
-0.49195957 0.14950204 -0.35129404 0
-0.42139292 0.17423487 -0.34998298 0
-0.3100872 0.15248322 -0.35141206 0
-0.19672728 0.16996121 -0.34803855 0
-0.10489798 0.14509845 -0.34969687 0
-0.013745308 0.17064023 -0.35246968 0
0.089514732 0.15425849 -0.34844494 0
0.18626928 0.15192056 -0.34820032 0
0.30977297 0.15088153 -0.34885907 0
0.44080877 0.13607359 -0.35179472 0
0.57884026 0.15562439 -0.34902406 0
0.71838379 0.12675452 -0.35126209 0
0.89320898 0.14109635 -0.35020471 0
-0.50080156 0.24712992 -0.34867692 0
-0.43076849 0.26826906 -0.34844232 0
-0.31225777 0.2556603 -0.35024858 0
-0.20546484 0.24001408 -0.35203147 0
-0.11491919 0.27352166 -0.34745705 0
-0.023915768 0.278934 -0.35180497 0
0.080414295 0.25626206 -0.349545 0
0.17773247 0.23060083 -0.35366726 0
0.30076408 0.26442289 -0.34946322 0
0.43442297 0.27935171 -0.34341502 0
0.57158136 0.22858524 -0.35442424 0
0.71346378 0.22613907 -0.34871912 0
0.88553905 0.25458026 -0.35099053 0
-0.51872873 0.35805202 -0.34887636 0
-0.41657019 0.34487987 -0.35173178 0
-0.31390572 0.35238004 -0.35238469 0
-0.2192359 0.36760616 -0.34672391 0
-0.12871981 0.36373281 -0.34895563 0
-0.035584927 0.35235929 -0.35299826 0
0.066812992 0.36717582 -0.34888363 0
0.16080952 0.3634994 -0.35325861 0
0.29000044 0.33251953 -0.35350466 0
0.41996336 0.34821153 -0.3530333 0
0.56383991 0.33764076 -0.3485229 0
0.70311069 0.34740949 -0.34673691 0
0.87780666 0.34968328 -0.34874558 0
-0.51679277 0.47636127 -0.34986746 0
-0.42022371 0.44585705 -0.34978044 0
-0.32343483 0.4837873 -0.35047722 0
-0.23531437 0.4275136 -0.35165298 0
-0.15038633 0.46573257 -0.35127401 0
-0.049171925 0.4312501 -0.35283136 0
0.053358078 0.46141386 -0.34655499 0
0.14173651 0.4553988 -0.35661602 0
0.27621412 0.42909956 -0.35245156 0
0.40151262 0.47088289 -0.35283327 0
0.54690886 0.44912124 -0.35044122 0
0.68555975 0.4498353 -0.35215235 0
0.86747599 0.43182373 -0.34895134 0
-0.82332468 -0.46228266 -0.25927734 0
-0.70878744 -0.46623182 -0.26072121 0
-0.60667801 -0.43754482 -0.27286994 0
-0.54539967 -0.4659555 -0.26155031 0
-0.43638897 -0.47160244 -0.26981711 0
-0.29554558 -0.46641374 -0.25636029 0
-0.3266592 -0.48461032 -0.15521455 0
-0.9947238 -0.44471622 0.15979981 0
-0.89407349 -0.44824576 0.15635145 0
-0.78105831 -0.47044635 0.15661573 0
-0.66772985 -0.45125055 0.13407576 0
-0.65180635 -0.43965316 0.16337025 0
-0.51068163 -0.45689082 0.16068804 0
-0.34509325 -0.47238755 0.15446377 0
-0.028107643 -0.47809815 0.16444933 0
0.22850132 -0.49306631 0.16644382 0
0.24796009 -0.48545647 0.13069725 0
0.5263772 -0.49283099 0.18985152 0
0.53618336 -0.45752573 0.14187646 0
0.24818373 -0.49633431 0.26101995 0
-0.88830662 -0.44793987 0.23887897 0
-0.77813435 -0.46216822 0.2349782 0
-0.64846468 -0.46114373 0.24202526 0
-0.50304317 -0.45889068 0.23728085 0
-0.34157228 -0.46976709 0.23836482 0
0.25935936 -0.4818573 0.21452427 0
0.9907093 -0.48504972 0.21780705 0
-0.29006147 -0.47357106 0.44951367 0
-0.30587244 -0.49383759 0.58085465 0
0.18283415 -0.4996593 0.63740683 0
-0.9154973 -0.47312474 0.64140821 0
-0.80973101 -0.47909307 0.64975464 0
-0.71333933 -0.47938061 0.63698697 0
-0.62683249 -0.47682238 0.65284395 0
-0.52746487 -0.46741819 0.64874864 0
-0.41062975 -0.47164845 0.64531457 0
-0.31244469 -0.46868014 0.66666269 0
0.025661469 -0.49226499 0.65504885 0
0.055692196 -0.47061229 0.68880355 0
0.91956139 -0.48837376 0.66997433 0
-0.63480902 -0.4938786 0.7313273 0
-0.49518538 -0.49506283 0.70992565 0
-0.34924889 -0.46106791 0.71287823 0
-0.13735962 -0.49027085 0.71461272 0
0.059776306 -0.48504043 0.71205175 0
-0.81112862 -0.45318985 -0.32297873 0
-0.69387531 -0.43182826 -0.32938731 0
-0.63369179 -0.4421947 -0.34151495 0
-0.50161409 -0.46815062 -0.33696544 0
-0.4259553 -0.4341526 -0.35302949 0
-0.30154085 -0.44035363 -0.34399843 0
-0.22417593 -0.42522526 -0.35539389 0
-0.12468243 -0.44967175 -0.35577345 0
-0.020676136 -0.41954088 -0.35452843 0
0.10245371 -0.46011162 -0.35658312 0
0.14699697 -0.483073 -0.33736563 0
0.23824787 -0.47000718 -0.35814595 0
0.38107872 -0.4379847 -0.35239887 0
0.52047491 -0.4650948 -0.35438824 0
0.59604788 -0.49908209 -0.33620167 0
0.9023838 -0.46478462 -0.354146 0
-0.70597506 -0.34098363 -0.35476863 0
-0.62903643 -0.34670067 -0.35851645 0
-0.52269745 -0.36179829 -0.35376954 0
-0.4021306 -0.3345387 -0.35332417 0
-0.30770636 -0.3566699 -0.35797763 0
-0.21369028 -0.36501431 -0.35616994 0
-0.11017561 -0.33907175 -0.35246205 0
-0.011062622 -0.35378289 -0.3541224 0
0.11895561 -0.32501578 -0.35318184 0
0.25174427 -0.36825657 -0.35755372 0
0.39442539 -0.34808254 -0.35432267 0
0.53404522 -0.36367273 -0.35151601 0
0.71827459 -0.3431673 -0.3540287 0
0.91299963 -0.37721562 -0.35432839 0
-0.68853521 -0.23271036 -0.35575175 0
-0.61437988 -0.22579789 -0.355299 0
-0.52178288 -0.28028154 -0.35465896 0
-0.42769098 -0.25436831 -0.3561424 0
-0.29584455 -0.24183369 -0.35455847 0
-0.2007947 -0.26041293 -0.355793 0
-0.095701694 -0.22487617 -0.35443497 0
-0.0027737617 -0.26499844 -0.35036945 0
0.12879515 -0.21435142 -0.34994674 0
0.13270712 -0.21092105 -0.3583684 0
0.26398468 -0.24312901 -0.35666966 0
0.40241861 -0.27467108 -0.35501385 0
0.544806 -0.26451921 -0.35334063 0
0.72785234 -0.22910476 -0.35295749 0
0.92344475 -0.25679612 -0.3549695 0
-0.67939758 -0.13413548 -0.35565329 0
-0.60770607 -0.1617012 -0.3563683 0
-0.53510094 -0.15401793 -0.35279536 0
-0.41940928 -0.14543581 -0.35310924 0
-0.28724623 -0.14883852 -0.35614276 0
-0.19101286 -0.14234257 -0.35676837 0
-0.088357449 -0.12900591 -0.35642171 0
0.0081706047 -0.15099716 -0.35405445 0
0.13633537 -0.1342566 -0.35690212 0
0.27016354 -0.12633538 -0.35382724 0
0.40943384 -0.16473198 -0.35390878 0
0.55336094 -0.14157343 -0.35563636 0
0.73251534 -0.15553093 -0.35579944 0
0.93011522 -0.12054563 -0.35309792 0
-0.67553854 -0.054172516 -0.35620117 0
-0.60277796 -0.046771049 -0.35680747 0
-0.52919912 -0.060299635 -0.35456705 0
-0.42221022 -0.046614408 -0.35415208 0
-0.2837429 -0.047497511 -0.35532856 0
-0.18765211 -0.025618076 -0.35454869 0
-0.085945606 -0.041399479 -0.35645509 0
0.01264143 -0.040126324 -0.35471654 0
0.13861895 -0.033634186 -0.35591888 0
0.27258492 -0.047930002 -0.35730529 0
0.41335964 -0.075705051 -0.35603189 0
0.55561924 -0.056880713 -0.3547051 0
0.73517084 -0.03425622 -0.34987974 0
0.93166065 -0.045274973 -0.35105276 0
-0.6755476 0.045126915 -0.3526448 0
-0.60409069 0.059937716 -0.35938644 0
-0.52929688 0.048132896 -0.35432875 0
-0.40696478 0.043830633 -0.35441005 0
-0.28414631 0.053986549 -0.35540771 0
-0.18837023 0.051446915 -0.35521698 0
-0.086546421 0.06818223 -0.35231686 0
0.012043953 0.046803474 -0.35425496 0
0.13767433 0.068036079 -0.35438037 0
0.27159643 0.049895048 -0.3576076 0
0.41318369 0.04207778 -0.35453463 0
0.55495977 0.049483538 -0.3550899 0
0.73513794 0.045387268 -0.3510325 0
0.9315486 0.036817312 -0.35205984 0
-0.68168974 0.15352011 -0.35427201 0
-0.60823631 0.15100503 -0.35484111 0
-0.53601027 0.15335441 -0.35775924 0
-0.41948318 0.14525175 -0.35485232 0
-0.2891798 0.14064312 -0.35750806 0
-0.19345188 0.1476779 -0.35652101 0
-0.091729641 0.16601539 -0.35391402 0
0.0087652206 0.12549543 -0.35640812 0
0.13479757 0.12948537 -0.3560524 0
0.26727009 0.1545279 -0.35630488 0
0.40953779 0.10746455 -0.3615427 0
0.54933786 0.18589139 -0.35488367 0
0.73033524 0.1854744 -0.35177469 0
0.7332716 0.13580489 -0.34943891 0
0.92802 0.13313365 -0.35643315 0
-0.69463396 0.27273178 -0.35368145 0
-0.61722422 0.23366404 -0.35558224 0
-0.5459671 0.26110196 -0.35495412 0
-0.42809677 0.23361611 -0.35585976 0
-0.29829025 0.23814869 -0.35761678 0
-0.2030797 0.2521956 -0.3566916 0
-0.10134459 0.26041651 -0.35618556 0
0.0018362999 0.2165246 -0.35635042 0
0.12572908 0.26216006 -0.35340714 0
0.13211155 0.20207405 -0.35104513 0
0.25943136 0.27774096 -0.35211396 0
0.40237856 0.2457149 -0.35468793 0
0.54308844 0.26066422 -0.35586667 0
0.72398233 0.25363302 -0.35527778 0
0.92246103 0.21419287 -0.35858727 0
-0.71114635 0.34922147 -0.35714447 0
-0.63257265 0.3556602 -0.3518461 0
-0.51446962 0.34579515 -0.35413933 0
-0.4037323 0.34481907 -0.35427606 0
-0.31219196 0.34993005 -0.35550857 0
-0.21360159 0.34868526 -0.35376835 0
-0.1124959 0.3415103 -0.35689747 0
-0.010546684 0.33104658 -0.3555963 0
0.11485291 0.36521125 -0.35177159 0
0.25140285 0.31561208 -0.35823798 0
0.39137793 0.34666038 -0.35576749 0
0.53454542 0.35609984 -0.35350943 0
0.71333027 0.36181068 -0.35499024 0
0.91174936 0.35361075 -0.35444164 0
-0.73577785 0.46752739 -0.35505295 0
-0.62235975 0.44139743 -0.35399568 0
-0.5012126 0.45999599 -0.35226083 0
-0.4250145 0.46706414 -0.35257995 0
-0.32990456 0.44653225 -0.35564244 0
-0.2272191 0.42857599 -0.35396683 0
-0.12687874 0.46101284 -0.3511188 0
-0.028211117 0.45617223 -0.35308611 0
0.10045338 0.43706131 -0.35565543 0
0.24126863 0.42057776 -0.35272646 0
0.37686396 0.4588697 -0.35369468 0
0.5194931 0.44968605 -0.35640287 0
0.70198917 0.420192 -0.36003375 0
-0.93869781 -0.45460773 -0.26216733 0
-0.82403231 -0.45254636 -0.26498055 0
-0.72563028 -0.47257447 -0.25961876 0
-0.64661932 -0.45366001 -0.264449 0
-0.5288763 -0.46719074 -0.2745055 0
-0.45426416 -0.43395472 -0.26051927 0
-0.34043884 -0.49003625 -0.25384927 0
-0.24943256 -0.45198393 -0.27090049 0
-0.93757057 -0.39881468 -0.28733897 0
-0.3184557 -0.49945974 0.049418688 0
-0.8901186 -0.45090985 0.16408193 0
-0.77472973 -0.45615506 0.16163611 0
-0.7495513 -0.46237373 0.14671063 0
-0.58674669 -0.45363092 0.15809345 0
-0.3971467 -0.46867228 0.15177798 0
-0.032524586 -0.4491024 0.17547154 0
0.24081755 -0.45294857 0.19825912 0
-0.88589382 -0.44423795 0.25081933 0
-0.75274467 -0.44484615 0.23778415 0
-0.58662081 -0.45942831 0.24187577 0
-0.55544424 -0.45752525 0.23007548 0
-0.3978796 -0.45561576 0.24333549 0
-0.010744572 -0.49214816 0.236691 0
0.31732941 -0.49718285 0.21439528 0
-0.31795168 -0.49878836 0.46286356 0
-0.31847906 -0.48853374 0.59386742 0
-0.90440464 -0.47027421 0.6598829 0
-0.80544949 -0.46578836 0.64466357 0
-0.60679913 -0.48033166 0.67425227 0
-0.52275515 -0.47194648 0.63606596 0
-0.41913271 -0.46656537 0.66826344 0
-0.34621811 -0.49188352 0.62887526 0
-0.21645641 -0.48296785 0.6626035 0
-0.024364471 -0.48651409 0.64951932 0
0.28303146 -0.47409868 0.63629484 0
-0.88019466 -0.4910512 0.71767747 0
-0.73927259 -0.49746418 0.7171694 0
-0.39532375 -0.48781681 0.72415078 0
-0.23706818 -0.48192906 0.71795416 0
-0.98073626 -0.44408393 -0.32568848 0
-0.86361456 -0.41695213 -0.35537565 0
-0.78328991 -0.44168472 -0.32654607 0
-0.65254021 -0.43034339 -0.32585073 0
-0.58434677 -0.43357015 -0.34625685 0
-0.48539495 -0.40974164 -0.350739 0
-0.35995531 -0.45186114 -0.32395434 0
-0.29618073 -0.45804334 -0.33996916 0
-0.15794897 -0.43892074 -0.35489106 0
-0.028413296 -0.45014572 -0.35165644 0
0.11384296 -0.44920468 -0.35231757 0
0.21985388 -0.43918586 -0.3429606 0
0.43758059 -0.43044353 -0.35163403 0
0.62138271 -0.46660066 -0.35152411 0
0.84881258 -0.43455935 -0.35214424 0
-0.96256113 -0.35117078 -0.35522854 0
-0.87518263 -0.35618877 -0.35117662 0
-0.7725482 -0.35362887 -0.35113978 0
-0.66111469 -0.34371185 -0.35296464 0
-0.57141447 -0.3982954 -0.35891557 0
-0.47464609 -0.35928011 -0.35279918 0
-0.3755579 -0.37842798 -0.35274935 0
-0.27406883 -0.34751773 -0.35055065 0
-0.14783287 -0.36045003 -0.35272622 0
-0.020623207 -0.39976144 -0.35126448 0
-0.012884617 -0.34130573 -0.35048175 0
0.12762356 -0.35569739 -0.35270977 0
0.26877069 -0.34458137 -0.35012126 0
0.64388037 -0.35717821 -0.35376668 0
0.85996103 -0.33467269 -0.35179114 0
-0.94983625 -0.25363922 -0.35138273 0
-0.87534618 -0.26267242 -0.35364437 0
-0.76832294 -0.24784994 -0.35210049 0
-0.64974403 -0.28843522 -0.35650897 0
-0.55971384 -0.24933743 -0.34672499 0
-0.46342897 -0.27428079 -0.35165787 0
-0.36105394 -0.26786971 -0.35180378 0
-0.25791693 -0.23385406 -0.3539362 0
-0.13626099 -0.25860715 -0.3511827 0
-0.0024318695 -0.25601625 -0.351686 0
0.13916302 -0.24761081 -0.35224199 0
0.2783308 -0.24033809 -0.34687233 0
0.28223515 -0.22779846 -0.35268807 0
0.4563446 -0.26159739 -0.35133839 0
0.65501022 -0.24222708 -0.35535002 0
0.86788797 -0.25198841 -0.35372853 0
-0.93582964 -0.15141153 -0.35373294 0
-0.86575651 -0.16334414 -0.3508184 0
-0.78856897 -0.14678764 -0.35551047 0
-0.67238092 -0.17294979 -0.3534832 0
-0.54708958 -0.14783216 -0.34991908 0
-0.45291662 -0.16385412 -0.35048902 0
-0.35091209 -0.15860105 -0.35095274 0
-0.25080109 -0.14150023 -0.35333848 0
-0.12655878 -0.14711499 -0.35244513 0
0.0072207451 -0.16213131 -0.35702729 0
0.14655495 -0.15503025 -0.35364151 0
0.28773689 -0.1461904 -0.35340786 0
0.46622133 -0.14001131 -0.35454845 0
0.66020679 -0.16934228 -0.35774517 0
0.87368917 -0.14045334 -0.35008073 0
-0.93096304 -0.056855679 -0.35154307 0
-0.85826254 -0.047016859 -0.35126388 0
-0.78489542 -0.077709913 -0.35533237 0
-0.67126989 -0.059376955 -0.35211086 0
-0.54101896 -0.041888237 -0.35182011 0
-0.44623232 -0.036576986 -0.3495847 0
-0.3454299 -0.051081896 -0.35116053 0
-0.24784851 -0.055573702 -0.34955525 0
-0.12185287 -0.040866137 -0.35415101 0
0.010463238 -0.074553967 -0.35499024 0
0.15014172 -0.053961754 -0.35002351 0
0.29143906 -0.058145285 -0.35730028 0
0.46910667 -0.02591753 -0.35044098 0
0.66278839 -0.051192522 -0.34796405 0
0.87710142 -0.041419506 -0.35043979 0
-0.92965937 0.043093443 -0.3504107 0
-0.85719633 0.047659159 -0.35241759 0
-0.78383732 0.036751747 -0.35097647 0
-0.67023182 0.04020381 -0.35083151 0
-0.54046011 0.040254354 -0.35481405 0
-0.44596529 0.056502819 -0.35513759 0
-0.34409094 0.0086655617 -0.35546482 0
-0.24663925 0.034820557 -0.35329759 0
-0.12136316 0.048740864 -0.35084534 0
0.011139393 0.028606653 -0.35407305 0
0.15105057 0.034902811 -0.35244918 0
0.29139948 0.062668562 -0.3543036 0
0.46967983 0.065698862 -0.34877896 0
0.66370296 0.041429281 -0.35226893 0
0.8779192 0.035212994 -0.35306144 0
-0.9347086 0.14168119 -0.35366142 0
-0.86194658 0.13753414 -0.35445833 0
-0.78743362 0.12614346 -0.35388267 0
-0.68029737 0.15889788 -0.35135543 0
-0.54322624 0.14378786 -0.35039353 0
-0.45080423 0.17695498 -0.35240901 0
-0.34627438 0.12042165 -0.35125387 0
-0.25012207 0.14229202 -0.35422313 0
-0.12409496 0.13064003 -0.35279822 0
0.00776577 0.15241504 -0.35382414 0
0.1477313 0.15864944 -0.35304999 0
0.28878307 0.14379692 -0.35497761 0
0.4677887 0.14692378 -0.34962463 0
0.87607336 0.1383009 -0.35273314 0
-0.94879055 0.27983022 -0.35208225 0
-0.87165689 0.2491343 -0.35277903 0
-0.76710272 0.25540423 -0.35107505 0
-0.64440393 0.24986935 -0.35155964 0
-0.55101109 0.25032353 -0.34949791 0
-0.4576993 0.23758984 -0.35575962 0
-0.35314226 0.22656107 -0.3520658 0
-0.25655746 0.23726487 -0.3534137 0
-0.1316781 0.24575567 -0.35316181 0
-0.001229763 0.27233005 -0.35400248 0
0.1432271 0.25453877 -0.34940934 0
0.28420067 0.23404408 -0.3528235 0
0.45975399 0.26010776 -0.35429931 0
0.6579814 0.2319212 -0.35079885 0
0.87179279 0.25131297 -0.35025501 0
-0.96209335 0.34694314 -0.35478151 0
-0.88720322 0.34574032 -0.3535527 0
-0.77354288 0.35084939 -0.35185087 0
-0.65986061 0.35935259 -0.35210252 0
-0.56531763 0.35503411 -0.35133052 0
-0.46772242 0.34318185 -0.35171795 0
-0.36435556 0.33920169 -0.35033345 0
-0.26855659 0.3467319 -0.35286081 0
-0.14087343 0.34894419 -0.35049331 0
-0.012124538 0.37089491 -0.35411167 0
0.13334608 0.33326674 -0.3537786 0
0.27505064 0.35712099 -0.34964371 0
0.4491477 0.36770749 -0.35561705 0
0.64882898 0.37505889 -0.34765029 0
0.86514044 0.34888697 -0.34930468 0
-0.98350096 0.45930481 -0.35180092 0
-0.86197042 0.44007897 -0.35423672 0
-0.752563 0.45197439 -0.35054123 0
-0.68053675 0.46102357 -0.35389841 0
-0.59073782 0.46513343 -0.35628629 0
-0.48426533 0.44916439 -0.350842 0
-0.3804245 0.45138812 -0.34952796 0
-0.28612089 0.47504687 -0.35039937 0
-0.15408039 0.44845939 -0.3496666 0
-0.022517681 0.44927263 -0.35294259 0
0.11640453 0.48395634 -0.3500495 0
0.26140022 0.43665433 -0.35504842 0
0.44228506 0.45430231 -0.35048604 0
0.63934994 0.43739963 -0.35195732 0
0.85261822 0.46933746 -0.34985709 0
-0.9732461 -0.45176077 -0.26473987 0
-0.90031338 -0.47519135 -0.26035726 0
-0.77784586 -0.4531126 -0.26240182 0
-0.62970495 -0.49018383 -0.25860405 0
-0.58082485 -0.44168043 -0.27807486 0
-0.51386404 -0.48156333 -0.25928116 0
-0.38192463 -0.46943784 -0.25875473 0
-0.26995516 -0.47233486 -0.24065948 0
-0.25365543 -0.47347307 -0.18213224 0
-0.23552084 -0.47819138 0.089467525 0
-0.2082777 -0.48884583 0.03725338 0
-0.90765905 -0.4397223 0.15094626 0
-0.73321915 -0.44025731 0.17549646 0
-0.71001291 -0.44253898 0.14254713 0
-0.49702168 -0.45390296 0.15965188 0
-0.25532722 -0.48173285 0.16305172 0
-0.076350689 -0.47943521 0.14791286 0
0.27759457 -0.49958205 0.15770864 0
0.76808596 -0.47939944 0.15594983 0
-0.90329266 -0.40021324 0.20259345 0
-0.90146303 -0.44951057 0.23700368 0
-0.73973274 -0.42236686 0.2746253 0
-0.70567656 -0.44898343 0.23105872 0
-0.48276663 -0.46759081 0.2311511 0
-0.095633984 -0.48547149 0.25049806 0
0.26678181 -0.49291992 0.25651097 0
0.31232738 -0.46563506 0.21848631 0
0.77969694 -0.46761918 0.22111154 0
-0.31801414 -0.49291706 0.43752158 0
-0.21232128 -0.49202132 0.57684314 0
-0.95302343 -0.46442056 0.65641332 0
-0.76304436 -0.4807322 0.66303754 0
-0.68367004 -0.48603487 0.62994277 0
-0.57278538 -0.47676635 0.67234862 0
-0.46584749 -0.47239685 0.63324273 0
-0.37951326 -0.48934865 0.63207698 0
-0.29172325 -0.4706893 0.69480348 0
-0.029037476 -0.44536972 0.68332219 0
-0.016324997 -0.47146153 0.65229547 0
0.23645115 -0.48931956 0.63478351 0
0.73542786 -0.49403524 0.63696098 0
-0.85185671 -0.48634434 0.73374307 0
-0.72715712 -0.48967767 0.72296298 0
-0.27010202 -0.47301555 0.7375927 0
0.41522837 -0.45335293 -0.34791946 0
0.56784725 -0.47487521 -0.33672595 0
0.42662811 -0.40412378 -0.3499732 0
0.65560341 -0.38825011 -0.34616995 0
0.88021517 -0.41437316 -0.34227586 0
0.24062586 -0.27331376 -0.35232115 0
0.43986368 -0.28442144 -0.34402442 0
0.66992188 -0.31172276 -0.34973288 0
0.89696932 -0.3315382 -0.34673357 0
0.25065804 -0.1470964 -0.34972787 0
0.4527669 -0.18223047 -0.34704614 0
0.67980289 -0.18149495 -0.34333873 0
0.91110706 -0.19877887 -0.34671926 0
0.45875263 -0.070741177 -0.34386134 0
0.68706894 -0.07157135 -0.34656858 0
0.91745567 -0.080231905 -0.34460974 0
0.46033096 0.0077693462 -0.34604502 0
0.6883173 0.019376278 -0.34698248 0
0.91879225 0.017088175 -0.34488106 0
0.25035048 0.12844825 -0.35033941 0
0.45737314 0.13829207 -0.34339333 0
0.6853137 0.10542512 -0.3484211 0
0.91648006 0.11587048 -0.34539223 0
0.44551373 0.26464796 -0.34651566 0
0.45144558 0.20324469 -0.34703612 0
0.67795563 0.17505574 -0.35432053 0
0.91262054 0.13892555 -0.35195065 0
0.43776894 0.3160069 -0.34802175 0
0.66809273 0.2922523 -0.34922528 0
0.90637302 0.26021528 -0.34389353 0
0.42251396 0.40765405 -0.3479867 0
0.65313625 0.40852952 -0.34621406 0
0.89341688 0.35305119 -0.34566212 0
0.87011433 0.4824748 -0.34653282 0
-0.58553982 -0.45464277 -0.33398247 0
-0.38751936 -0.4391799 -0.33064127 0
-0.54830837 -0.35108376 -0.34474957 0
-0.41423655 -0.3581593 -0.34504962 0
-0.29153919 -0.41325402 -0.34818459 0
-0.13175297 -0.41588283 -0.34956264 0
0.022130966 -0.39963436 -0.34576488 0
0.16013479 -0.48424745 -0.34366703 0
0.21422338 -0.43499017 -0.35088992 0
0.28494215 -0.44280744 -0.32006145 0
-0.5287323 -0.24840832 -0.345348 0
-0.40159988 -0.3140204 -0.3489275 0
-0.25845432 -0.29978347 -0.35035086 0
-0.11688566 -0.32712984 -0.34758282 0
-0.10909986 -0.28845954 -0.34949803 0
0.040370464 -0.30053306 -0.34639764 0
0.22421551 -0.31181049 -0.33865571 0
-0.51532459 -0.16027451 -0.34842825 0
-0.38576603 -0.18039346 -0.34533191 0
-0.24577999 -0.17638993 -0.34595108 0
-0.10040426 -0.20159912 -0.34665513 0
0.051091671 -0.218189 -0.34605002 0
0.23366499 -0.29995441 -0.34735203 0
-0.51047516 -0.081886292 -0.34515262 0
-0.37649584 -0.066705227 -0.34510207 0
-0.23980904 -0.14031577 -0.35191488 0
-0.092072487 -0.090349436 -0.34473968 0
0.058538437 -0.13135386 -0.34489465 0
0.24634027 -0.18817997 -0.34696317 0
-0.50766945 0.022337914 -0.34672987 0
-0.37441587 0.030472994 -0.34809005 0
-0.23625565 -0.011419773 -0.34600317 0
-0.088870525 -0.0060582161 -0.34793782 0
0.063626289 -0.031092167 -0.35056496 0
0.25416946 -0.045866489 -0.34618044 0
-0.51035261 0.14891195 -0.34313631 0
-0.3773303 0.13457632 -0.34590054 0
-0.23774099 0.11337352 -0.34474468 0
-0.090715885 0.1203146 -0.34354186 0
0.062703609 0.082265854 -0.34807634 0
0.25414085 0.069431782 -0.34579897 0
-0.51808405 0.22084856 -0.34572494 0
-0.38276196 0.19586897 -0.34702957 0
-0.24465132 0.22462273 -0.34258497 0
-0.097875118 0.19466567 -0.34829044 0
0.059807777 0.14380503 -0.34710813 0
0.24580669 0.18925929 -0.34975338 0
-0.53633881 0.34076047 -0.34683704 0
-0.39331245 0.29532123 -0.3450048 0
-0.25588608 0.29612994 -0.34630251 0
-0.10967159 0.30863833 -0.34556162 0
0.043326855 0.31668401 -0.34465861 0
0.052593708 0.23292923 -0.34602404 0
0.24011993 0.26132989 -0.34668183 0
-0.55903435 0.45936728 -0.34485924 0
-0.40855074 0.39644361 -0.34299386 0
-0.27667713 0.41069984 -0.34667742 0
-0.12644386 0.39799452 -0.34712493 0
0.030547619 0.37741613 -0.34767413 0
0.22863579 0.35486722 -0.34486175 0
-0.42261839 0.49621987 -0.33718979 0
0.013876438 0.47133374 -0.3457675 0
0.20791769 0.44923186 -0.34794831 0
-0.92255783 -0.48857641 -0.25402367 0
-0.8784132 -0.42863035 -0.25786054 0
-0.80267143 -0.42591619 -0.26337171 0
-0.66145325 -0.46680307 -0.26734221 0
-0.54948378 -0.42816234 -0.24378109 0
-0.53682423 -0.44029808 -0.25371444 0
-0.38587856 -0.4910419 -0.25627327 0
-0.66105461 -0.39548755 -0.24797368 0
-0.28997278 -0.43417931 -0.28044653 0
-0.23886871 -0.48785186 -0.091642141 0
-0.29293394 -0.49954152 -0.038634777 0
0.24803686 -0.49419379 0.13118672 0
0.72894526 -0.49384427 0.16095471 0
-0.99573278 -0.44153261 0.13211882 0
-0.78966379 -0.44384766 0.13747871 0
-0.57695866 -0.44330025 0.14586711 0
-0.56002426 -0.47689128 0.13988626 0
-0.28053284 -0.45002341 0.16748691 0
-0.2562232 -0.41561866 0.17340636 0
0.2652359 -0.45929384 0.19784045 0
-0.81025362 -0.43794537 0.21147323 0
-0.77372217 -0.44029951 0.21026468 0
-0.55150986 -0.43810153 0.23744786 0
-0.25807571 -0.47353649 0.23834693 0
-0.5717535 -0.41362238 0.19757712 0
-0.54493904 -0.42114425 0.24094367 0
0.2503376 -0.47603345 0.25418675 0
-0.81729698 -0.46201944 0.26885796 0
-0.6064806 -0.41330028 0.28661072 0
0.22976923 -0.46316767 0.64452338 0
0.874403 -0.46456671 0.7006712 0
-0.94047546 -0.45249963 0.64079845 0
-0.8877697 -0.47235751 0.63431489 0
-0.7435813 -0.46913695 0.63788116 0
-0.66464615 -0.4580524 0.65632558 0
-0.4506793 -0.48080873 0.64669013 0
-0.36633158 -0.48632431 0.63473308 0
-0.16816378 -0.49586654 0.63481176 0
-0.048432827 -0.48590994 0.67490602 0
-0.12722063 -0.44693351 0.67895901 0
0.19484329 -0.46576238 0.67158675 0
0.40855408 -0.49582386 0.73028255 0
0.92772388 -0.47090054 0.74571872 0
-0.9495635 -0.44097662 0.66271532 0
-0.86693096 -0.45102191 0.71157193 0
-0.6898303 -0.46817136 0.70624852 0
-0.38702869 -0.46578288 0.7216047 0
0.18074083 -0.45406508 -0.35311985 0
0.40439749 -0.45499301 -0.34620404 0
0.19313574 -0.35456896 -0.35084128 0
0.41799498 -0.37641835 -0.34860516 0
0.6446867 -0.41075039 -0.34721398 0
0.95537424 -0.41694212 -0.34691906 0
0.20301867 -0.24313235 -0.34737611 0
0.43083668 -0.26564789 -0.35104942 0
0.65622282 -0.32946944 -0.35088801 0
0.96760273 -0.28768492 -0.34441018 0
0.20844889 -0.1635716 -0.34839582 0
0.43635035 -0.15396237 -0.3484776 0
0.66522789 -0.20383215 -0.3529911 0
0.9717226 -0.27113962 -0.35324097 0
0.21073818 -0.0481112 -0.34975553 0
0.43789387 -0.052464724 -0.34197903 0
0.66727686 -0.067104816 -0.34613705 0
0.97519445 -0.12149858 -0.34549093 0
0.20888948 0.053826094 -0.34630299 0
0.43627739 0.014850616 -0.34757757 0
0.66442251 0.018651724 -0.34960914 0
0.97439766 -0.023440361 -0.34785223 0
0.20022917 0.15629196 -0.34953761 0
0.20514297 0.12823868 -0.34448457 0
0.43172073 0.086984634 -0.35047626 0
0.65816116 0.13549495 -0.34665442 0
0.9709568 0.075028419 -0.34415531 0
0.19338608 0.24545312 -0.34482741 0
0.42191887 0.21010137 -0.3467412 0
0.65144968 0.17467761 -0.35124207 0
0.96181679 0.16060638 -0.34804225 0
0.17964029 0.31873631 -0.34815621 0
0.40374804 0.3248806 -0.34876966 0
0.63761854 0.28360081 -0.34995532 0
0.94406509 0.29824758 -0.34800053 0
0.16423321 0.41713691 -0.34554625 0
0.38799238 0.39471602 -0.35128284 0
0.61384773 0.40215611 -0.35194826 0
0.92179346 0.40763068 -0.35038948 0
0.90847063 0.46828318 -0.35043597 0
-0.79336739 -0.4309864 -0.35535491 0
-0.74913406 -0.41716027 -0.33039403 0
-0.65817595 -0.41644454 -0.35257936 0
-0.51590347 -0.45824504 -0.34178472 0
-0.40204811 -0.44364119 -0.31908202 0
-0.65002632 -0.35323501 -0.34875214 0
-0.51488066 -0.40409088 -0.35300195 0
-0.36683607 -0.38089967 -0.34831977 0
-0.21778965 -0.42697573 -0.35070992 0
-0.031099319 -0.4263103 -0.34427166 0
0.065997124 -0.46335721 -0.33111835 0
0.25969934 -0.48565125 -0.32480812 0
-0.76999664 -0.253227 -0.34735918 0
-0.63897276 -0.28534174 -0.3486768 0
-0.5030117 -0.30840111 -0.34870946 0
-0.35169458 -0.28113961 -0.34808373 0
-0.20187902 -0.3234458 -0.35050011 0
-0.01385355 -0.34168172 -0.34854102 0
-0.75601816 -0.12935615 -0.34799731 0
-0.62815428 -0.16030455 -0.34233057 0
-0.4910059 -0.19154286 -0.34518909 0
-0.34125376 -0.18348193 -0.34874952 0
-0.19044304 -0.24245381 -0.35401464 0
-0.0011916161 -0.24922037 -0.35148239 0
-0.75205088 -0.041249514 -0.34745622 0
-0.62061977 -0.058545351 -0.34482121 0
-0.48327351 -0.096991301 -0.34894991 0
-0.33616543 -0.082359791 -0.34826267 0
-0.18525743 -0.12651777 -0.34843087 0
0.0032792091 -0.161026 -0.34711123 0
