# .PCD v0.7 - Point Cloud Data file format
VERSION 0.7
FIELDS x y z intensity
SIZE 4 4 4 4
TYPE F F F F
COUNT 1 1 1 1
WIDTH 985
HEIGHT 1
VIEWPOINT 0 0 0 1 0 0 0
POINTS 985
DATA ascii
-0.97411299 -0.3771472 -0.0033649206 0
-0.89268255 -0.44834304 -0.066482484 0
-0.82057524 -0.47497785 -0.10706195 0
-0.84103632 -0.36340576 -0.052271426 0
-0.7395823 -0.37182337 -0.1007871 0
-0.72481751 -0.45194256 -0.14125186 0
-0.74171972 -0.30018568 -0.073338926 0
-0.98768878 -0.23196971 0.078301787 0
-0.91861629 -0.26890987 0.018475652 0
-0.91304231 -0.15607786 0.047724009 0
-0.87025142 -0.1868118 0.020217121 0
-0.78476691 -0.26398128 -0.042806387 0
-0.70494938 -0.251028 -0.06866914 0
-0.8067584 -0.076271653 0.016595483 0
-0.74362445 -0.1670534 -0.027626991 0
-0.66998577 -0.17463398 -0.066425383 0
-0.77222967 0.020750284 0.0020263791 0
-0.70221615 -0.078990221 -0.051975906 0
-0.71650743 0.036556244 -0.035173893 0
-0.69682598 0.022323251 -0.055233061 0
-0.67516398 0.12587941 -0.046189368 0
-0.99748647 -0.090834618 0.12610841 0
-0.9703033 0.015187263 0.150392 0
-0.89059258 -0.080700278 0.067455471 0
-0.90609741 0.11392891 0.12988347 0
-0.85991836 0.020954132 0.06914407 0
-0.81808496 0.13279533 0.067480087 0
-0.76982665 0.11772966 0.025258183 0
-0.7809968 0.22119856 0.060729384 0
-0.7000761 0.17563415 -0.013831556 0
-0.71365547 0.31930327 0.033552587 0
-0.6489625 0.22443795 -0.040787756 0
-0.67149162 0.4174 0.028404057 0
-0.6192975 0.32892871 -0.035636902 0
-0.6001749 0.4358331 -0.017105162 0
-0.98108661 0.11726862 0.18907458 0
-0.94788289 0.22425538 0.19141275 0
-0.86903572 0.21882981 0.12826067 0
-0.97257471 0.30972838 0.23105901 0
-0.90664148 0.31851149 0.184012 0
-0.85547864 0.31309283 0.14236629 0
-0.870718 0.40981209 0.17874008 0
-0.79772174 0.31568909 0.098644912 0
-0.76271045 0.44760942 0.10558182 0
-0.99961054 0.37665617 0.26184106 0
0.99074674 0.27830303 -0.8433339 0
0.59191585 -0.49340701 -0.5390445 0
0.59719157 -0.41798508 -0.52856219 0
0.8584168 -0.26910269 -0.69414645 0
0.95273137 -0.26040423 -0.77050936 0
0.99630475 -0.28281498 -0.7822845 0
0.70931101 -0.16954815 -0.58299118 0
0.78061581 -0.17041028 -0.62925607 0
0.70793819 -0.073034167 -0.57953346 0
0.77703285 -0.077384353 -0.62613183 0
0.72080755 0.017176151 -0.59045792 0
0.77360773 0.019812226 -0.62824219 0
0.72875595 0.12523842 -0.59615284 0
0.77534294 0.1156739 -0.63081074 0
0.73840642 0.2139883 -0.60751635 0
0.77867937 0.22942829 -0.63809603 0
0.86014724 0.25152004 -0.67219013 0
0.74036026 0.31833792 -0.61164165 0
0.81240129 0.32333028 -0.63909793 0
0.88022757 0.2813108 -0.70455545 0
0.93989348 0.28042591 -0.75897932 0
0.99313974 0.30038059 -0.80098855 0
0.73517299 0.42368186 -0.60874504 0
0.81021833 0.40331018 -0.63750434 0
0.86194491 0.4449203 -0.64069128 0
0.29689598 -0.49686825 -0.23397171 0
0.61622095 -0.4774406 -0.52026618 0
0.69954777 -0.47522569 -0.56125581 0
0.78524971 -0.48293853 -0.62126076 0
0.88068128 -0.49257958 -0.62121654 0
0.61936712 -0.3728497 -0.51876754 0
0.69910765 -0.38563311 -0.56552279 0
0.8186841 -0.37568998 -0.61970568 0
0.88793397 -0.38622189 -0.6046077 0
0.62473011 -0.28913891 -0.51927471 0
0.70275354 -0.2813859 -0.56998932 0
0.81977272 -0.29327428 -0.61807907 0
0.88522983 -0.28012896 -0.61834979 0
0.6442616 -0.19162166 -0.52935004 0
0.6985898 -0.18616188 -0.56969345 0
0.77132511 -0.21038747 -0.61954677 0
0.89135742 -0.18824887 -0.61257792 0
0.88771224 -0.089259744 -0.61349797 0
0.88774753 0.0091929436 -0.61536652 0
0.98135448 0.014376998 -0.64793921 0
0.88782072 0.10459077 -0.61880076 0
0.88266397 0.21624148 -0.61654133 0
0.97993994 0.22477877 -0.65072811 0
0.84345293 0.32394433 -0.61226416 0
0.89312625 0.31467831 -0.61077136 0
0.83941436 0.39050579 -0.6095494 0
0.90115833 0.40333307 -0.61926162 0
0.41986847 -0.49942827 -0.21530324 0
0.70000601 -0.49910748 -0.40807888 0
0.90880942 -0.48897278 -0.59518456 0
0.70869827 -0.41225493 -0.41622186 0
0.91457057 -0.39214706 -0.59422356 0
0.9169035 -0.28484869 -0.59717679 0
0.98509574 -0.31065369 -0.63989317 0
0.55841947 -0.49654305 -0.18956923 0
0.77082515 -0.49111366 -0.17825764 0
0.7266314 -0.44247735 -0.17564404 0
0.74939013 -0.40519869 -0.748106 0
0.75405097 -0.34456182 -0.74002779 0
0.80107737 0.28690588 -0.64120132 0
0.90154648 0.27449846 -0.73627388 0
0.94120264 0.24180436 -0.75050408 0
0.81096315 0.37171459 -0.64645791 0
0.82026315 0.43394673 -0.63028121 0
0.59361458 -0.41315806 -0.53201652 0
0.59947824 -0.31606781 -0.52753347 0
0.70747805 -0.30041051 -0.57170486 0
0.78869724 -0.31719375 -0.62496012 0
0.92754126 -0.28931463 -0.75103676 0
0.60917234 -0.23222661 -0.5219326 0
0.71261501 -0.21753931 -0.57499421 0
0.7893486 -0.22231531 -0.62305874 0
0.95993114 -0.24977469 -0.74480617 0
0.62004614 -0.12353098 -0.51725316 0
0.70591474 -0.1302495 -0.57132411 0
0.77832174 -0.1201551 -0.61874843 0
0.86629295 -0.14683759 -0.64148939 0
0.64176321 -0.027981281 -0.53050596 0
0.70185971 -0.033797741 -0.57036495 0
0.77749658 -0.021285772 -0.62263757 0
0.87253261 -0.0173527 -0.62691653 0
0.666188 0.037997603 -0.54728198 0
0.71049881 0.078231335 -0.57920194 0
0.7779603 0.069686055 -0.62783623 0
0.87356043 0.073630452 -0.62423891 0
0.73183203 0.18250346 -0.5930075 0
0.7975204 0.19523358 -0.62819946 0
0.88123608 0.1654706 -0.61641788 0
0.97555685 0.1826601 -0.63957089 0
0.74954176 0.23531473 -0.60356218 0
0.83239293 0.27392662 -0.61982059 0
0.88248777 0.25406516 -0.61841255 0
0.99518919 0.24996448 -0.68190694 0
0.83561492 0.3571676 -0.61489213 0
0.89446092 0.37356126 -0.6105566 0
0.88934445 0.47052932 -0.6165058 0
0.26602578 -0.49227417 -0.24215692 0
0.20057893 -0.47562683 -0.2087391 0
0.27466369 -0.46834922 -0.23995054 0
0.62356544 -0.43441343 -0.516532 0
0.70851636 -0.40989065 -0.5643909 0
0.82252407 -0.42400014 -0.61831188 0
0.88976455 -0.44558835 -0.60514891 0
0.61844659 -0.34150791 -0.51404214 0
0.70279598 -0.33550429 -0.56218779 0
0.83313823 -0.34360218 -0.61358559 0
0.89922523 -0.34537888 -0.59690917 0
0.99534297 -0.34323764 -0.64544702 0
0.61219287 -0.27628744 -0.50132966 0
0.84266615 -0.27755511 -0.60727799 0
0.89244366 -0.24102557 -0.60683763 0
0.98637581 -0.22943306 -0.66722918 0
0.89425707 -0.14366698 -0.60732323 0
0.90049648 -0.046555161 -0.60611969 0
0.90410376 0.057592869 -0.59966433 0
0.91311312 0.15254748 -0.60167927 0
0.90276146 0.21717143 -0.58759177 0
0.22055578 -0.45644522 -0.18292898 0
0.33947158 -0.47985315 -0.19907612 0
0.6960299 -0.47551548 -0.41316915 0
0.74715328 -0.48701537 -0.42418686 0
0.90937805 -0.45933175 -0.58853328 0
0.71903586 -0.49235666 -0.34351057 0
0.91644883 0.28952551 -0.61573017 0
0.99724793 0.31204212 -0.67075604 0
0.55833554 -0.48060012 -0.54484236 0
0.70342708 -0.33807695 -0.57845104 0
0.78484988 -0.34869158 -0.61979485 0
0.6288178 -0.26331317 -0.52118236 0
0.68392277 -0.28471231 -0.56397229 0
0.78552055 -0.27754962 -0.62122738 0
0.84290004 -0.30284214 -0.66115654 0
0.72845197 -0.19789863 -0.5894804 0
0.85410523 -0.17819023 -0.61960328 0
0.86690664 -0.078663826 -0.60512733 0
0.97733355 -0.10967803 -0.64515376 0
0.85172248 0.0275172 -0.61966074 0
0.88007259 0.022004724 -0.59996992 0
0.9970479 0.021852732 -0.66034985 0
0.86392093 0.12860918 -0.60033989 0
0.88730359 0.092178226 -0.60001445 0
0.9924736 0.12908924 -0.66434222 0
0.87121558 0.20592237 -0.58944678 0
0.92929506 0.1958735 -0.62493581 0
0.59129214 -0.46910024 -0.51592815 0
0.69569016 -0.48336923 -0.56316352 0
0.78960156 -0.4354012 -0.6047461 0
0.86929822 -0.49718261 -0.60264218 0
0.59552526 -0.37849498 -0.51084435 0
0.67780757 -0.3957653 -0.55441552 0
0.8201499 -0.39098835 -0.60629964 0
0.88515997 -0.38820314 -0.59164828 0
0.99152684 -0.42243123 -0.64548492 0
0.5961194 -0.28271317 -0.49855664 0
0.82980561 -0.3063848 -0.59055305 0
0.86844802 -0.28795314 -0.59869564 0
0.98818851 -0.29709923 -0.64997441 0
0.87797928 -0.18033636 -0.58945006 0
0.97065496 -0.15661132 -0.63560319 0
0.91360378 -0.12921441 -0.59996486 0
0.65873218 -0.44575787 -0.39506236 0
0.79269385 -0.49243891 -0.15285903 0
0.80106163 0.29437876 -0.65173125 0
0.71449161 0.3644532 -0.59951079 0
0.79256225 0.35389137 -0.64162827 0
0.76668358 0.43996906 -0.63563037 0
0.85233641 0.44244921 -0.63969678 0
0.75238562 -0.44112039 -0.73045284 0
0.43582797 -0.14388525 -0.45746818 0
0.47034073 -0.11902046 -0.47181973 0
0.51183248 -0.050068974 -0.49374771 0
0.57085109 -0.045069218 -0.52140319 0
0.67787099 -0.024024487 -0.56521916 0
0.74809527 -0.05014503 -0.60826504 0
0.59532404 0.039921641 -0.52500403 0
0.69709921 0.019104838 -0.58111554 0
0.77834892 0.025947332 -0.62898195 0
0.5994277 0.12946248 -0.52723348 0
0.68804765 0.15626466 -0.57348347 0
0.75766921 0.1296227 -0.6176604 0
0.86359048 0.15707099 -0.62312973 0
0.6117065 0.23012245 -0.52724075 0
0.71003628 0.26568317 -0.59333301 0
0.80769658 0.24577224 -0.62760091 0
0.87389493 0.2328589 -0.62828904 0
0.9700191 0.25137544 -0.6480546 0
0.66847324 0.3219564 -0.56329596 0
0.82057667 0.33568156 -0.6182875 0
0.88426924 0.31506097 -0.60884678 0
0.87451839 0.42366457 -0.61253595 0
0.98324203 0.42619705 -0.66362906 0
0.25263095 -0.46717954 -0.37792951 0
0.307307 -0.4520359 -0.36700135 0
0.58070016 -0.45722866 -0.538095 0
0.70833325 -0.45144939 -0.57884264 0
0.77479196 -0.4358263 -0.6202575 0
0.81347394 -0.45291317 -0.64237523 0
0.26313257 -0.3798604 -0.37437657 0
0.31688118 -0.36288178 -0.37641418 0
0.40870953 -0.35146546 -0.41072789 0
0.46681833 -0.34222901 -0.44272029 0
0.58990264 -0.36973369 -0.52341807 0
0.69609857 -0.34045708 -0.55917299 0
0.79976177 -0.3497206 -0.63380176 0
0.82001185 -0.37133741 -0.63021761 0
0.91190934 -0.3273834 -0.72771543 0
0.33699775 -0.26095486 -0.39115658 0
0.41225076 -0.26892388 -0.42333108 0
0.48962975 -0.24377203 -0.46041203 0
0.59917665 -0.27898657 -0.52021205 0
0.67411494 -0.30328524 -0.55435336 0
0.77327561 -0.26653516 -0.61112225 0
0.86591697 -0.26008439 -0.6246987 0
0.96949387 -0.28220987 -0.74558723 0
0.4257288 -0.17453182 -0.43846485 0
0.51855421 -0.16859794 -0.48286602 0
0.60145807 -0.16284752 -0.51185524 0
0.67589283 -0.16871274 -0.55605614 0
0.7606554 -0.15989733 -0.6176942 0
0.86928391 -0.18466198 -0.61999118 0
0.99362779 -0.13796997 -0.66037142 0
0.49667621 -0.10245049 -0.47149032 0
0.59358048 -0.091612697 -0.51473325 0
0.68276358 -0.072361112 -0.56460899 0
0.7888732 -0.087736368 -0.63528442 0
0.87766075 -0.077994585 -0.60970473 0
0.87685275 0.031459928 -0.61283207 0
0.88510942 0.13164544 -0.5990082 0
0.97956109 0.09250772 -0.65180904 0
0.9835465 0.18477833 -0.6539014 0
0.33044624 -0.48264027 -0.36505497 0
0.61026812 -0.46863902 -0.5138104 0
0.69181371 -0.4762342 -0.55910921 0
0.77335501 -0.49464428 -0.61170316 0
0.87285924 -0.4714973 -0.60428607 0
0.98918629 -0.48281407 -0.63933885 0
0.61380148 -0.41965997 -0.51193362 0
0.85906386 -0.38759553 -0.60099018 0
0.87805295 -0.28875268 -0.59926426 0
0.95894551 -0.28829134 -0.62839592 0
0.89088655 -0.21081257 -0.59488916 0
0.97872925 -0.18369091 -0.64322704 0
0.76759696 0.20773268 -0.75822818 0
0.47860789 0.28333461 -0.56727308 0
0.52596951 0.28081989 -0.59101516 0
0.76284671 0.32047033 -0.76117659 0
0.53654099 0.34437835 -0.60321277 0
0.75557137 0.36302662 -0.77206653 0
0.58706975 0.47932279 -0.57265913 0
0.091914892 -0.49844491 -0.46860528 0
0.11538959 -0.40301073 -0.44364583 0
0.14181972 -0.32931805 -0.43408817 0
0.17553663 -0.24711013 -0.43296796 0
0.20451713 -0.16340446 -0.43064141 0
0.23446488 -0.12918186 -0.43131238 0
0.27224994 -0.036482692 -0.43068784 0
0.3356173 -0.0011384487 -0.45703924 0
0.29586101 0.067169309 -0.44056207 0
0.36391044 0.052738309 -0.47125801 0
0.4415288 0.07239747 -0.50726932 0
0.51008534 0.065545559 -0.53754914 0
0.38483334 0.1730752 -0.49415517 0
0.46252894 0.15395534 -0.53582466 0
0.570503 0.15924573 -0.56733626 0
0.43365383 0.24575937 -0.53204268 0
0.58171749 0.26498544 -0.56181014 0
0.65375829 0.21776211 -0.56764656 0
0.72317505 0.24317658 -0.61355853 0
0.83313227 0.25544107 -0.67046565 0
0.59630895 0.3689791 -0.56132346 0
0.65973926 0.34024143 -0.57117742 0
0.72005105 0.34350979 -0.61451173 0
0.82336974 0.35825503 -0.66260052 0
0.59952569 0.46269906 -0.55479211 0
0.64795709 0.47604728 -0.56957531 0
0.71738672 0.46510732 -0.6151545 0
0.85605216 0.449597 -0.6530636 0
0.1695919 -0.43178737 -0.43129528 0
0.22737861 -0.45373917 -0.41622227 0
0.1844604 -0.33298957 -0.42320642 0
0.25085449 -0.34317589 -0.4107796 0
0.19852161 -0.2505815 -0.42761046 0
0.26405406 -0.24247503 -0.41587853 0
0.37528515 -0.23517895 -0.43382818 0
0.43422914 -0.22682488 -0.46254355 0
0.28385139 -0.14411581 -0.42020038 0
0.37767744 -0.14959538 -0.44825593 0
0.47179031 -0.16524422 -0.4824751 0
0.56680799 -0.15390718 -0.52534527 0
0.71993589 -0.13388169 -0.60499197 0
0.29692292 -0.065789104 -0.42983457 0
0.37332606 -0.051017404 -0.45838284 0
0.46748304 -0.061035037 -0.49688807 0
0.58319092 -0.048697233 -0.53795815 0
0.64934611 -0.056976914 -0.55472326 0
0.74017358 -0.037892461 -0.61621451 0
0.8069098 -0.055742264 -0.66511917 0
0.48073101 0.016451359 -0.51434857 0
0.58502841 0.039459705 -0.55254692 0
0.66968012 0.028821945 -0.57363003 0
0.75228357 0.038236022 -0.62568015 0
0.88060117 0.03584373 -0.65521908 0
0.60827732 0.12003207 -0.54606986 0
0.66398716 0.14701533 -0.57421947 0
0.74772263 0.12378597 -0.6256237 0
0.86704326 0.13670659 -0.65397501 0
0.87758636 0.23527193 -0.63678336 0
0.95472383 0.18372071 -0.64715731 0
0.87990212 0.33945763 -0.63286209 0
0.9200592 0.46273947 -0.63180238 0
0.28975582 -0.46880436 -0.40037534 0
0.37732387 -0.45724142 -0.40596163 0
0.59733605 -0.46179807 -0.56602669 0
0.63409066 -0.47267652 -0.55181611 0
0.74671268 -0.44480145 -0.61557293 0
0.82998681 -0.46354306 -0.67168713 0
0.31237268 -0.36897826 -0.39796716 0
0.3971858 -0.36506224 -0.42482811 0
0.45458412 -0.34274697 -0.45450735 0
0.6055181 -0.38343275 -0.55328673 0
0.62987757 -0.36664724 -0.54820716 0
0.82950282 -0.39638233 -0.65871811 0
0.30358219 -0.30655289 -0.39606211 0
0.38623214 -0.28384817 -0.42858925 0
0.48501229 -0.25101638 -0.47342405 0
0.60966325 -0.25358129 -0.54589903 0
0.64825916 -0.25417292 -0.55437613 0
0.73920918 -0.27553952 -0.60921025 0
0.8604424 -0.28343296 -0.64741051 0
0.57967925 -0.19328201 -0.52256775 0
0.67396069 -0.18956578 -0.57344878 0
0.77104235 -0.17969739 -0.64006209 0
0.89355659 -0.17416871 -0.63641137 0
0.89143109 -0.074973702 -0.63941383 0
0.96523333 -0.078768492 -0.65216565 0
0.89360094 0.009926796 -0.63421214 0
0.90069222 0.092186809 -0.62326765 0
0.93851185 0.077403188 -0.63892418 0
0.33072734 -0.49658227 -0.26003933 0
0.88944554 -0.49964452 -0.63518846 0
0.92317247 -0.49352717 -0.61124021 0
0.87268424 -0.40223646 -0.63009715 0
0.97973061 -0.42866409 -0.65172768 0
0.89401174 -0.31200969 -0.61724722 0
0.94232821 -0.3230145 -0.632339 0
0.90914464 -0.21507502 -0.61608803 0
0.68408728 0.068122745 -0.57595813 0
0.75825596 0.0052306652 -0.62930572 0
0.85004663 0.059517264 -0.6318512 0
0.85312986 0.13104451 -0.63698304 0
0.84756207 0.21904123 -0.61506546 0
0.98190689 0.15631568 -0.66894186 0
0.85088539 0.31525052 -0.60826576 0
0.98848605 0.26213384 -0.67050236 0
0.86881089 0.39775097 -0.60231435 0
0.87212324 0.49904692 -0.59400034 0
0.31998444 -0.29837251 -0.39712211 0
0.37734771 -0.23716235 -0.41736001 0
0.43454552 -0.2597847 -0.44539368 0
0.5832355 -0.27267301 -0.51884919 0
0.80442572 -0.32924616 -0.63785827 0
0.9785974 -0.31679487 -0.73776203 0
0.38678503 -0.20867491 -0.42599335 0
0.46024609 -0.19107914 -0.46138644 0
0.54681611 -0.17855763 -0.4980008 0
0.66597247 -0.16755056 -0.55675149 0
0.74231672 -0.20860314 -0.60137379 0
0.85533834 -0.20782185 -0.62802809 0
0.5690434 -0.078434706 -0.5148356 0
0.62316275 -0.12684214 -0.53580964 0
0.73201466 -0.03692627 -0.60204899 0
0.85460591 -0.098786712 -0.61552072 0
0.9127202 -0.11676788 -0.60709763 0
0.58432627 -0.014617562 -0.51598507 0
0.66618323 0.019710302 -0.55541825 0
0.86319423 0.0047168732 -0.61287254 0
0.98627496 -0.037998199 -0.65884966 0
0.87157679 0.1147337 -0.5998444 0
0.96477437 0.12559068 -0.64438021 0
0.2020123 -0.48094904 -0.39088488 0
0.26369739 -0.48215878 -0.37391752 0
0.33868098 -0.47564507 -0.36564353 0
0.57960677 -0.48482728 -0.52689922 0
0.69640827 -0.49896789 -0.57220936 0
0.84222364 -0.49797499 -0.62708712 0
0.28256083 -0.38059187 -0.37333119 0
0.36867094 -0.39570606 -0.39279836 0
0.58490038 -0.39701772 -0.51842344 0
0.72522473 -0.42094684 -0.59650695 0
0.83875418 -0.4038167 -0.60947269 0
0.90882325 -0.39907146 -0.60141969 0
0.3026166 -0.30524421 -0.37813583 0
0.37825322 -0.30029655 -0.40881306 0
0.45778179 -0.30484462 -0.4439019 0
0.58735251 -0.31600213 -0.51324332 0
0.62954736 -0.29798663 -0.52858377 0
0.85873461 -0.31660771 -0.60423172 0
0.87200856 -0.22167623 -0.6022231 0
0.9421978 -0.26935363 -0.62658298 0
0.87599707 -0.15594268 -0.59518045 0
0.88521242 -0.43313205 -0.58197153 0
0.78151059 -0.3189038 -0.63230914 0
0.70224309 -0.2200346 -0.57823157 0
0.83043027 -0.17504632 -0.61528182 0
0.83440256 -0.074395776 -0.60746592 0
0.84697652 -0.023225904 -0.58812046 0
0.85084653 0.09116447 -0.57936269 0
0.55759859 -0.48386717 -0.51341492 0
0.65863991 -0.47595441 -0.54857779 0
0.78719091 -0.47548115 -0.61819941 0
0.39488316 -0.39144993 -0.40594628 0
0.55945039 -0.38097 -0.50672549 0
0.79303765 -0.39441538 -0.60261452 0
0.85137224 -0.38442278 -0.58542418 0
0.56250119 -0.27515221 -0.49766436 0
0.60727835 -0.30799425 -0.51961052 0
0.82117295 -0.28600085 -0.60261208 0
0.8635726 -0.31541002 -0.58947086 0
0.84388661 -0.18858755 -0.5938974 0
0.90072727 -0.19192874 -0.60599595 0
0.85312581 -0.11664009 -0.58040893 0
0.26775289 -0.49763787 -0.35507801 0
0.31184196 -0.47956979 -0.36237958 0
0.30030012 -0.41311991 -0.35260266 0
0.85459852 -0.43171561 -0.57937026 0
0.93044043 -0.28849316 -0.716694 0
0.54781175 -0.41682267 -0.52471703 0
0.76758075 -0.46889353 -0.61617017 0
0.55942774 -0.34753633 -0.50633538 0
0.715415 -0.31476843 -0.60100895 0
0.79314756 -0.38982403 -0.60567796 0
0.81467795 -0.3054204 -0.5986042 0
0.84410858 -0.19169176 -0.5931986 0
0.83801007 -0.083035588 -0.60122383 0
0.84981656 -0.011803508 -0.58564132 0
0.27807403 -0.48635447 -0.35485062 0
0.34223986 -0.42491126 -0.38318932 0
0.56148982 -0.41869879 -0.50118542 0
0.80775499 -0.46762681 -0.58834642 0
0.59137297 -0.38189602 -0.51094216 0
0.80465961 -0.43015528 -0.5872221 0
0.85285592 -0.43943369 -0.5827387 0
0.85705996 -0.32670879 -0.57570481 0
0.41938972 0.46423316 -0.56954443 0
-0.062577486 -0.11808968 -0.46240222 0
-0.034523487 -0.071538806 -0.46189129 0
-0.013039827 -0.073967695 -0.45793957 0
0.0039563179 0.041446686 -0.44191748 0
0.046214342 0.030038595 -0.4464311 0
0.030147552 0.11111796 -0.42661977 0
0.0762465 0.11251676 -0.43074512 0
0.062259674 0.22963655 -0.40244061 0
0.11843848 0.19166827 -0.41555309 0
0.18562007 0.21659839 -0.42285967 0
0.082425594 0.31516957 -0.38599598 0
0.1417644 0.29781675 -0.40832156 0
0.23626733 0.2820183 -0.44349951 0
0.28896999 0.26061594 -0.47381037 0
0.38355327 0.240165 -0.5266853 0
0.17710567 0.40150452 -0.42325115 0
0.21126723 0.34298491 -0.42910892 0
0.33728409 0.3806535 -0.50378501 0
0.42318034 0.34259713 -0.54657412 0
0.5256536 0.27249622 -0.58096296 0
0.75691724 0.26620269 -0.71550047 0
0.28366804 0.42479002 -0.47821078 0
0.4482398 0.41667402 -0.57176185 0
0.54815459 0.39332366 -0.56911993 0
0.75146365 0.31616402 -0.72419763 0
0.572752 0.48210156 -0.53991783 0
-0.085131168 -0.48274118 -0.49163038 0
-0.28987002 -0.32606626 -0.29645377 0
-0.1007061 -0.3470428 -0.47219732 0
-0.067180872 -0.39006901 -0.46899322 0
-0.34413695 -0.24211919 -0.24155286 0
-0.24195671 -0.21371233 -0.30629274 0
-0.081993341 -0.28448975 -0.45772842 0
-0.029188395 -0.28859508 -0.44744474 0
-0.24246573 -0.14875531 -0.30021146 0
-0.067106247 -0.18316972 -0.45958376 0
0.0070741177 -0.18878055 -0.4456723 0
0.048370361 -0.10008323 -0.44428796 0
0.12468147 -0.11013496 -0.43118578 0
0.091676474 -0.013317943 -0.44267771 0
0.16845846 -0.038714528 -0.42771935 0
0.11452055 0.076017737 -0.44024238 0
0.19610143 0.06009388 -0.42864817 0
0.29887104 0.072474003 -0.44547224 0
0.1483748 0.14714193 -0.4276244 0
0.20773172 0.14934003 -0.42849669 0
0.32510304 0.10671115 -0.45497155 0
0.42334986 0.11073673 -0.50319022 0
0.52764034 0.10902262 -0.54452813 0
0.21631885 0.24555719 -0.42286351 0
0.32910991 0.20652068 -0.47525531 0
0.44863319 0.20616639 -0.54048634 0
0.54189801 0.21174562 -0.57487357 0
0.56477594 0.14605653 -0.55471957 0
0.57205796 0.28241909 -0.54262108 0
0.79853821 0.21293986 -0.65620625 0
0.89951968 0.2018466 -0.71397102 0
0.57899714 0.38914013 -0.53129143 0
0.67914701 0.30778325 -0.58609784 0
0.75167251 0.31503224 -0.62279534 0
0.8137753 0.30830634 -0.63068098 0
0.86235237 0.40577292 -0.62330711 0
-0.50925922 -0.49143314 -0.22006524 0
-0.47781348 -0.38880455 -0.19128418 0
-0.38841391 -0.4232837 -0.25196138 0
-0.31795883 -0.45522302 -0.30688509 0
-0.039353132 -0.49895012 -0.47869962 0
-0.45192623 -0.33314157 -0.1873607 0
-0.38147211 -0.3432731 -0.23540673 0
-0.0038735867 -0.41273856 -0.45160449 0
0.061607361 -0.43942094 -0.4338589 0
0.030056 -0.32884824 -0.43414855 0
0.10329461 -0.33464706 -0.4173865 0
0.12477183 -0.24385464 -0.41997185 0
0.21537304 -0.23117638 -0.40615886 0
0.17451763 -0.16128242 -0.41586 0
0.24633574 -0.15472484 -0.40584686 0
0.22182417 -0.073649049 -0.41307259 0
0.27346754 -0.0782938 -0.41702089 0
0.40093923 -0.098792315 -0.45865569 0
0.50142741 -0.11105776 -0.50453115 0
0.58034086 -0.11629307 -0.53564036 0
0.29800749 0.017955303 -0.42938101 0
0.39809346 -0.023186088 -0.47548801 0
0.52436209 -0.026254177 -0.52163959 0
0.5853126 -0.038500547 -0.52571434 0
0.69149208 -0.073879361 -0.57837695 0
0.52103877 0.035512447 -0.52738404 0
0.57797408 0.056627512 -0.5363782 0
0.60424542 0.1423806 -0.53681719 0
0.85926247 0.11849356 -0.63026398 0
0.85642004 0.058007121 -0.63499272 0
0.85048389 0.20232546 -0.61685443 0
0.8694315 0.30431736 -0.61459392 0
0.12006855 -0.44688189 -0.41657543 0
0.18889475 -0.47347891 -0.39879274 0
0.15919709 -0.37348986 -0.40582341 0
0.22433639 -0.39568162 -0.39333242 0
0.25052595 -0.29631054 -0.39440066 0
0.3541379 -0.34703267 -0.41354674 0
0.42192602 -0.3207165 -0.43173128 0
0.28771949 -0.23075056 -0.40056005 0
0.37643409 -0.22885931 -0.42805016 0
0.48160243 -0.24204242 -0.46790352 0
0.58883262 -0.25292146 -0.51555288 0
0.99663568 -0.31734753 -0.77161288 0
0.42722392 -0.16157222 -0.45315981 0
0.50781369 -0.1463356 -0.49051532 0
0.58463669 -0.16849828 -0.53067493 0
0.86530375 -0.23020303 -0.62643957 0
0.76298547 -0.14705455 -0.62675542 0
0.86369443 -0.12841868 -0.62599599 0
0.87093449 -0.037931085 -0.61300939 0
0.87429214 0.045038939 -0.61008292 0
0.97890615 0.026185513 -0.66061902 0
0.2826438 -0.42700458 -0.37709871 0
0.34245014 -0.39821136 -0.37880757 0
0.38062406 -0.36371839 -0.40823144 0
0.59673858 -0.40460968 -0.53088576 0
0.72523713 -0.42922306 -0.59623241 0
0.83496857 -0.43658853 -0.61853486 0
0.85424376 -0.35787606 -0.61196017 0
0.87392688 -0.25063336 -0.6097672 0
0.88571477 -0.18789816 -0.59336317 0
0.89041877 -0.4512043 -0.58724475 0
-0.17231798 -0.09887445 -0.38361424 0
-0.057431221 -0.12648046 -0.46524814 0
-0.23740363 -0.0090979338 -0.33232126 0
-0.16155267 -0.018148184 -0.3964805 0
-0.018836975 -0.07970202 -0.46798044 0
-0.066795588 0.062855482 -0.43741044 0
0.013780832 0.022016048 -0.45355755 0
-0.053385496 0.14840913 -0.420645 0
0.052862167 0.11936009 -0.43473846 0
-0.033347607 0.29592025 -0.39057073 0
0.0050435066 0.23477399 -0.4059051 0
0.09756732 0.20923889 -0.41833282 0
-0.017094612 0.35287452 -0.37717238 0
0.059588194 0.31419075 -0.39476073 0
0.14514422 0.31607378 -0.41246718 0
0.020878315 0.43638992 -0.37952739 0
0.053638697 0.41301012 -0.3927716 0
0.16333771 0.37064826 -0.42632401 0
0.2695353 0.34354353 -0.46411178 0
0.3872416 0.27358067 -0.5328238 0
0.10728168 0.48225081 -0.40806657 0
0.1828115 0.4533217 -0.43451187 0
0.31898761 0.45333302 -0.51019216 0
0.37295032 0.37760711 -0.53523099 0
0.47302222 0.40152395 -0.5807789 0
0.49473858 0.30826986 -0.58129811 0
0.75160813 0.2563864 -0.73460442 0
0.47607327 0.47293675 -0.60502195 0
0.56439805 0.41622925 -0.56135172 0
0.7550447 0.3599391 -0.7251389 0
-0.69665885 -0.45897055 -0.13086811 0
-0.53287148 -0.48641336 -0.22385025 0
-0.29308486 -0.39958739 -0.3167893 0
-0.075698137 -0.49096304 -0.49787816 0
-0.50968575 -0.22163975 -0.15318701 0
-0.41842055 -0.24447763 -0.2017529 0
-0.36941957 -0.25726295 -0.23738432 0
-0.29377556 -0.30034947 -0.29475492 0
-0.094449997 -0.34740853 -0.47964758 0
-0.046323299 -0.39961147 -0.47216618 0
-0.46972537 -0.14321101 -0.17533064 0
-0.39915395 -0.1471386 -0.22328246 0
-0.32512736 -0.17672193 -0.25912508 0
-0.23351359 -0.20025563 -0.31867349 0
-0.061802149 -0.2654494 -0.46241689 0
-0.019943714 -0.29228473 -0.45209625 0
-0.28825831 -0.10668111 -0.29334819 0
-0.21174598 -0.095437646 -0.34004846 0
-0.028627157 -0.16088867 -0.45598477 0
0.042419434 -0.20941257 -0.4451718 0
0.0016636848 -0.11676145 -0.45774809 0
0.079189539 -0.11946404 -0.44718969 0
0.076724291 0.034103632 -0.44896978 0
0.12821054 -0.037443399 -0.44133529 0
0.11732912 0.11237335 -0.44273347 0
0.15714073 0.041775107 -0.44214493 0
0.22307944 0.024328947 -0.43444532 0
0.14940763 0.20821393 -0.42226881 0
0.20059919 0.13424623 -0.43717027 0
0.29061341 0.08390224 -0.44166821 0
0.40638304 0.050428271 -0.50339198 0
0.50391293 0.067035198 -0.54514337 0
0.22895479 0.23007143 -0.43037465 0
0.31697249 0.20248389 -0.47731936 0
0.4148941 0.16984141 -0.5182761 0
0.4864583 0.14682782 -0.53841764 0
0.56410217 0.14916635 -0.56487727 0
0.40576768 0.26239645 -0.52842367 0
0.54110837 0.21480656 -0.5560627 0
0.5772872 0.33976924 -0.54404783 0
0.67681432 0.29709983 -0.58799601 0
0.77752852 0.21733856 -0.69599795 0
0.87769771 0.18868542 -0.70908535 0
0.60647726 0.44160414 -0.55986297 0
0.81915545 0.30575621 -0.63338268 0
0.86021924 0.42733288 -0.63611281 0
-0.64442563 -0.48123771 -0.15585208 0
-0.65005755 -0.37616199 -0.11559063 0
-0.58067703 -0.39415056 -0.15172955 0
-0.50774932 -0.43887454 -0.20210716 0
-0.45211577 -0.44796765 -0.23929155 0
-0.61292076 -0.29093254 -0.098239005 0
-0.55723763 -0.30809259 -0.13051909 0
-0.46426582 -0.32906735 -0.1863963 0
-0.39873219 -0.38865972 -0.24593478 0
-0.33866739 -0.41726685 -0.28884706 0
-0.28327537 -0.46318394 -0.33840889 0
-0.50179982 -0.25968677 -0.14938286 0
0.0094380379 -0.40897489 -0.45537961 0
0.059522629 -0.46475697 -0.44743347 0
0.03786397 -0.32035208 -0.43666115 0
0.096434355 -0.36806715 -0.42664236 0
0.093510389 -0.24318957 -0.43507734 0
0.1531086 -0.27993536 -0.41991764 0
0.13384223 -0.17167854 -0.4286544 0
0.20082951 -0.18244541 -0.41645548 0
0.22883487 -0.092742443 -0.41919518 0
0.34322357 -0.091695786 -0.43396071 0
0.4174304 -0.12772799 -0.48485255 0
0.2553916 -0.0056217909 -0.4205026 0
0.3630681 -0.027930379 -0.45929199 0
0.46034074 -0.094388008 -0.48585817 0
0.58395672 -0.090324283 -0.53888041 0
0.32520843 0.077727079 -0.44642073 0
0.41158915 0.044191718 -0.48963156 0
0.49905777 0.0001655817 -0.52207047 0
0.58313847 -0.018142223 -0.53941 0
0.76840043 -0.13469684 -0.64535332 0
0.57749343 0.1043607 -0.54531682 0
0.58683991 0.16140354 -0.53310329 0
0.66221547 0.15873897 -0.5672909 0
0.87409472 0.09101212 -0.61717808 0
0.85927463 0.029907346 -0.64254928 0
0.8480432 0.17588663 -0.63051391 0
0.87088418 0.2524296 -0.62130308 0
0.87921214 0.35780191 -0.60636032 0
0.11375237 -0.47696316 -0.43169269 0
0.16341138 -0.39848673 -0.40949813 0
0.23035479 -0.42733645 -0.39720249 0
0.1974144 -0.332654 -0.40706751 0
0.26661348 -0.32715154 -0.39706492 0
0.34891772 -0.38400316 -0.40198362 0
0.27532983 -0.23544765 -0.40005878 0
0.38559246 -0.31494451 -0.42786911 0
0.51811695 -0.27878821 -0.49670175 0
0.5880301 -0.32204187 -0.53527081 0
0.35344362 -0.18229902 -0.43034631 0
0.43305445 -0.22079575 -0.45681557 0
0.59700441 -0.27468598 -0.52133512 0
0.82087755 -0.33849978 -0.63504714 0
0.82557249 -0.35759437 -0.66457051 0
0.51825166 -0.15295219 -0.50353682 0
0.59062076 -0.17814493 -0.52930999 0
0.86167979 -0.22087991 -0.63816285 0
0.87127638 -0.24553061 -0.62534702 0
0.87631249 -0.13026333 -0.61685526 0
0.86781788 -0.050445914 -0.62929374 0
0.29240084 -0.46300292 -0.38331553 0
0.33611941 -0.49496734 -0.38299426 0
0.40154934 -0.39949024 -0.4181523 0
0.59397984 -0.42716861 -0.52545553 0
0.62791991 -0.4794662 -0.5330624 0
0.5904386 -0.41222024 -0.53541398 0
0.84224606 -0.4690659 -0.62732828 0
0.83670449 -0.34691918 -0.61158592 0
0.88403893 -0.3981775 -0.60748118 0
0.88148475 -0.2830615 -0.61046648 0
0.72601819 -0.043670654 -0.61000276 0
0.83323169 0.19721019 -0.58980113 0
0.82348037 0.12003386 -0.60394496 0
0.83222294 0.26221728 -0.58774412 0
0.38367534 -0.19602132 -0.42553163 0
0.44677091 -0.16326559 -0.45719171 0
0.50217772 -0.20342731 -0.47352004 0
0.55315638 -0.25262976 -0.49516937 0
0.53646874 -0.098965287 -0.49637461 0
0.64001346 -0.15944135 -0.55006033 0
0.78095007 -0.35040569 -0.60710442 0
0.77162433 -0.40367341 -0.62142229 0
0.82377219 -0.28421676 -0.60869783 0
0.83609915 -0.33940053 -0.67223328 0
0.83728004 -0.097165108 -0.58665776 0
0.83400369 -0.15091121 -0.59020472 0
0.82852173 -0.024288416 -0.5994097 0
0.18972039 -0.38744676 -0.36607888 0
0.20373011 -0.45572662 -0.36094967 0
0.27426291 -0.47384667 -0.35116401 0
0.2374332 -0.30811501 -0.35913718 0
0.25256371 -0.39441884 -0.35432625 0
0.33508015 -0.417768 -0.37429023 0
0.28565764 -0.25210059 -0.37771571 0
0.35403609 -0.33130646 -0.39606294 0
0.39874887 -0.22079968 -0.41620702 0
0.55784988 -0.40859628 -0.50301039 0
0.55407476 -0.4986639 -0.49801767 0
0.58654809 -0.33477473 -0.51162779 0
0.80845213 -0.44734001 -0.59238756 0
0.82848835 -0.33066082 -0.5790565 0
0.84335685 -0.36513233 -0.5780437 0
0.84719944 -0.21670353 -0.56922352 0
0.28984094 -0.47350109 -0.34104952 0
0.99875879 0.43486917 -0.68279839 0
0.72095394 0.034802198 -0.60715348 0
0.81758428 0.042410612 -0.60253406 0
0.8115201 -0.014340401 -0.60924739 0
0.78559566 0.26058352 -0.58244169 0
0.82230926 0.21040356 -0.59406281 0
0.8254981 0.11726415 -0.59028208 0
0.95561361 0.007463336 -0.64966857 0
0.82589364 0.3339318 -0.5877645 0
0.12869096 -0.47615349 -0.38541731 0
0.17251587 -0.35394418 -0.36417463 0
0.13786221 -0.44029319 -0.3758356 0
0.21437359 -0.29193163 -0.3651256 0
0.27561402 -0.22339845 -0.38009205 0
0.34750319 -0.14072216 -0.40822691 0
0.39046311 -0.19218946 -0.4184013 0
0.43931985 -0.25013077 -0.43382651 0
0.54406881 -0.33836126 -0.49939719 0
0.45493078 -0.12143993 -0.45631897 0
0.54632211 -0.21407378 -0.49427003 0
0.55088878 -0.30704534 -0.49000618 0
0.5185535 -0.043496728 -0.49132383 0
0.54603076 -0.12176073 -0.49559051 0
0.59664893 -0.21641076 -0.52171046 0
0.75565839 -0.36756051 -0.60752034 0
0.65921855 -0.09682703 -0.56425273 0
0.79412436 -0.30430305 -0.57486838 0
0.82475138 -0.082419515 -0.5937711 0
0.83626533 -0.16805375 -0.58857137 0
0.87267327 -0.27976525 -0.65857857 0
0.8354671 0.025587797 -0.57306659 0
0.14709377 -0.4279362 -0.36983323 0
0.20343852 -0.45484805 -0.35878646 0
0.2263937 -0.33530033 -0.35643679 0
0.27674508 -0.41301107 -0.34996271 0
0.30464053 -0.2721113 -0.37124619 0
0.36539769 -0.33468163 -0.39526471 0
0.54742527 -0.42518246 -0.49619997 0
0.64233804 -0.46287453 -0.53590703 0
0.82080507 -0.46726072 -0.58626103 0
0.8389976 -0.33613288 -0.57348013 0
0.63679242 -0.45477939 -0.3882488 0
0.96139336 -0.49915183 -0.11476254 0
0.46507239 0.072454214 -0.49068582 0
0.53336406 0.12256289 -0.52296931 0
0.54697657 0.21240842 -0.5035764 0
0.74594736 -0.10284495 -0.61716843 0
0.81697679 0.058630228 -0.61634707 0
0.76047564 0.2806505 -0.59849095 0
0.80505657 0.19500756 -0.61071986 0
0.82502842 0.12697744 -0.60308254 0
0.8274734 0.41240668 -0.5962342 0
0.79175448 0.32563436 -0.60763913 0
0.83964396 0.24584281 -0.58002031 0
0.96628451 0.43176568 -0.66036534 0
0.08851409 -0.42417467 -0.39120203 0
0.13003874 -0.38396275 -0.37725317 0
0.15592456 -0.46114039 -0.3745859 0
0.17238736 -0.26846528 -0.37551215 0
0.17805552 -0.32394397 -0.37224102 0
0.22048211 -0.18187904 -0.3751637 0
0.28981781 -0.21140647 -0.37756723 0
0.29323411 -0.094730139 -0.39716434 0
0.36689401 -0.14965677 -0.42598119 0
0.38398314 -0.25233161 -0.41675878 0
0.54585075 -0.43467677 -0.51036018 0
0.3371129 -0.055502653 -0.43130112 0
0.43251348 -0.11988974 -0.46096569 0
0.49221659 -0.1893239 -0.47018382 0
0.55587649 -0.27404702 -0.50117278 0
0.6634717 -0.4478122 -0.55187893 0
0.39862776 0.022105336 -0.45637357 0
0.51239681 -0.0647434 -0.49497771 0
0.55470586 -0.15782619 -0.49762118 0
0.74214149 -0.30025077 -0.60099363 0
0.78452945 -0.36438537 -0.60224617 0
0.77617764 -0.42009771 -0.61499989 0
0.54681468 0.070152283 -0.50447512 0
0.54811621 0.020500422 -0.50212413 0
0.82758093 -0.27118826 -0.60195887 0
0.56601119 0.12157905 -0.50256872 0
0.83722019 -0.15248287 -0.58625126 0
0.86164355 -0.29504871 -0.67486584 0
0.83299613 0.056980371 -0.5912084 0
0.83526945 -0.035011172 -0.58816588 0
0.84309673 0.11480153 -0.57799011 0
0.17791247 -0.39909518 -0.36466882 0
0.20986652 -0.47991884 -0.36093155 0
0.22740555 -0.33856022 -0.35956651 0
0.2909205 -0.40436554 -0.35898477 0
0.30062747 -0.27531135 -0.37148669 0
0.36130714 -0.3046056 -0.38950902 0
0.42920923 -0.33142245 -0.43393046 0
0.55365801 -0.49891424 -0.49878216 0
0.55923605 -0.3333292 -0.48825324 0
0.82899976 -0.44872761 -0.57923824 0
0.83598113 -0.31859589 -0.57303703 0
0.78767157 -0.37472653 -0.5953868 0
0.82066488 -0.44948745 -0.5887261 0
0.81693745 -0.28445601 -0.59358442 0
0.83923173 -0.37874305 -0.58299541 0
0.97733307 -0.46640205 -0.63051307 0
0.82330966 -0.093316317 -0.6029945 0
0.83839178 -0.16535807 -0.58066106 0
0.8467567 0.050966263 -0.56460232 0
0.83081818 -0.022096753 -0.59163511 0
0.83128262 0.18156672 -0.58967566 0
0.83852363 0.10019374 -0.57894742 0
0.79375696 0.39133894 -0.57828605 0
0.81708217 0.30979085 -0.59184337 0
0.87663651 0.2744621 -0.5853883 0
0.82398725 0.46162844 -0.59627771 0
0.95210648 0.31844211 -0.64686322 0
0.99765491 0.41558337 -0.67799366 0
0.26975012 -0.4785403 -0.20383292 0
0.42280984 -0.46684229 -0.19527161 0
0.28454065 -0.49941134 -0.1087544 0
0.58095956 -0.47728884 -0.16600627 0
0.98525572 -0.47954047 -0.1115427 0
0.76752353 -0.4589299 -0.077725232 0
0.89077711 -0.48512769 -0.085787892 0
0.73931956 -0.47309303 -0.12200361 0
0.67421913 -0.49441028 -0.060534298 0
0.79078913 -0.49249637 -0.041057944 0
0.77896452 -0.45147717 -0.091875851 0
0.89719081 -0.45833099 -0.092868447 0
0.98372006 -0.44114947 -0.072503507 0
0.90767026 -0.49125206 -0.01249069 0
0.80962777 0.49483705 -0.58851409 0
0.78209639 0.42700171 -0.56510955 0
0.81587172 0.35225797 -0.58047527 0
0.84223318 0.48868668 -0.66223669 0
0.8182373 0.27837789 -0.57809544 0
0.757442 0.39930594 -0.60412633 0
0.8206954 0.17199183 -0.57655919 0
0.76020217 0.34415507 -0.60009253 0
0.82380223 0.12703955 -0.57102811 0
0.82461572 0.0099636316 -0.57347691 0
0.82826972 -0.027881145 -0.5660249 0
0.82875204 -0.13317239 -0.56849456 0
0.8030107 0.070890427 -0.60131192 0
0.83409333 -0.12737262 -0.55512989 0
0.80665016 0.032545686 -0.59389168 0
0.8404386 -0.44120777 -0.094778001 0
0.67105365 -0.47211885 -0.35286933 0
0.83540463 -0.22965896 -0.55500478 0
0.80555105 -0.10804057 -0.60126162 0
0.59546304 -0.45149136 -0.13223308 0
0.72550416 -0.40480316 -0.42863801 0
0.83465409 -0.36224103 -0.56086832 0
0.80975223 -0.13506758 -0.59168577 0
0.96632481 -0.4637922 -0.028893113 0
0.80375957 -0.4523567 -0.1221385 0
0.51072025 -0.46307194 -0.079631567 0
0.36696649 -0.45619965 -0.16667014 0
0.68463326 -0.45086992 -0.40046915 0
0.83612251 -0.44045639 -0.55918682 0
0.77792096 -0.24776506 -0.57880753 0
0.71269035 -0.46886945 -0.068846166 0
0.56735563 -0.46601164 -0.16352576 0
0.84001088 -0.46245432 -0.54959261 0
0.78165293 -0.29279423 -0.57048362 0
0.9353857 -0.47264433 -0.06246078 0
0.48827362 -0.44034588 -0.10686022 0
0.33841801 -0.44285846 -0.19005603 0
0.81395149 -0.36154771 -0.5872668 0
0.68307257 -0.47557294 -0.10028297 0
0.41132879 -0.49334788 -0.066318214 0
0.27492476 -0.45470345 -0.14809602 0
0.81366181 -0.48267007 -0.59092903 0
0.88892794 -0.46924245 -0.085064411 0
0.45594335 -0.47956502 -0.13939899 0
0.2053616 -0.4727236 -0.10340798 0
0.79916978 -0.49887812 -0.036709607 0
0.66211581 -0.4188267 -0.12678427 0
0.38325071 -0.46060491 -0.087673604 0
0.63801455 -0.49709904 -0.2915957 0
0.24527693 -0.4356873 -0.17030048 0
0.56214857 -0.47552466 -0.073411226 0
0.43180513 -0.44674611 -0.16590023 0
0.17691135 -0.49370086 -0.13303894 0
0.35138464 -0.44226813 -0.11076957 0
0.22284245 -0.42817771 -0.20226586 0
0.15717101 -0.43986261 -0.15749818 0
0.084144354 -0.49922669 -0.11598372 0
