# .PCD v0.7 - Point Cloud Data file format
VERSION 0.7
FIELDS x y z intensity
SIZE 4 4 4 4
TYPE F F F F
COUNT 1 1 1 1
WIDTH 1293
HEIGHT 1
VIEWPOINT 0 0 0 1 0 0 0
POINTS 1293
DATA ascii
0.88724518 -0.072898597 0.12585428 0
0.99803877 -0.045028627 0.094286501 0
0.67706394 -0.1147649 0.13973865 0
0.75967312 -0.094992697 0.14836119 0
0.88436604 -0.024517417 0.13475032 0
0.94959068 -0.012734115 0.10414944 0
0.0059690475 -0.49288389 -0.54647475 0
0.16308784 -0.42539185 -0.61246169 0
0.22009563 -0.39086261 -0.60824728 0
0.14605427 -0.30634001 -0.57449102 0
0.0926404 -0.1254645 -0.54040813 0
0.07413578 -0.068166912 -0.52864438 0
0.52017188 0.1447835 -0.61805063 0
0.72563577 0.2423569 -0.73842549 0
0.85332298 0.2980392 -0.78052777 0
0.45200062 0.15461534 -0.6007871 0
0.30114198 0.39088994 -0.52819169 0
0.26977348 0.48350811 -0.50933599 0
0.21745253 -0.48267514 -0.5698936 0
0.27874041 -0.48166949 -0.52670836 0
0.12956667 -0.46273267 -0.49536556 0
0.15598106 -0.42321819 -0.53090942 0
0.262362 -0.44376636 -0.5506587 0
0.58667183 -0.28876042 -0.59871805 0
-0.03128767 -0.38838038 -0.42264482 0
0.1532464 -0.35273287 -0.5601173 0
0.2689352 -0.33558896 -0.58864951 0
0.52137661 -0.20496112 -0.56115162 0
0.59389782 -0.20885631 -0.61343533 0
-0.081472635 -0.30870524 -0.41273284 0
0.49927497 -0.13504711 -0.54481381 0
-0.10509419 -0.21204242 -0.3841089 0
-0.13380003 -0.119573 -0.37379426 0
-0.029637575 -0.065239251 -0.3814252 0
0.063918591 -0.048348516 -0.40743071 0
0.21457219 0.038778365 -0.48268121 0
-0.1549089 -0.038546324 -0.36180371 0
-0.052032948 0.014753968 -0.37933511 0
0.031992912 0.04080835 -0.40128571 0
0.22862577 0.085036039 -0.46495968 0
0.38674378 0.1677472 -0.52928275 0
-0.18307638 0.066351384 -0.34923685 0
-0.088504791 0.094256341 -0.37413055 0
-0.01355958 0.13287181 -0.39617151 0
0.08088088 0.13813293 -0.3915391 0
0.35350847 0.25309977 -0.52980351 0
-0.19205546 0.16480741 -0.35089129 0
-0.12492919 0.18357995 -0.37027645 0
-0.046540737 0.2261622 -0.39580923 0
0.038775206 0.25972995 -0.37011632 0
0.32413578 0.33466291 -0.52372873 0
-0.18764853 0.23679474 -0.35633695 0
-0.1524539 0.29287288 -0.37109125 0
-0.075334549 0.31261045 -0.39663327 0
0.0082838535 0.34522718 -0.36328721 0
-0.16456342 0.39949402 -0.37300929 0
-0.09996438 0.43675736 -0.38541463 0
-0.017955542 0.43283573 -0.34946856 0
0.067520857 0.48137081 -0.34133768 0
-0.16349363 0.45613375 -0.37521344 0
0.63274527 -0.49459672 -0.56341881 0
0.30103397 -0.49316773 -0.50864756 0
0.59503698 -0.39179158 -0.5533185 0
0.56783867 -0.31752041 -0.55027288 0
-0.21485877 -0.45324337 -0.327806 0
-0.087547064 -0.44993681 -0.36325073 0
-0.029858589 -0.40707716 -0.38183567 0
0.075095654 -0.3548198 -0.38468432 0
0.12705374 -0.31974316 -0.40161431 0
0.23844433 -0.28197467 -0.38851184 0
0.5395236 -0.24131504 -0.54924691 0
0.63909483 -0.1570946 -0.47015744 0
-0.49972415 -0.47540748 -0.21050645 0
-0.45392609 -0.42905751 -0.21436478 0
-0.23577881 -0.41674873 -0.30923197 0
-0.055114269 -0.32354724 -0.37245727 0
0.03758955 -0.28040197 -0.37984437 0
0.1288147 -0.24922767 -0.40864027 0
0.21778727 -0.22258484 -0.38260064 0
0.61209965 -0.080728173 -0.45697546 0
-0.52771425 -0.43836218 -0.20228761 0
-0.45483994 -0.40421608 -0.20853814 0
-0.075326443 -0.22504535 -0.36101288 0
0.0061545372 -0.16893673 -0.37893265 0
0.12847519 -0.13934341 -0.3952468 0
0.19253063 -0.14084691 -0.36276132 0
0.37477374 -0.053268373 -0.3877984 0
0.57670879 0.016441941 -0.45257154 0
0.98440599 0.15099686 -0.52764726 0
-0.11193895 -0.13960487 -0.35619152 0
-0.024677038 -0.10105684 -0.37537822 0
0.10959911 -0.061145335 -0.38395023 0
0.164958 -0.044878274 -0.34762448 0
0.26421261 -0.0062838495 -0.36368859 0
0.34819531 0.023469567 -0.38588977 0
0.54918933 0.09600085 -0.4445824 0
0.77112508 0.14855325 -0.46981046 0
0.88125992 0.18602526 -0.50737947 0
0.9762311 0.28497934 -0.53431243 0
-0.14309645 -0.082024068 -0.3432261 0
0.094141722 0.0029935241 -0.37211645 0
0.12646008 0.052606642 -0.35461047 0
0.22387552 0.10112539 -0.38219577 0
0.32634616 0.11191881 -0.3857581 0
0.52054548 0.18375283 -0.42817101 0
0.66481543 0.20206738 -0.44437391 0
0.75819039 0.27488428 -0.47399673 0
0.84981894 0.33678752 -0.50390416 0
0.095410109 0.14479771 -0.35026163 0
0.21876645 0.1919238 -0.36759585 0
0.2903645 0.18504602 -0.37902111 0
0.47887015 0.28403592 -0.42796558 0
0.57324553 0.25828314 -0.42088014 0
0.66796064 0.30326259 -0.45423612 0
0.74808621 0.38027769 -0.479554 0
0.83797145 0.44967306 -0.50930685 0
0.95808339 0.41493756 -0.53890061 0
0.067951202 0.23787558 -0.34294218 0
0.21648526 0.27582473 -0.37214231 0
0.26802015 0.2910727 -0.37813962 0
0.38400173 0.3644574 -0.42490155 0
0.44511437 0.38537189 -0.42353138 0
0.53433466 0.41349757 -0.42148966 0
0.62695622 0.44840169 -0.44648901 0
0.034286261 0.33600384 -0.33114979 0
0.15593433 0.37727013 -0.35589942 0
0.21481252 0.40614137 -0.37309402 0
0.31873655 0.43919763 -0.40954065 0
0.41926765 0.46117967 -0.41658616 0
0.010943651 0.42836928 -0.32611758 0
0.11272168 0.46194848 -0.34683633 0
-0.024080753 0.48392969 -0.31314838 0
0.026998997 -0.3976348 -0.25438923 0
0.07097578 -0.39165664 -0.25576371 0
0.49068403 -0.24057499 -0.3653793 0
0.54298973 -0.2040267 -0.38588211 0
0.66021681 -0.15758693 -0.40518722 0
0.76082754 -0.13920677 -0.41819945 0
-0.39718056 -0.44791526 -0.15916982 0
-0.31736064 -0.42011955 -0.16238642 0
-0.0091428757 -0.34207216 -0.25529706 0
0.04161644 -0.31165707 -0.23995759 0
0.23565817 -0.21433732 -0.35178661 0
0.35175228 -0.17517838 -0.37094557 0
0.44182777 -0.18789709 -0.35633221 0
0.54507017 -0.17765644 -0.38446325 0
0.63431644 -0.11571908 -0.42350876 0
0.74649906 -0.076038539 -0.42566758 0
0.86506772 -0.041264653 -0.42228055 0
0.87754679 -0.023752868 -0.46617961 0
-0.52342844 -0.41789347 -0.1707307 0
-0.40411258 -0.40097854 -0.15006316 0
-0.025193214 -0.25629362 -0.24212398 0
0.027724743 -0.24978526 -0.23717074 0
0.21015549 -0.15013009 -0.3414818 0
0.30466986 -0.098323911 -0.36396438 0
0.41565895 -0.080865651 -0.3916702 0
0.59067345 0.0085004568 -0.42399484 0
0.67530084 0.034590364 -0.43536565 0
0.77620578 0.016213119 -0.46439427 0
0.86115146 0.10595596 -0.48716491 0
0.5587666 0.094303012 -0.41357803 0
0.57069397 0.14993465 -0.41288167 0
0.66730499 -0.28503343 -0.32545811 0
0.033306599 -0.38176128 -0.19923669 0
0.51280594 -0.24543411 -0.30425549 0
0.5292244 -0.21748304 -0.32221782 0
0.67181873 -0.22685787 -0.31029385 0
0.7954483 -0.14333627 -0.3529253 0
0.87308192 -0.090955555 -0.39056945 0
-0.35831356 -0.47185755 -0.082216233 0
-0.28256035 -0.42198804 -0.088067338 0
-0.20422363 -0.38691318 -0.08833909 0
-0.059340477 -0.35037205 -0.11993363 0
0.011294842 -0.33208251 -0.18769571 0
0.51078892 -0.20051414 -0.28252369 0
0.60467815 -0.14203697 -0.31348187 0
0.62212467 -0.1505295 -0.34511936 0
0.7328558 -0.09460032 -0.35644174 0
0.85982275 -0.076911956 -0.40332663 0
-0.27907372 -0.38309765 -0.087372988 0
-0.21246839 -0.35805267 -0.079103395 0
-0.018290043 -0.2750909 -0.16956906 0
0.69343758 -0.28507003 -0.24287872 0
0.68404388 -0.24009734 -0.2358847 0
-0.31148458 -0.46853361 -0.033167645 0
-0.24254847 -0.44274661 -0.015534922 0
-0.16419649 -0.40236059 -0.012742549 0
-0.062584877 -0.3613576 -0.0016578138 0
-0.16436005 -0.35728517 -0.020947695 0
-0.099042177 -0.33867317 -0.018141672 0
-0.017913342 -0.31711638 0.0023394823 0
0.71682119 -0.30255073 -0.18536781 0
-0.010648251 -0.47554642 0.046295352 0
0.72059727 -0.23277807 -0.12792096 0
0.77105141 -0.18047535 -0.18211392 0
-0.19725084 -0.48932001 0.061741583 0
-0.12194228 -0.41394064 0.050647706 0
-0.0443573 -0.39130133 0.07183174 0
0.037642479 -0.34059599 0.073475711 0
0.71695328 -0.16571832 -0.15029672 0
-0.1127274 -0.36239195 0.045427851 0
-0.049431801 -0.33246818 0.057781652 0
0.024175644 -0.29195726 0.046241663 0
0.10046053 -0.2761032 0.072589979 0
0.76506758 -0.32179663 -0.056749344 0
0.030732632 -0.44869122 0.088840611 0
0.097189426 -0.45002109 0.10083883 0
0.21613073 -0.42560819 0.12081459 0
0.2788353 -0.45646384 0.10831597 0
0.73995209 -0.23248613 -0.044156119 0
0.00022411346 -0.37639093 0.11276759 0
0.062101841 -0.36620858 0.13336641 0
0.15106487 -0.35912457 0.15958716 0
0.73125458 -0.19265836 -0.016211972 0
0.83718014 -0.17088008 -0.027171478 0
-0.019672394 -0.33534455 0.13049711 0
0.081434727 -0.3046487 0.13615826 0
0.14901257 -0.26567161 0.12613937 0
0.21718216 -0.21717384 0.14449845 0
0.23348665 -0.40913147 0.16886404 0
0.30466795 -0.44218445 0.14503632 0
0.76882219 -0.23614389 0.060716808 0
0.13301754 -0.3239395 0.2013218 0
0.19157743 -0.34770811 0.1982383 0
0.25856829 -0.33475393 0.22644126 0
0.69475031 -0.18537894 0.094492689 0
0.75039959 -0.15585068 0.059280172 0
0.85783052 -0.1172969 0.03989841 0
0.91133928 -0.087601006 0.01595147 0
0.10895777 -0.31343406 0.19377211 0
0.19137287 -0.27376553 0.19954076 0
0.27324486 -0.24148491 0.20319103 0
0.3511343 -0.19064668 0.21624435 0
0.73475122 -0.10855836 0.10057209 0
0.30894995 -0.33063293 0.23677777 0
0.70446205 -0.15046164 0.18286116 0
0.73061848 -0.150879 0.16324492 0
0.84387541 -0.12688726 0.13074361 0
0.96890736 -0.083576947 0.113665 0
0.37615585 -0.20918339 0.24960673 0
0.46132469 -0.16344991 0.26551455 0
0.68968296 -0.14081976 0.15218081 0
0.73068285 -0.12186345 0.15164876 0
0.84024811 -0.095451206 0.16776779 0
0.37512302 -0.13976789 0.24017335 0
0.45051384 -0.13212714 0.2551887 0
0.16922092 -0.44070527 -0.61321491 0
0.21043062 -0.422095 -0.62163359 0
0.37421727 0.13441771 -0.53935516 0
0.49956799 0.13279277 -0.618496 0
0.33700776 0.23676535 -0.53279942 0
0.30733991 0.3202948 -0.5224582 0
0.27961111 0.39758754 -0.51202774 0
0.2304306 -0.48906881 -0.60723829 0
0.10868263 -0.46662325 -0.50201166 0
0.16924906 -0.45076013 -0.56829083 0
0.23195028 -0.44597965 -0.60292006 0
0.54457426 -0.33195519 -0.56793773 0
0.083280087 -0.38491544 -0.50740325 0
0.12740231 -0.38691485 -0.55332196 0
0.28597307 -0.35914111 -0.5900743 0
0.52245617 -0.24230981 -0.56487334 0
0.59147263 -0.24061453 -0.61358166 0
0.48796844 -0.16726983 -0.54760343 0
-0.11049795 -0.28447998 -0.41020754 0
-0.018699408 -0.10093793 -0.39073288 0
0.069633961 -0.079900026 -0.40509829 0
0.52432013 0.088843644 -0.46250337 0
-0.12697697 -0.061843574 -0.35633165 0
-0.058267117 -0.058840305 -0.38073239 0
0.046658039 -0.012579978 -0.4031471 0
0.11792493 -0.012950838 -0.42429394 0
0.38377833 0.12223157 -0.52121401 0
0.50871134 0.14297664 -0.44575888 0
0.94339514 0.24532789 -0.52421355 0
0.97104406 0.3129971 -0.54373372 0
-0.04036808 0.040187985 -0.38730079 0
0.074376822 0.10174066 -0.3759234 0
0.26136661 0.18283314 -0.3856588 0
0.47814679 0.22884458 -0.43681523 0
0.57370782 0.29965395 -0.42938912 0
0.7584095 0.33929318 -0.48756841 0
0.9610219 0.44166696 -0.54568362 0
0.048295975 0.1971963 -0.35385638 0
0.16921425 0.20778683 -0.35883188 0
0.25558209 0.24962884 -0.39054975 0
0.44114447 0.32693729 -0.43174595 0
0.58125734 0.32127488 -0.44411969 0
0.73927665 0.44496769 -0.49361014 0
0.94151258 0.49542195 -0.54900199 0
0.0029141903 0.29447758 -0.36774957 0
0.024760962 0.29518136 -0.34047216 0
0.14684987 0.33974588 -0.36138555 0
0.20240927 0.34526083 -0.37499005 0
0.33359361 0.43661967 -0.42451441 0
0.40593958 0.43414482 -0.41717237 0
0.51357031 0.45827579 -0.42995811 0
-0.025589705 0.39052176 -0.34120274 0
0.007622242 0.36340961 -0.33520359 0
0.10770702 0.43976641 -0.3619234 0
0.28362346 0.46995905 -0.41607821 0
0.38186979 0.49866167 -0.4169679 0
-0.048133612 0.46390781 -0.32521963 0
0.017385483 0.47744909 -0.34126884 0
0.57104015 -0.40687436 -0.57625687 0
0.072538853 -0.46560109 -0.465832 0
0.55993128 -0.3500331 -0.54185551 0
-0.04934907 -0.43412101 -0.38435346 0
0.11080694 -0.38881516 -0.40044975 0
0.1632123 -0.35244381 -0.41665405 0
0.53649282 -0.2809394 -0.53298426 0
-0.062989473 -0.36382547 -0.37828952 0
0.052976131 -0.33800417 -0.38709298 0
0.11479759 -0.29058391 -0.41057903 0
0.21162701 -0.26649538 -0.38230783 0
0.61299133 -0.138502 -0.44798982 0
0.87704992 -0.073373318 -0.488994 0
-0.092819452 -0.26768813 -0.37199843 0
0.01904726 -0.24216613 -0.38496417 0
0.098928928 -0.16215423 -0.39311415 0
0.19081974 -0.19603059 -0.36900213 0
0.38802576 -0.11398947 -0.3970598 0
0.58548164 -0.053454816 -0.43478584 0
0.70834804 -0.074290931 -0.44648936 0
0.73551464 0.038082421 -0.45686179 0
0.91048503 0.011689544 -0.50666213 0
-0.12097406 -0.18190616 -0.36190379 0
-0.029002905 -0.16654196 -0.37840611 0
0.11185837 -0.11075863 -0.38314295 0
0.165277 -0.090240777 -0.34887597 0
0.2874856 -0.081932396 -0.36836582 0
0.55261064 0.038345039 -0.43867469 0
0.76695609 0.12460303 -0.47338575 0
0.92850947 0.12770182 -0.51484346 0
-0.15615702 -0.093414366 -0.34587723 0
0.08762455 -0.030488998 -0.36149961 0
0.11842942 -8.6784363e-05 -0.35639688 0
0.24349308 0.035558343 -0.36820182 0
0.30405569 0.085462332 -0.38716769 0
0.52939081 0.12265944 -0.42612255 0
0.58848166 0.18607515 -0.43219578 0
0.76937389 0.2180894 -0.48019582 0
0.088142395 0.10272482 -0.33996031 0
0.17636132 0.16021511 -0.35389102 0
0.27729273 0.15346435 -0.38364816 0
0.49244761 0.20875329 -0.41654411 0
0.1058774 0.16328427 -0.33662361 0
0.49998808 -0.30184314 -0.33974922 0
-0.42247105 -0.48286512 -0.18846723 0
-0.023982048 -0.37380135 -0.25766271 0
0.04308939 -0.35818246 -0.25975657 0
0.47893429 -0.24876553 -0.34039405 0
0.52496147 -0.21609864 -0.37900764 0
0.62087822 -0.18986049 -0.38301152 0
0.71075487 -0.15637523 -0.41113275 0
0.85634851 -0.10066432 -0.41708952 0
0.88683867 -0.095574707 -0.44941527 0
-0.49563622 -0.47517896 -0.19367887 0
-0.42714214 -0.45457584 -0.18806444 0
-0.039617538 -0.30210143 -0.24823596 0
0.028621197 -0.31653509 -0.24350308 0
0.20311308 -0.21466658 -0.34533438 0
0.31329966 -0.18867844 -0.36641616 0
0.60423899 -0.08862564 -0.41455925 0
-0.073815346 -0.24239747 -0.23524769 0
0.50130701 -0.29134238 -0.3199991 0
0.65636349 -0.30016237 -0.31008875 0
0.72981024 -0.22986892 -0.29664469 0
-0.31910372 -0.472642 -0.12239146 0
0.013431549 -0.36384362 -0.20567419 0
0.031725407 -0.35568291 -0.23657675 0
0.49897385 -0.2640481 -0.29140836 0
0.54090738 -0.22167742 -0.3071734 0
0.66529655 -0.20803154 -0.28218904 0
-0.47792864 -0.49606547 -0.14464073 0
-0.39221072 -0.46290293 -0.11739653 0
-0.31334639 -0.43519038 -0.11569655 0
-0.24255514 -0.38959697 -0.10160023 0
-0.012244225 -0.33087999 -0.18795151 0
0.676929 -0.28901565 -0.2279018 0
0.66846466 -0.23115456 -0.20839277 0
0.73828745 -0.18319926 -0.16822103 0
-0.33721089 -0.48290241 -0.045375168 0
-0.28026652 -0.45140624 -0.044410467 0
-0.20078254 -0.41105199 -0.042613253 0
-0.11277199 -0.37261587 -0.023852661 0
-0.16287303 -0.49672312 0.016837701 0
0.70457792 -0.24792504 -0.10488711 0
0.74621487 -0.19673598 -0.1428619 0
-0.24750686 -0.45309389 0.010591626 0
-0.15770149 -0.42531767 0.035419457 0
-0.083536386 -0.39537334 0.044853441 0
-0.0058512688 -0.34682426 0.037653007 0
0.079414368 -0.30335352 0.056563795 0
-0.0052928925 -0.27997464 0.034344658 0
0.070708752 -0.28321639 0.074843422 0
-0.024921417 -0.45550162 0.079722919 0
0.053405285 -0.46089771 0.097974464 0
0.13709116 -0.45909247 0.12193565 0
0.78748035 -0.18427873 -0.035367027 0
-0.044843674 -0.3932412 0.10274144 0
0.03136301 -0.36706784 0.11864454 0
0.12084532 -0.31821784 0.12684931 0
0.1761651 -0.29589978 0.12827517 0
0.71325397 -0.17315778 0.031267256 0
0.79281855 -0.17702553 0.005027771 0
0.86789417 -0.11435279 0.009474948 0
0.033625603 -0.32234174 0.12920645 0
0.10673237 -0.292871 0.12164758 0
0.2138238 -0.2631669 0.14126961 0
0.17956114 -0.4252952 0.16124681 0
0.26584864 -0.44608793 0.16107725 0
0.096422195 -0.40494075 0.15906452 0
0.14658594 -0.35313123 0.18997335 0
0.22978735 -0.34251282 0.20389697 0
0.3124094 -0.27537787 0.204496 0
0.71477175 -0.18950754 0.10507095 0
0.81128836 -0.15211535 0.07240279 0
0.92029428 -0.09593147 0.13635805 0
0.98510218 -0.083101541 0.075323343 0
0.24015713 -0.26493418 0.19532324 0
0.32611418 -0.22749031 0.20699584 0
0.77504778 -0.10917923 0.12394644 0
0.96488428 -0.042917311 0.098376974 0
0.22437668 -0.49321702 0.23883796 0
0.30930948 -0.4014442 0.21163717 0
0.32407951 -0.39677072 0.22826159 0
0.25938559 -0.32228565 0.25506723 0
0.35433388 -0.32866329 0.27809814 0
0.443573 -0.34656051 0.28716624 0
0.88912058 -0.12308148 0.15519337 0
0.23356199 -0.26079574 0.26188335 0
0.35188103 -0.25546098 0.27825886 0
0.43044853 -0.22204274 0.28576714 0
0.5294919 -0.17693076 0.31438464 0
0.51063919 -0.13673097 0.30465207 0
0.46921539 -0.3139357 0.32590607 0
0.56322145 -0.28711718 0.36986363 0
0.46768522 -0.2318528 0.36047155 0
0.54342031 -0.20246992 0.36560881 0
0.66478539 -0.14614943 0.35917461 0
0.65299654 -0.12123331 0.3840948 0
0.61935282 -0.25880164 0.40386951 0
0.68433523 -0.2743991 0.41690752 0
0.75537348 -0.25753117 0.45464885 0
0.58240032 -0.22931087 0.41996509 0
0.64760685 -0.19375217 0.43119937 0
0.72746325 -0.15367988 0.45941824 0
0.72096682 -0.10734749 0.44539201 0
0.80180693 -0.081665695 0.45071042 0
0.87741327 -0.27897054 0.45716786 0
0.82820511 -0.11654165 0.47600877 0
0.80309868 -0.078210533 0.50633073 0
0.1343751 -0.4476282 -0.69507504 0
0.26303482 0.4640778 -0.53553486 0
0.076172352 -0.45989037 -0.61871088 0
0.14357233 -0.43412977 -0.62908554 0
0.20909214 -0.42347705 -0.62024987 0
0.21729898 -0.37263814 -0.61719292 0
0.10251093 -0.16087019 -0.52428365 0
0.3862071 0.13674366 -0.54345649 0
-0.35854435 -0.018110216 -0.35071433 0
-0.33188629 0.017965913 -0.35251087 0
0.35598326 0.22510299 -0.52983552 0
-0.31169772 0.098744214 -0.35740495 0
-0.25259495 0.12559825 -0.36506897 0
-0.15122843 0.18464607 -0.37243253 0
-0.067261934 0.18789965 -0.39257574 0
0.31789017 0.32716584 -0.52467966 0
-0.25823283 0.2135815 -0.35716313 0
-0.14403749 0.23341757 -0.37965697 0
-0.059922457 0.27176023 -0.39950708 0
0.28766274 0.4077352 -0.52409703 0
-0.28410172 0.29937652 -0.35409772 0
-0.20053911 0.35852638 -0.3692486 0
-0.11662292 0.36126706 -0.39067584 0
-0.029114485 0.42047223 -0.36169922 0
-0.30698824 0.39782488 -0.34589306 0
-0.21210599 0.47106031 -0.37647608 0
-0.10801721 0.48733342 -0.379475 0
-0.043954372 0.49566385 -0.36008465 0
0.14850712 -0.43334082 -0.53893083 0
0.085813046 -0.40309194 -0.49101058 0
0.12515593 -0.36965987 -0.54634625 0
0.52562904 -0.24152365 -0.56499559 0
-0.42355323 -0.46550095 -0.37347764 0
-0.36251116 -0.43273509 -0.36148012 0
-0.13544893 -0.40656888 -0.48812029 0
-0.076677561 -0.33725065 -0.40993077 0
0.50108147 -0.16377574 -0.54611862 0
-0.43650174 -0.39001089 -0.34633112 0
-0.39550018 -0.36051467 -0.3182767 0
-0.10015273 -0.25658861 -0.39582121 0
0.024034977 -0.20599499 -0.39452109 0
0.090089798 -0.16487688 -0.41246796 0
0.13680601 -0.1658524 -0.42216837 0
0.47875905 -0.10679772 -0.54280806 0
-0.45748472 -0.30516961 -0.33588177 0
-0.41431308 -0.27236417 -0.32034451 0
-0.32601428 -0.22841725 -0.32383621 0
-0.267946 -0.19723362 -0.33571589 0
-0.12546992 -0.17358476 -0.37520838 0
-0.02987051 -0.10821056 -0.37481701 0
0.087299824 -0.074259192 -0.41379821 0
0.11179161 -0.088872701 -0.40503472 0
0.20683551 -0.0051969588 -0.46706784 0
-0.42646456 -0.1681882 -0.32363313 0
-0.34713221 -0.1478827 -0.33109915 0
-0.27568126 -0.095066398 -0.34111673 0
-0.14861512 -0.085847378 -0.36532092 0
-0.063511372 -0.080712795 -0.37546399 0
0.029113054 -0.0074466765 -0.39688563 0
0.11402345 0.029091656 -0.38065475 0
0.24837494 0.057587773 -0.46413863 0
0.4011054 0.11275995 -0.52624333 0
0.5106194 0.16535634 -0.45596331 0
-0.36260223 -0.052779973 -0.33715421 0
-0.26874185 -0.012228042 -0.35015097 0
-0.18804479 0.022875786 -0.35161316 0
-0.10679746 0.04664132 -0.37065899 0
-0.016341686 0.089905769 -0.40240306 0
0.090313673 0.10038212 -0.37184876 0
0.19765067 0.18838757 -0.36943993 0
0.28702903 0.19791895 -0.39093256 0
0.47916913 0.25212598 -0.45079768 0
-0.31388593 0.041607887 -0.34327775 0
-0.21833396 0.087860316 -0.35369119 0
-0.13070774 0.14060479 -0.3724381 0
-0.010380745 0.16899171 -0.40717125 0
0.059017897 0.20179555 -0.35482496 0
0.38289523 0.29652146 -0.43752486 0
0.45817709 0.32248268 -0.4320468 0
0.55536556 0.38179517 -0.43628225 0
0.78317666 0.42596567 -0.50153214 0
0.022271633 0.30493641 -0.3532725 0
0.142838 0.35796562 -0.35508412 0
0.32846141 0.38500682 -0.42322338 0
0.42114115 0.4282138 -0.42079437 0
-0.0079350471 0.39970693 -0.3332105 0
0.10492659 0.39958146 -0.35564011 0
0.29814672 0.46516562 -0.42063874 0
0.077992916 0.48788759 -0.35236233 0
0.56579113 -0.33813477 -0.55455446 0
-0.032381535 -0.42494294 -0.38201278 0
0.058377266 -0.41011491 -0.38581234 0
0.46537971 -0.27850333 -0.46461892 0
0.54555511 -0.27275679 -0.53911954 0
-0.46793723 -0.47882867 -0.23227382 0
-0.053177357 -0.36620298 -0.37769783 0
0.042957783 -0.3450551 -0.3833563 0
0.13383722 -0.31116423 -0.41033238 0
0.22216034 -0.25881416 -0.38428468 0
0.61630011 -0.11780035 -0.46322256 0
-0.53251481 -0.48654568 -0.21885945 0
-0.45934367 -0.45434678 -0.20848882 0
-0.36492395 -0.38245556 -0.31056052 0
-0.076505899 -0.26171875 -0.36406094 0
0.012023926 -0.23723322 -0.38201097 0
0.1062336 -0.22186881 -0.40735909 0
0.18582344 -0.17054138 -0.36833441 0
0.30401754 -0.14032695 -0.36589301 0
0.40908003 -0.11783236 -0.3950361 0
0.58937073 -0.029870391 -0.43804502 0
0.7657125 0.049307585 -0.46666315 0
0.9496634 0.026479125 -0.51608837 0
-0.090362549 -0.21483818 -0.35904363 0
0.14421892 -0.096355289 -0.36584124 0
0.30839014 -0.089607239 -0.3736144 0
0.56448936 0.036693811 -0.43690601 0
0.77617335 0.1191268 -0.47924137 0
0.97379708 0.14798784 -0.52932894 0
0.1274929 0.00219962 -0.35398173 0
0.20820498 0.03173086 -0.35643604 0
0.3092463 0.041564941 -0.38111871 0
0.53697872 0.13077199 -0.42822465 0
0.77396727 0.24145693 -0.48339438 0
0.11153841 0.078819633 -0.34243485 0
0.19487762 0.13833168 -0.35979575 0
0.30555224 0.13178542 -0.39174587 0
0.49767661 0.22136992 -0.42841294 0
0.57466054 0.21108323 -0.42774868 0
0.79261827 0.3441571 -0.49553639 0
0.46769667 0.31543979 -0.41001058 0
0.56503224 0.34177095 -0.42787975 0
0.50602055 -0.28600311 -0.34688219 0
-0.013566017 -0.37831157 -0.26048762 0
0.039191723 -0.35419226 -0.2447471 0
0.56032801 -0.20234942 -0.37423709 0
0.62177849 -0.16226554 -0.44382179 0
0.71561098 -0.14265901 -0.41717637 0
0.9070065 -0.075210959 -0.45942608 0
-0.46959448 -0.48735565 -0.15470715 0
-0.39928365 -0.45442015 -0.16422939 0
-0.32120252 -0.42776224 -0.14747976 0
-0.02785778 -0.31309089 -0.24027273 0
0.027789116 -0.3122347 -0.23841365 0
0.21715355 -0.21511695 -0.34443179 0
0.60664892 -0.058936954 -0.41029441 0
0.72112322 -0.058012724 -0.44665846 0
0.66196489 -0.25977954 -0.28856844 0
0.033777237 -0.3714301 -0.21392551 0
0.51037169 -0.26181722 -0.29747459 0
0.53001642 -0.24085033 -0.3153258 0
0.67538595 -0.1911571 -0.32331675 0
0.7303977 -0.19817004 -0.31981331 0
0.85920715 -0.10830361 -0.38791668 0
-0.36830163 -0.47693935 -0.096310675 0
-0.28521848 -0.43650067 -0.082908198 0
-0.20183825 -0.40566012 -0.084423035 0
-0.024074078 -0.34850267 -0.16186833 0
0.67771959 -0.27995381 -0.26431781 0
0.67026472 -0.21685457 -0.20796266 0
0.71955013 -0.19139469 -0.27236378 0
-0.26829314 -0.46260494 -0.021379873 0
-0.17879248 -0.4258233 -0.009246856 0
-0.10576868 -0.37178275 -0.01013045 0
-0.030642509 -0.32442504 0.0082511902 0
-0.030836105 -0.48793817 0.047204785 0
0.028160572 -0.48265547 0.06442377 0
0.72059393 -0.2135933 -0.13156059 0
0.77937222 -0.20264083 -0.17561847 0
-0.14229703 -0.41864368 0.050341234 0
-0.049545765 -0.39695275 0.069730259 0
0.022339344 -0.34474778 0.056837872 0
0.092471123 -0.3449297 0.078248203 0
0.03186655 -0.29339647 0.049847215 0
0.064023972 -0.46099666 0.096177436 0
0.15372086 -0.44672152 0.13072644 0
0.28942823 -0.4533067 0.11216302 0
0.012853146 -0.42658028 0.10964319 0
0.061844826 -0.38678545 0.13371144 0
0.12690735 -0.3372137 0.13868992 0
0.73100471 -0.15541792 0.041376233 0
0.86337614 -0.14801234 0.00036244094 0
0.97192669 -0.044612765 -0.021267712 0
0.14467287 -0.28740257 0.13947634 0
0.24578285 -0.24810784 0.14739829 0
0.21897602 -0.43629035 0.15792082 0
0.29056692 -0.42607918 0.17879112 0
0.18212891 -0.35725364 0.19928065 0
0.26057339 -0.32352203 0.22178203 0
0.69216442 -0.15715063 0.068186164 0
0.85083818 -0.13440406 0.10712466 0
0.89109325 -0.093006968 0.053292841 0
0.95932102 -0.088710606 -0.0020214021 0
0.19877958 -0.2956233 0.17624319 0
0.26272058 -0.27747548 0.21605799 0
0.34638309 -0.21088147 0.21447331 0
0.85992146 -0.45193389 0.11204783 0
0.39437294 -0.38478863 0.24096341 0
0.48321247 -0.37494951 0.27876621 0
0.32809639 -0.34609851 0.24749114 0
0.38196564 -0.31701937 0.28565478 0
0.28911686 -0.28720576 0.27806985 0
0.39578438 -0.24726331 0.28584236 0
0.47224331 -0.1812422 0.28684938 0
0.51713371 -0.31766412 0.333381 0
0.58193874 -0.26606452 0.38315323 0
0.44148636 -0.27763683 0.33997756 0
0.48993683 -0.21522349 0.36842808 0
0.55942535 -0.17716923 0.33878773 0
0.63201189 -0.14786699 0.37023592 0
0.65509939 -0.33805826 0.3665815 0
0.63554764 -0.17288321 0.40805477 0
0.72126532 -0.093762338 0.42803201 0
0.72519064 -0.090496659 0.40541705 0
-0.094759703 0.45804268 -0.51762259 0
-0.43340945 0.41267163 -0.42300773 0
-0.38334775 0.42830622 -0.43091318 0
-0.39185882 0.49309304 -0.43643025 0
-0.54513216 -0.45581448 -0.48380309 0
-0.56316566 -0.36243328 -0.44863999 0
-0.5669117 -0.28636989 -0.42812604 0
-0.5646193 -0.19883913 -0.41298229 0
-0.56742764 -0.11153141 -0.39810243 0
-0.55184984 -0.070031494 -0.38792473 0
-0.54929757 0.028689772 -0.37152755 0
-0.49687719 0.085232407 -0.37527686 0
-0.56024837 0.13486212 -0.36903188 0
-0.48562717 0.14665988 -0.37761831 0
-0.41240883 0.19422999 -0.38678551 0
-0.3400023 0.21325186 -0.39448875 0
-0.50098085 0.26957336 -0.38759458 0
-0.41304135 0.28151238 -0.40380019 0
-0.30894423 0.32426384 -0.39987314 0
-0.47100306 0.35841855 -0.40519524 0
-0.33604598 0.42636424 -0.38652533 0
-0.25372744 0.40496743 -0.37169969 0
-0.18705702 0.45685261 -0.39256805 0
0.12694311 -0.45703217 -0.67354482 0
0.21960449 -0.3835521 -0.64030915 0
0.25604391 -0.36635661 -0.63614869 0
-0.48697805 -0.46549714 -0.45189404 0
-0.43475819 -0.44197059 -0.40870401 0
-0.50818348 -0.37459365 -0.42129767 0
-0.45303941 -0.37962428 -0.38995773 0
-0.5303762 -0.27826643 -0.40468246 0
-0.47071981 -0.26920134 -0.37266192 0
-0.54428053 -0.19580123 -0.40089288 0
-0.4913702 -0.16969731 -0.36900252 0
-0.38880944 -0.12601161 -0.35109952 0
-0.33060789 -0.095873147 -0.35964662 0
0.40417576 0.15882891 -0.56509024 0
-0.50551724 -0.070476711 -0.36265361 0
-0.41147518 -0.042707026 -0.36031944 0
-0.3120265 -0.023524284 -0.36419046 0
-0.21844316 0.02256301 -0.37481573 0
-0.065268993 0.10000843 -0.40188557 0
0.37861037 0.24224994 -0.54478538 0
-0.51747441 0.0085992217 -0.36431515 0
-0.44578552 0.050123036 -0.36698908 0
-0.34699798 0.075232923 -0.3746697 0
-0.23565269 0.12837064 -0.37710172 0
-0.16869974 0.14336261 -0.37278503 0
-0.076293707 0.19813013 -0.40205407 0
0.0033853054 0.20893297 -0.42848414 0
0.3457303 0.3294394 -0.54206008 0
-0.3563273 0.15470085 -0.38374254 0
-0.25964022 0.21394789 -0.38653511 0
-0.17405581 0.23303774 -0.38066247 0
-0.088421822 0.27481869 -0.40395051 0
0.036004543 0.31632212 -0.39215305 0
0.307477 0.43669352 -0.53061301 0
-0.26770496 0.2959463 -0.36963588 0
-0.21884823 0.34252778 -0.37784028 0
-0.12137413 0.35386387 -0.40158641 0
-0.010529757 0.40682846 -0.39079443 0
0.050551414 0.4770492 -0.35497838 0
-0.23835444 -0.48870391 -0.45085102 0
-0.16975474 -0.4762755 -0.46947986 0
-0.040184975 -0.42802936 -0.42992786 0
0.11917114 -0.37469554 -0.52902126 0
0.17313433 -0.38781124 -0.58141053 0
-0.49804735 -0.4805797 -0.28538492 0
-0.39818692 -0.44933972 -0.3880372 0
-0.31123781 -0.42502227 -0.38834408 0
-0.02634716 -0.33646363 -0.43686336 0
0.52623701 -0.15611604 -0.56545782 0
-0.54086924 -0.47582456 -0.28807423 0
-0.39630556 -0.37687704 -0.35615376 0
-0.319911 -0.33824378 -0.33369395 0
-0.075852871 -0.25173953 -0.4173578 0
-0.043110132 -0.25270557 -0.39290076 0
0.066560745 -0.18263581 -0.41715273 0
0.16342306 -0.16654223 -0.44531798 0
-0.41029096 -0.27637911 -0.34247428 0
-0.32785344 -0.2427194 -0.34140193 0
-0.2754786 -0.19978756 -0.35073647 0
-0.098469496 -0.17735699 -0.39929956 0
-0.083644629 -0.15480497 -0.38616264 0
0.13672829 -0.1053977 -0.43022829 0
0.44555807 0.070748508 -0.54665709 0
-0.43976831 -0.22065005 -0.34068015 0
-0.36402583 -0.16916922 -0.34484079 0
-0.27375627 -0.10142541 -0.35522252 0
-0.14057446 -0.055024385 -0.38533372 0
-0.10330653 -0.042479306 -0.38139278 0
0.00098514557 -0.026676297 -0.40606752 0
0.12331605 0.0087214112 -0.4049376 0
0.42350292 0.11876619 -0.55481517 0
-0.1943748 -0.010906518 -0.36988944 0
-0.096646786 0.028941691 -0.3886807 0
0.0059189796 0.077705443 -0.42126727 0
0.11318684 0.1200887 -0.37942344 0
0.39416862 0.21322393 -0.52715349 0
0.51093936 0.24086016 -0.47120303 0
0.86164689 0.40829182 -0.53322643 0
0.078679085 0.21315706 -0.3786099 0
0.14987564 0.23414251 -0.36790723 0
0.25695515 0.22197649 -0.39063671 0
0.4386971 0.37055033 -0.46364951 0
0.48886037 0.34608859 -0.44545913 0
0.62857366 0.44036734 -0.47643995 0
0.050560474 0.29292184 -0.36929423 0
0.18178535 0.37260973 -0.38757199 0
0.43967795 0.44831324 -0.44683564 0
0.026151896 0.37089011 -0.35311016 0
0.069511652 0.37088403 -0.35684502 0
0.59750652 -0.3385511 -0.56402397 0
0.00095462799 -0.43142343 -0.39412481 0
0.12554312 -0.38216054 -0.41902801 0
0.55922413 -0.24205518 -0.56153995 0
-0.45800304 -0.4941166 -0.23132068 0
-0.013000488 -0.36398935 -0.39906096 0
0.1212182 -0.29440889 -0.42576832 0
0.24878883 -0.25540787 -0.40063769 0
0.47870779 -0.24081084 -0.48026127 0
0.52710867 -0.14572057 -0.54492617 0
-0.53261089 -0.49650919 -0.22080179 0
-0.4421916 -0.45497146 -0.24366397 0
-0.38930607 -0.41061682 -0.21138799 0
-0.041037321 -0.2863757 -0.37786144 0
0.2188549 -0.18745378 -0.39373472 0
0.24042702 -0.17477104 -0.3602348 0
0.40368295 -0.078115851 -0.40726277 0
0.62096334 -0.046107978 -0.46465689 0
0.16953039 -0.10173723 -0.38987154 0
0.28072453 -0.090525329 -0.378236 0
0.32460976 -0.012464792 -0.39899474 0
0.58456278 0.059493899 -0.45303953 0
0.86238909 0.1611113 -0.50792396 0
0.15470409 -0.012169033 -0.36709958 0
0.20606971 -0.0054718554 -0.36686614 0
0.57015014 0.13714361 -0.45545807 0
0.13531303 0.08348605 -0.35706159 0
0.24528432 0.096414745 -0.38429499 0
0.35899544 0.14709911 -0.40854704 0
0.52556062 0.22440636 -0.44151115 0
0.75411773 0.27808696 -0.49102259 0
0.50416708 -0.29544196 -0.47145775 0
0.73796606 -0.20085788 -0.43054765 0
-0.35834527 -0.46347719 -0.21424535 0
0.060695171 -0.35227638 -0.2693083 0
0.68992376 -0.15207583 -0.45929533 0
0.97543621 -0.07561183 -0.50289249 0
-0.40041685 -0.48172677 -0.15596366 0
-0.32331252 -0.43500626 -0.15930305 0
-0.23704767 -0.41981182 -0.14578141 0
-0.020830154 -0.32093325 -0.27273631 0
0.038225651 -0.30660135 -0.25278252 0
0.34284687 -0.18448207 -0.38400698 0
0.64367414 -0.090296715 -0.44534677 0
0.77524996 0.0090973973 -0.47959632 0
0.52284193 -0.23007157 -0.32551867 0
0.6884079 -0.21389157 -0.30450925 0
0.69033623 -0.17656446 -0.35986608 0
0.91359544 -0.092597187 -0.41938618 0
0.95858216 -0.051371098 -0.45552173 0
-0.36759496 -0.48685193 -0.10344662 0
-0.28810024 -0.46105912 -0.084988028 0
-0.20805788 -0.41958043 -0.092381909 0
-0.13401031 -0.38599893 -0.075269789 0
0.0033974648 -0.34975719 -0.18157244 0
0.026842117 -0.33622348 -0.2043898 0
0.70031118 -0.26916122 -0.29095781 0
-0.083758116 -0.49956012 -0.010495543 0
0.7985816 -0.20761681 -0.24351986 0
-0.2357986 -0.45874968 -0.038274243 0
-0.1702702 -0.45257586 -0.016526461 0
-0.087686777 -0.38977182 -0.017065957 0
0.0027761459 -0.34508932 -0.0056936592 0
0.0050168037 -0.31857508 -0.0028239489 0
-0.013874531 -0.47529414 0.03074418 0
0.046036243 -0.48090461 0.048550896 0
0.77976084 -0.20364848 -0.20247699 0
-0.1685257 -0.49003667 0.040139593 0
-0.05142498 -0.39999321 0.04885295 0
0.032147408 -0.38805342 0.072972693 0
0.12398434 -0.32748449 0.054846838 0
0.035489082 -0.32767537 0.05604171 0
0.097207546 -0.29228467 0.054096967 0
0.18157387 -0.46690786 0.095657356 0
0.29768705 -0.45738456 0.081001893 0
0.084336281 -0.39780307 0.11233367 0
0.15184069 -0.39507419 0.13623835 0
0.0528512 -0.32235676 0.12104658 0
0.15756464 -0.31861615 0.13624175 0
0.21475124 -0.26900133 0.12186129 0
0.30890989 -0.21294257 0.15042672 0
0.3003335 -0.47037438 0.12739255 0
0.36466408 -0.41130522 0.19375411 0
0.20611477 -0.3787148 0.16670395 0
0.28875399 -0.36825758 0.18965331 0
0.87498665 -0.1370616 0.070375949 0
0.89324856 -0.12475252 0.020245448 0
0.19677448 -0.33109224 0.19167909 0
0.26250648 -0.29439506 0.21577276 0
0.34620619 -0.25718737 0.19707499 0
0.41973305 -0.19369411 0.20510375 0
0.818717 -0.11774337 0.057183728 0
0.98019886 -0.052030742 -0.0060828924 0
0.43108463 -0.16798568 0.20885803 0
0.88568163 -0.46205235 0.073295474 0
0.87374973 -0.40879035 0.10907438 0
0.34017611 -0.33609405 0.2360079 0
0.40197945 -0.34139568 0.24923673 0
0.47206879 -0.32650939 0.26672143 0
0.38231325 -0.26505232 0.28145149 0
0.46596956 -0.22436589 0.27185974 0
0.59652948 -0.16203493 0.28696194 0
0.48227167 -0.18709299 0.30575308 0
0.54807138 -0.15692994 0.26944757 0
0.87578011 -0.38290268 0.15387489 0
0.86533451 -0.33057469 0.19352628 0
0.52143669 -0.32211018 0.30266917 0
0.58040905 -0.32713413 0.30956119 0
0.49232626 -0.24469864 0.32496569 0
0.61014509 -0.19553673 0.32427269 0
0.49578428 -0.19776261 0.34788996 0
0.59493208 -0.15849343 0.33305675 0
0.71205568 -0.10863626 0.3547011 0
0.27777123 0.40408888 -0.53277934 0
0.25000429 0.48642638 -0.52055949 0
0.37716341 0.13791147 -0.5441643 0
0.35505772 0.20983857 -0.52499455 0
0.31982517 0.30261406 -0.52517551 0
-0.17369938 0.27476907 -0.37667412 0
-0.070914268 0.24613884 -0.40697253 0
-0.0059735775 0.32581386 -0.37844864 0
0.2925055 0.38844764 -0.50386935 0
0.40373397 0.43482205 -0.44500771 0
-0.025877237 0.39477181 -0.37924159 0
0.37056041 0.48949531 -0.43498236 0
-0.066666126 0.47265741 -0.35633093 0
0.09031415 0.46278247 -0.36839202 0
0.11281872 -0.4273482 -0.52898616 0
0.15319347 -0.39359882 -0.5795939 0
0.081180573 -0.34545395 -0.52336174 0
0.49513626 -0.17404902 -0.54909199 0
0.48258638 -0.12994844 -0.53845263 0
-0.42748237 -0.20775536 -0.3362239 0
-0.39088631 -0.1296156 -0.33491057 0
-0.32400441 -0.1292454 -0.3447049 0
-0.16545606 -0.085012615 -0.36871403 0
0.085725784 -0.052983344 -0.41530451 0
0.26603079 0.026735783 -0.45538434 0
0.40845275 0.073530674 -0.52744532 0
-0.38959193 -0.098674774 -0.33892629 0
-0.31958866 -0.054414123 -0.34889084 0
-0.23574758 -0.010714591 -0.35615528 0
-0.11591411 0.044780999 -0.37435651 0
-0.020971775 0.036102414 -0.39474222 0
0.087826729 0.075466871 -0.38482937 0
0.28334713 0.16526461 -0.39632177 0
0.49290729 0.20581776 -0.43762174 0
0.78364706 0.31025422 -0.49805403 0
-0.2448082 0.092716098 -0.36085194 0
-0.17397475 0.066871136 -0.36602703 0
-0.087911844 0.19448611 -0.39110401 0
0.046922922 0.17598319 -0.36842942 0
0.10288048 0.17574596 -0.34312713 0
0.44057393 0.34230566 -0.43838605 0
0.46842861 0.28192893 -0.4237718 0
0.66248703 0.40978235 -0.47607321 0
-0.25225687 0.15760395 -0.35440296 0
-0.17921615 0.22076729 -0.36485958 0
0.019017458 0.27558711 -0.35872874 0
0.15691853 0.27992558 -0.36592481 0
0.42267013 0.40333745 -0.42101604 0
-0.014168024 0.37975731 -0.33895418 0
0.078406096 0.42507303 -0.35174811 0
0.40422153 0.45436272 -0.41710371 0
-0.028857708 -0.42857167 -0.43490183 0
0.055556774 -0.40656722 -0.48571724 0
0.53996229 -0.27760336 -0.53482962 0
-0.46337247 -0.47428441 -0.39662498 0
-0.41974998 -0.47605529 -0.36953577 0
-0.21459603 -0.43194088 -0.44718361 0
-0.064593554 -0.38208577 -0.40971059 0
-0.053188324 -0.40032235 -0.39277738 0
0.08996582 -0.31567156 -0.41086882 0
0.12401247 -0.29917419 -0.41097873 0
0.51105261 -0.19726837 -0.53047103 0
-0.47375226 -0.41667408 -0.37498736 0
-0.42262411 -0.40127063 -0.33973095 0
-0.35971355 -0.37325716 -0.30825078 0
-0.09496069 -0.28449437 -0.38673657 0
-0.052921057 -0.30675757 -0.37279731 0
0.027477264 -0.2553114 -0.39400822 0
0.17357302 -0.20158622 -0.40067089 0
0.48361707 -0.11371037 -0.51220292 0
0.59752893 -0.083240807 -0.45040712 0
0.79022694 0.0025972128 -0.47028407 0
-0.44006181 -0.30002812 -0.32887343 0
-0.35210896 -0.28493208 -0.32120812 0
-0.1221664 -0.20150426 -0.37321371 0
0.033874512 -0.169563 -0.40470189 0
0.13379574 -0.11663949 -0.38092333 0
0.192945 -0.091770321 -0.35126007 0
0.37083292 -0.10442489 -0.40109992 0
0.56855583 0.0065129399 -0.43317536 0
0.74432707 0.11380792 -0.47186542 0
-0.44608545 -0.22230014 -0.32390594 0
-0.37117934 -0.18994468 -0.32926786 0
-0.28834224 -0.1646859 -0.33802032 0
-0.14871573 -0.12530333 -0.36400017 0
-0.11256647 -0.093161643 -0.3646428 0
0.12090063 -0.029227555 -0.36592567 0
0.30406737 0.023428023 -0.39044547 0
0.53916955 0.084704161 -0.43815106 0
0.10027599 0.063849002 -0.35574722 0
0.1862576 0.044125021 -0.3591024 0
0.079738855 0.12588218 -0.34495366 0
-0.011989594 -0.40697747 -0.38127258 0
0.22918272 -0.29669428 -0.37961763 0
0.46073389 -0.26872626 -0.44209623 0
0.65712261 -0.17668909 -0.4161635 0
0.95310354 -0.06691888 -0.46861696 0
-0.49611235 -0.48704001 -0.22088841 0
-0.42661357 -0.47307479 -0.21468581 0
-0.026945591 -0.32022193 -0.2546978 0
0.20941925 -0.23206155 -0.36632991 0
0.62270308 -0.1318534 -0.42665195 0
0.90607023 -0.068874329 -0.41208673 0
0.17776442 -0.13387385 -0.3416326 0
0.51679468 -0.30582154 -0.30940163 0
0.59703207 -0.226502 -0.3169055 0
0.65086603 -0.22194788 -0.358908 0
-0.3688724 -0.48831636 -0.16449335 0
-0.27041864 -0.45753473 -0.13576058 0
0.014413834 -0.3523123 -0.2274655 0
-0.3396554 -0.49643606 -0.075823322 0
-0.26471305 -0.45898896 -0.070169732 0
-0.17848372 -0.41148761 -0.067629486 0
-0.10215807 -0.3764897 -0.034113616 0
-0.10838675 -0.36185926 -0.048655376 0
-0.22821951 -0.48139635 -0.010503903 0
-0.14329934 -0.47566986 0.0068151802 0
-0.065078259 -0.4035176 0.016245663 0
0.014635563 -0.38830695 0.024996832 0
-0.14220977 -0.39693555 0.038050652 0
-0.079297543 -0.37069666 0.023924559 0
-0.0061798096 -0.31407708 0.012157962 0
-0.095753908 -0.46072683 0.057176292 0
-0.027873993 -0.45195338 0.075630583 0
0.051007271 -0.43211365 0.093037702 0
0.90679789 -0.13944703 -0.0022319704 0
-0.027300358 -0.39729381 0.10880853 0
0.046137333 -0.36591518 0.11085436 0
0.11977863 -0.32627785 0.095618345 0
0.22535086 -0.29844666 0.11739613 0
0.13416815 -0.49035895 0.11815335 0
0.09987402 -0.45017594 0.13559543 0
0.18555593 -0.42123374 0.17098626 0
0.25899982 -0.45589554 0.1671057 0
0.075024128 -0.39273992 0.15386583 0
0.15100193 -0.33607078 0.17235261 0
0.25354719 -0.29012281 0.1773656 0
0.36283445 -0.24595109 0.19803677 0
0.8348856 -0.41843241 0.10914704 0
0.83683395 -0.39785326 0.14562318 0
0.28584623 -0.394355 0.21426395 0
0.37510824 -0.38671476 0.24554971 0
0.21033478 -0.35501635 0.22658181 0
0.28936243 -0.32519931 0.25205064 0
0.36635637 -0.27919024 0.27927196 0
0.37405729 -0.20916086 0.26958585 0
0.4508009 -0.21771646 0.27410799 0
0.51802349 -0.19661835 0.28598145 0
0.8428936 -0.36893749 0.20448735 0
0.48526669 -0.38211086 0.29047844 0
0.41114092 -0.30109078 0.31515634 0
0.48283195 -0.29146212 0.34488529 0
0.55734253 -0.28540373 0.37083143 0
0.50878525 -0.23203361 0.38920927 0
0.54588318 -0.20130718 0.3421669 0
0.67188644 -0.12803152 0.37945709 0
0.62059212 -0.36504772 0.3457281 0
0.61348581 -0.27672291 0.3973065 0
0.71215487 -0.28787121 0.42657074 0
0.59678888 -0.22517532 0.41753012 0
0.69761848 -0.16839194 0.44269395 0
0.85181904 -0.058053136 0.45744538 0
0.9004302 -0.30291972 0.48552823 0
0.79577732 -0.26957536 0.45697469 0
0.88038158 -0.26357725 0.49805152 0
0.79420519 -0.1859318 0.51325399 0
0.85959435 -0.093863875 0.4769628 0
0.91004848 -0.075516313 0.50693071 0
0.82623386 -0.28760287 0.58740246 0
0.81096506 -0.22596222 0.61605519 0
0.87418985 -0.16890138 0.60060507 0
0.98784065 -0.1501835 0.59429729 0
0.35187411 0.13871673 -0.52939665 0
0.34150124 0.1828531 -0.50390482 0
0.31097031 0.27124909 -0.49026158 0
0.38658881 0.40296879 -0.44170055 0
0.12372828 -0.41329217 -0.56929386 0
0.4743433 -0.18111289 -0.52620125 0
0.45560455 -0.11727002 -0.50715065 0
0.06008625 -0.051109612 -0.41671896 0
0.37247705 0.092490941 -0.51860833 0
0.50227976 0.093349457 -0.44842654 0
-0.059612989 0.009681344 -0.38574588 0
0.050824165 0.096787423 -0.37905362 0
0.46283007 0.21410275 -0.42410362 0
0.018286705 0.19154274 -0.36600828 0
0.42689872 0.31190455 -0.42173308 0
0.0069403648 0.24074847 -0.34149808 0
0.38416052 0.43051225 -0.41713819 0
0.39888835 0.38966256 -0.41781163 0
-0.030583143 0.34825817 -0.3269915 0
-0.059685946 -0.4402194 -0.41464502 0
0.079726696 -0.40795994 -0.52276027 0
0.51558304 -0.27735999 -0.51498163 0
-0.020099163 -0.36619228 -0.44672102 0
0.012138367 -0.35496685 -0.48205131 0
0.59457636 -0.15950757 -0.45966613 0
0.78153658 -0.15952504 -0.45991024 0
-0.11883807 -0.29230917 -0.38074484 0
-0.020838261 -0.24869883 -0.38232771 0
0.11402893 -0.19865134 -0.4083837 0
0.16898489 -0.21777147 -0.38306355 0
0.57003593 -0.084046394 -0.44532681 0
-0.3263042 -0.27096629 -0.32534453 0
-0.15372491 -0.1959314 -0.36933112 0
0.087607861 -0.12285796 -0.38823387 0
0.13188601 -0.097982377 -0.35332018 0
0.54092407 0.0073053241 -0.42624804 0
-0.18918037 -0.096779585 -0.35516542 0
-0.1317215 -0.11072135 -0.36349282 0
0.076360703 -0.01223737 -0.37474591 0
0.12072372 -0.028739303 -0.35035461 0
0.33252859 0.00020310283 -0.38685051 0
0.50093484 0.11811703 -0.41655385 0
0.061513662 0.085112214 -0.35515469 0
0.11712408 0.1012091 -0.34909198 0
0.041801214 0.15367618 -0.33633667 0
-0.41389847 -0.46171165 -0.33535805 0
-0.086072922 -0.37997004 -0.37540305 0
0.080951691 -0.3566162 -0.4023985 0
0.2087388 -0.31160909 -0.36842167 0
0.70678902 -0.14919317 -0.36256814 0
0.79883623 -0.1622923 -0.4334664 0
-0.41902256 -0.41729525 -0.32125884 0
-0.38343263 -0.38567981 -0.31367803 0
-0.076139212 -0.32665935 -0.36651519 0
0.17989063 -0.23100315 -0.36066318 0
-0.41893911 -0.32814732 -0.30509192 0
0.14903641 -0.14233956 -0.34863111 0
-0.051867485 -0.38296223 -0.259453 0
0.016992092 -0.37634128 -0.24115297 0
0.47627497 -0.25777686 -0.27576548 0
-0.56017303 -0.49050057 -0.23716116 0
-0.44576192 -0.48257911 -0.18882559 0
-0.38639522 -0.44921848 -0.16325958 0
-0.029783726 -0.34617609 -0.22308403 0
-0.0030684471 -0.31359735 -0.2461763 0
-0.43888378 -0.48694932 -0.13181299 0
-0.34332347 -0.45454377 -0.10356383 0
-0.25941133 -0.42949092 -0.089753121 0
-0.17555881 -0.41891423 -0.074693233 0
-0.055138588 -0.37380865 -0.1641489 0
-0.3166678 -0.48961395 -0.033010319 0
-0.23521018 -0.44473407 -0.023985997 0
-0.14742398 -0.41176936 -0.0091914088 0
-0.082379818 -0.36557704 0.0069220662 0
-0.21121144 -0.47866222 0.027823389 0
-0.12339377 -0.45000052 0.058183677 0
-0.042973042 -0.42639878 0.084705308 0
0.055305958 -0.35697204 0.082190119 0
0.15649891 -0.32574087 0.097736515 0
0.88883924 -0.10515717 -0.014260754 0
-0.05819273 -0.35727066 0.06913393 0
0.042942524 -0.33475497 0.073839709 0
0.15665531 -0.29362381 0.12615144 0
0.79205799 -0.39123404 0.098467276 0
0.065768242 -0.49907607 0.093487397 0
0.19959879 -0.47021845 0.12657683 0
0.27077675 -0.49526292 0.12862712 0
0.0087690353 -0.44168413 0.11771338 0
0.089933872 -0.40160528 0.15753628 0
0.17455769 -0.36124229 0.1624178 0
-0.0093202591 -0.38199258 0.14633738 0
0.088096619 -0.34894577 0.15397644 0
0.19886971 -0.30746293 0.1855277 0
0.3056798 -0.24015804 0.20134856 0
0.99271584 -0.070511639 0.10324764 0
0.81061029 -0.42068779 0.12553883 0
0.27788734 -0.44930246 0.20893045 0
0.80966997 -0.37264207 0.19122261 0
0.21937609 -0.40283737 0.20853633 0
0.30905199 -0.40632421 0.22303826 0
0.3874979 -0.4060455 0.25573516 0
0.15785217 -0.35548508 0.22102182 0
0.26010752 -0.3245331 0.25744814 0
0.33923244 -0.27318016 0.27669823 0
0.50242186 -0.19736475 0.28142154 0
0.34795618 -0.22544956 0.28368902 0
0.4881196 -0.17092502 0.31325543 0
0.41829014 -0.35664016 0.29865447 0
0.49807549 -0.35118991 0.33000422 0
0.57011461 -0.34045351 0.36696517 0
0.38764238 -0.25171053 0.3231377 0
0.46781588 -0.25695619 0.38074654 0
0.54546928 -0.23834509 0.36374307 0
0.37917089 -0.23061344 0.35231373 0
0.53109694 -0.17196029 0.36044252 0
0.66523457 -0.086623788 0.40208215 0
0.68878174 -0.11924988 0.42288405 0
0.70463419 -0.30786288 0.41989231 0
0.84532928 -0.26427209 0.45419374 0
0.60159683 -0.25612664 0.42066246 0
0.68392754 -0.24524772 0.45960882 0
0.73856592 -0.12465987 0.47424722 0
0.79229403 -0.25479218 0.53833663 0
0.84841919 -0.23732734 0.51312107 0
0.7740674 -0.15972695 0.54892468 0
0.85930681 -0.13328385 0.58548057 0
0.79881477 -0.27030018 0.61755455 0
0.58872652 -0.28164834 -0.65528297 0
0.46255398 -0.15723601 -0.53543109 0
0.20730948 0.035493523 -0.44914067 0
0.35793281 0.13707241 -0.50601494 0
0.44653249 0.24196872 -0.44206369 0
0.41335511 0.3443718 -0.42260772 0
0.37204528 0.4624508 -0.41243654 0
0.023775101 -0.41422141 -0.47549385 0
0.11946106 -0.40672618 -0.56431103 0
0.52292824 -0.31656736 -0.53931141 0
0.50324869 -0.2540563 -0.52414864 0
-0.14707851 -0.2306391 -0.39159712 0
0.093610287 -0.19878447 -0.41227445 0
0.46687841 -0.14439553 -0.50485802 0
0.59078884 -0.14463782 -0.44921944 0
0.81141257 -0.1370379 -0.45688218 0
-0.16512346 -0.16455114 -0.3675099 0
-0.0094759464 -0.072075814 -0.4073993 0
0.087014675 -0.11806446 -0.39090747 0
0.55345368 -0.036004841 -0.4375264 0
0.075947285 -0.033077806 -0.37380975 0
0.5142231 0.07081455 -0.43086445 0
0.062564373 0.082160413 -0.35455748 0
0.48381639 0.15639377 -0.42788041 0
0.4969244 0.12040752 -0.42729968 0
0.022698879 0.18362769 -0.35933653 0
0.0049514771 0.25200772 -0.33776236 0
-0.41772175 -0.47482347 -0.3441599 0
-0.067900896 -0.42697069 -0.37420744 0
-0.4136095 -0.40353939 -0.31733805 0
-0.098370552 -0.34225067 -0.38191175 0
0.19964266 -0.2954604 -0.37160689 0
0.45193672 -0.32630041 -0.44752377 0
-0.36871314 -0.32191929 -0.32158723 0
-0.14072132 -0.23158494 -0.36508214 0
0.12153149 -0.18923762 -0.37330002 0
0.1790123 -0.24413282 -0.37676108 0
0.65205812 -0.17500898 -0.35223174 0
0.75500059 -0.16813648 -0.41050658 0
-0.12353349 -0.18636885 -0.36343738 0
0.10580444 -0.15511155 -0.37156224 0
0.15101147 -0.14964902 -0.35270786 0
0.11483145 -0.043354243 -0.33980626 0
-0.068830967 -0.37998343 -0.25969985 0
0.026401997 -0.37202418 -0.259574 0
0.4815383 -0.28665376 -0.29749447 0
-0.058455229 -0.31501493 -0.24907014 0
0.01966238 -0.28559834 -0.26161617 0
0.6663661 -0.24498549 -0.31219757 0
-0.3975811 -0.48759666 -0.16416693 0
-0.31189752 -0.44241399 -0.1258841 0
-0.0027890205 -0.35289589 -0.21960154 0
-0.035676003 -0.32575679 -0.18497132 0
-0.27975845 -0.45595533 -0.052235886 0
-0.19652843 -0.42689717 -0.072572753 0
-0.18109798 -0.40618408 -0.030941471 0
-0.094337463 -0.38122278 -0.018535569 0
-0.15135813 -0.48749921 0.032128841 0
-0.085980415 -0.48443699 0.049704269 0
-0.17857194 -0.40870422 0.012144059 0
-0.057463169 -0.39018708 0.040547766 0
0.047167778 -0.34082949 0.057750717 0
0.82099009 -0.1417473 0.015811026 0
-0.044056892 -0.47394505 0.079148367 0
0.018479347 -0.47196937 0.097037613 0
0.26891565 -0.47917026 0.11445656 0
-0.046848774 -0.43594569 0.095628269 0
0.04984951 -0.40271437 0.12798542 0
0.10029221 -0.39822412 0.1475403 0
0.20493078 -0.34579861 0.17075546 0
0.076941967 -0.3110972 0.1403307 0
0.19145775 -0.29257882 0.14453983 0
0.92874336 -0.096681446 0.12611152 0
0.97951603 -0.11827701 0.082382783 0
0.82957125 -0.49529389 0.084429063 0
0.27468538 -0.48372713 0.13340217 0
0.81160164 -0.41368794 0.14270639 0
0.15934229 -0.39220679 0.18667632 0
0.25327682 -0.40253067 0.21895692 0
0.33237219 -0.41238245 0.23258278 0
0.13199854 -0.35686398 0.20841503 0
0.24028969 -0.30807427 0.23520738 0
0.36894941 -0.26290169 0.24874596 0
0.3549633 -0.23102644 0.22950165 0
0.49606514 -0.19675359 0.28145283 0
0.37579203 -0.38065422 0.25915635 0
0.46068525 -0.40135926 0.29448748 0
0.33109474 -0.33179441 0.29148364 0
0.45177221 -0.313209 0.34883243 0
0.53786659 -0.34639359 0.34448874 0
0.40200901 -0.25417358 0.3256321 0
0.54328442 -0.19375685 0.34694517 0
0.71063232 -0.12235668 0.40067059 0
0.57087898 -0.30705321 0.37959403 0
0.84232521 -0.27517143 0.43228975 0
0.56056023 -0.22730213 0.41374967 0
0.63823891 -0.23211542 0.44248909 0
0.75412893 -0.13645267 0.45359349 0
0.8642478 -0.30028051 0.47277421 0
0.76275539 -0.2345379 0.49514341 0
0.83068895 -0.23506927 0.53041375 0
0.79066849 -0.15144458 0.51127613 0
