# .PCD v0.7 - Point Cloud Data file format
VERSION 0.7
FIELDS x y z intensity
SIZE 4 4 4 4
TYPE F F F F
COUNT 1 1 1 1
WIDTH 1295
HEIGHT 1
VIEWPOINT 0 0 0 1 0 0 0
POINTS 1295
DATA ascii
0.095236957 0.17268793 -0.36915368 0
0.15585855 0.2291984 -0.36616117 0
0.23197767 0.3137176 -0.36881495 0
0.3028816 0.37027451 -0.37122795 0
0.34313396 0.42168722 -0.36793923 0
0.020362496 0.18889205 -0.36807072 0
0.074595869 0.29868564 -0.36922917 0
0.16286585 0.35925892 -0.3678351 0
0.21166417 0.45446831 -0.3731834 0
0.30517256 0.48420376 -0.36898392 0
-0.11234736 0.21478626 -0.36710232 0
-0.048680559 0.2661598 -0.36980799 0
0.011026114 0.35014611 -0.369234 0
0.058710396 0.44050989 -0.3694756 0
-0.26546654 0.2271046 -0.36783174 0
-0.194757 0.26534897 -0.3692975 0
-0.12741311 0.34465453 -0.36657459 0
-0.058117107 0.42054677 -0.36789683 0
-0.40419286 0.2029113 -0.35912845 0
-0.34054416 0.25627217 -0.36528155 0
-0.26863062 0.32304364 -0.36719909 0
-0.19753152 0.39966264 -0.36854145 0
-0.14130683 0.49393448 -0.36718932 0
-0.5376395 0.19741789 -0.35398811 0
-0.48777002 0.23188248 -0.35567021 0
-0.42706949 0.29844883 -0.35878843 0
-0.35559285 0.38876623 -0.36776581 0
-0.27295849 0.44746059 -0.36533415 0
-0.75231594 0.10972016 -0.33580652 0
-0.69075704 0.16817299 -0.33782178 0
-0.62483823 0.22725168 -0.34885067 0
-0.5678463 0.30263022 -0.35251594 0
-0.51915866 0.3792716 -0.35605916 0
-0.44463784 0.45645118 -0.36153543 0
-0.97049189 0.026612774 -0.32136723 0
-0.89874101 0.081936575 -0.3261753 0
-0.82266676 0.1451588 -0.33604988 0
-0.77236092 0.21816252 -0.33746436 0
-0.70817286 0.30957195 -0.34318697 0
-0.6337682 0.37843415 -0.34427267 0
-0.56788671 0.45613843 -0.34842303 0
-0.97776872 0.13904867 -0.32241142 0
-0.9018513 0.21830541 -0.32676262 0
-0.84372175 0.30664462 -0.33513293 0
-0.76866949 0.36239481 -0.33794841 0
-0.69716966 0.44494659 -0.33871502 0
-0.95569944 0.2735883 -0.32534587 0
-0.89988637 0.35331389 -0.32682103 0
-0.85109991 0.4166761 -0.32871094 0
-0.77241772 0.47808683 -0.33920303 0
-0.9647404 0.28627026 -0.31562507 0
-0.93841255 0.33676276 -0.31508139 0
-0.91257817 0.4574593 -0.32153308 0
0.93332756 -0.49182817 -0.35952845 0
0.87907517 -0.4519504 -0.36169526 0
0.75985992 -0.4556624 -0.36081794 0
0.77313524 -0.38912514 -0.36420703 0
0.62353015 -0.45905125 -0.36212653 0
0.70226872 -0.38471961 -0.36254272 0
0.71542251 -0.31548572 -0.36321095 0
0.54536211 -0.39392036 -0.36379397 0
0.61581928 -0.31279877 -0.36843506 0
0.66108197 -0.24508825 -0.36638966 0
0.45656186 -0.30578575 -0.37045345 0
0.52649921 -0.25731763 -0.36859372 0
0.59165627 -0.1882323 -0.36752823 0
0.65536165 -0.10933675 -0.36780855 0
0.67333162 -0.022592567 -0.37033185 0
0.40291655 -0.27600333 -0.36801675 0
0.46268928 -0.18677415 -0.3690556 0
0.52309072 -0.10390449 -0.36789235 0
0.60247463 -0.073899895 -0.36740384 0
0.64374131 -0.0062355846 -0.36940616 0
0.31560388 -0.20933977 -0.36926481 0
0.38586968 -0.12601212 -0.36763486 0
0.44219136 -0.064815745 -0.36855277 0
0.48124862 0.0085248016 -0.36852238 0
0.18579313 -0.17228203 -0.37089247 0
0.23565739 -0.14023267 -0.37166244 0
0.29723209 -0.063369513 -0.37058598 0
0.34852517 -0.0061374158 -0.3670316 0
0.41389108 0.078297034 -0.36932185 0
0.55642241 0.16626696 -0.37511665 0
0.11659381 -0.13947478 -0.37089616 0
0.17482254 -0.075724207 -0.37089467 0
0.23622933 0.027963053 -0.36830875 0
0.30020785 0.087063789 -0.3688916 0
0.36998332 0.13876264 -0.37139463 0
0.031046301 -0.075206608 -0.37103561 0
0.099759907 -0.010869324 -0.3695558 0
0.16192982 0.07213179 -0.37309813 0
0.20451415 0.15301868 -0.36958691 0
0.29636487 0.20122744 -0.37136999 0
-0.1379168 -0.066284016 -0.36675683 0
-0.065422878 -0.014595876 -0.37294817 0
-0.00038890541 0.056680083 -0.37013575 0
0.075815588 0.10780863 -0.36981156 0
0.13440016 0.21073394 -0.3700822 0
0.19792721 0.27972811 -0.37030491 0
-0.2147409 -0.010740563 -0.37077013 0
-0.12580466 0.039470285 -0.3716923 0
-0.071089759 0.12926862 -0.36975318 0
0.024388045 0.20017624 -0.3724232 0
0.09079203 0.2986446 -0.37367767 0
0.084440976 0.37336743 -0.37197176 0
-0.4032591 -0.050827429 -0.35598874 0
-0.33712208 -0.020710908 -0.36529404 0
-0.25779012 0.065090358 -0.37088141 0
-0.207443 0.11752771 -0.36972153 0
-0.12836182 0.1766692 -0.36892322 0
-0.085303038 0.27748466 -0.37024966 0
-0.013512403 0.319235 -0.37069714 0
0.029730946 0.4362084 -0.37298638 0
-0.47328478 -0.024651024 -0.35703787 0
-0.41176653 0.040239029 -0.36354944 0
-0.34154665 0.079766519 -0.36782861 0
-0.27357176 0.19897643 -0.36918491 0
-0.20617157 0.24035527 -0.36934108 0
-0.14480922 0.31576207 -0.36762068 0
-0.048782438 0.41501784 -0.371382 0
-0.025049284 0.49125031 -0.3727895 0
-0.59085953 -0.062929548 -0.34495434 0
-0.54261577 0.018090049 -0.35502329 0
-0.49821109 0.12583277 -0.35885036 0
-0.42906541 0.16479689 -0.36384636 0
-0.35492092 0.23556608 -0.36824647 0
-0.27862567 0.32683855 -0.36958331 0
-0.22371581 0.41046596 -0.36935699 0
-0.16253754 0.48408249 -0.37118846 0
-0.76420283 -0.055335876 -0.34192106 0
-0.69645321 0.016325533 -0.34870797 0
-0.61753875 0.055138171 -0.34806114 0
-0.57555783 0.16396779 -0.35418889 0
-0.48676205 0.23675847 -0.36026481 0
-0.42560863 0.30969283 -0.36288977 0
-0.36105946 0.40305763 -0.36676207 0
-0.31238145 0.47874612 -0.37102643 0
-0.97190076 -0.098845646 -0.32935548 0
-0.89911503 -0.064783275 -0.33430189 0
-0.83194607 -0.011654593 -0.341003 0
-0.77744532 0.085520588 -0.3448545 0
-0.71398616 0.14607987 -0.34617227 0
-0.63823551 0.20508499 -0.34845763 0
-0.57242846 0.29685202 -0.35403267 0
-0.49833518 0.36383814 -0.36009759 0
-0.44636023 0.46201915 -0.3617087 0
-0.91821516 0.05407628 -0.33602265 0
-0.86384475 0.1319015 -0.34027377 0
-0.76572639 0.2052705 -0.34459987 0
-0.7162137 0.22849603 -0.3500151 0
-0.53363109 0.47978798 -0.36073488 0
0.98654729 -0.46947464 -0.35385504 0
0.88836831 -0.43534625 -0.35481665 0
0.97187799 -0.37130523 -0.35467398 0
0.77276814 -0.42482013 -0.35547537 0
0.79908454 -0.36380637 -0.3568888 0
0.89403439 -0.28781861 -0.35808936 0
0.96443254 -0.22379029 -0.35715511 0
0.8010245 -0.25130862 -0.36185285 0
0.8809427 -0.1676549 -0.35822251 0
0.94082224 -0.10124531 -0.35815549 0
0.7179302 -0.17621431 -0.36340374 0
0.78923529 -0.10713283 -0.36393556 0
0.87958544 -0.050080135 -0.35800076 0
0.93687564 0.040535949 -0.36300406 0
0.98910594 0.10313462 -0.35952353 0
0.64165556 -0.1252999 -0.36217934 0
0.74011743 -0.021741003 -0.36580941 0
0.78529692 0.053251058 -0.36489075 0
0.85402071 0.11174549 -0.36431491 0
0.89921516 0.21645898 -0.36896494 0
0.96006119 0.25719678 -0.36126119 0
0.58664489 -0.031595889 -0.36324045 0
0.66603178 0.058247559 -0.36703622 0
0.71522844 0.1090908 -0.36635154 0
0.76893616 0.20495361 -0.37121418 0
0.82953382 0.26043034 -0.36747172 0
0.90122151 0.34037808 -0.3614316 0
0.50710654 0.024201281 -0.36629426 0
0.6028707 0.099749982 -0.36717907 0
0.63133121 0.17916265 -0.36982647 0
0.71082604 0.24455363 -0.37145948 0
0.77142358 0.30370721 -0.36828271 0
0.81184775 0.40702868 -0.37105265 0
0.87683403 0.45510578 -0.36598733 0
0.48091489 0.088607997 -0.3679198 0
0.52112162 0.15403245 -0.36832994 0
0.54053748 0.21341512 -0.36587232 0
0.61608112 0.30349475 -0.37171313 0
0.68667251 0.38253242 -0.36903828 0
0.77177894 0.46721417 -0.36641812 0
0.41690564 0.22347142 -0.37098968 0
0.46600536 0.29311228 -0.37385279 0
0.52273077 0.36984444 -0.37457484 0
0.5739041 0.44201809 -0.37278828 0
0.24819225 0.18139155 -0.36324021 0
0.2871508 0.26917309 -0.36770129 0
0.35237563 0.31541693 -0.37097979 0
0.43238688 0.4100824 -0.37340331 0
0.50126362 0.4788194 -0.37262407 0
0.23619029 0.29105142 -0.36768159 0
0.26505405 0.38585562 -0.37325558 0
0.31872422 0.46646076 -0.3741824 0
0.14632303 0.32933769 -0.36814767 0
0.19599035 0.39934021 -0.3704581 0
0.22900844 0.49298313 -0.37211844 0
0.059642613 0.34729522 -0.36534238 0
0.11000347 0.42405504 -0.36893141 0
0.13546345 0.47920987 -0.3720364 0
-0.093803823 0.40329251 -0.36680582 0
-0.022578686 0.48074976 -0.37094086 0
-0.20377493 0.49876121 -0.36512938 0
-0.9408794 -0.055536952 -0.32700321 0
-0.84396327 0.027992394 -0.33351749 0
-0.78763509 0.10806243 -0.33782697 0
-0.6395117 0.27178073 -0.34711578 0
-0.56300473 0.30974966 -0.34991118 0
-0.48138455 0.3419475 -0.35225528 0
-0.44115669 0.45829624 -0.35681036 0
-0.99337894 0.005008053 -0.32330894 0
-0.93504453 0.082172677 -0.32978341 0
-0.8388291 0.1752125 -0.33455056 0
-0.77688342 0.24845865 -0.33915064 0
-0.70511389 0.28458804 -0.34075668 0
-0.63995683 0.3563951 -0.34875107 0
-0.60500687 0.44647345 -0.35190499 0
-0.98592103 0.13229975 -0.32054862 0
-0.91579258 0.2202346 -0.33080381 0
-0.83553845 0.29970601 -0.33369827 0
-0.78193319 0.35466194 -0.33755246 0
-0.72638851 0.4396342 -0.34166291 0
-0.65148681 0.49568111 -0.3457655 0
-0.92243814 0.3359082 -0.32770398 0
-0.86756319 0.41784021 -0.33203825 0
-0.99668378 0.41064551 -0.32290849 0
-0.41344813 -0.24052198 -0.36620367 0
-0.3135002 -0.19754495 -0.3720063 0
0.8754195 -0.48383641 -0.34705523 0
0.9543618 -0.40340871 -0.34798729 0
0.74696034 -0.48554277 -0.35384756 0
0.81288624 -0.39414352 -0.35410106 0
0.85360312 -0.31862479 -0.35559845 0
0.94404495 -0.27307618 -0.3501302 0
0.60014302 -0.48693529 -0.35592854 0
0.70139211 -0.41389465 -0.35469261 0
0.7543453 -0.33590421 -0.35537213 0
0.79413128 -0.26645684 -0.35521695 0
0.8729139 -0.19022533 -0.35180816 0
0.97710603 -0.11356048 -0.34881073 0
0.51766133 -0.43867922 -0.35616967 0
0.59973782 -0.36274558 -0.35704657 0
0.64732367 -0.271934 -0.35874286 0
0.72255743 -0.19362161 -0.35815886 0
0.7623837 -0.12667952 -0.3570053 0
0.83384341 -0.044458576 -0.35611793 0
0.90166444 -0.013423651 -0.35689601 0
0.99359906 0.070891418 -0.35248971 0
0.36795908 -0.46000698 -0.35922611 0
0.43706223 -0.36663273 -0.35889471 0
0.49828839 -0.29346716 -0.35881799 0
0.56812 -0.23222455 -0.35840994 0
0.65133309 -0.13693696 -0.35857949 0
0.71215367 -0.053988397 -0.3570388 0
0.77318841 -0.031531855 -0.35748911 0
0.83571243 0.080482833 -0.35605156 0
0.90851092 0.1165549 -0.35752064 0
0.95704162 0.21789145 -0.35776725 0
0.2526558 -0.46535981 -0.36146918 0
0.29430768 -0.35878289 -0.3633031 0
0.36541879 -0.2999768 -0.36120209 0
0.42119625 -0.21922266 -0.35946921 0
0.50114739 -0.16200721 -0.36131859 0
0.57233572 -0.077981874 -0.35902101 0
0.6242379 -0.019798756 -0.35789999 0
0.67828596 0.050167635 -0.36008337 0
0.73320663 0.14126223 -0.36211869 0
0.81232166 0.20097616 -0.35971791 0
0.87452388 0.28765696 -0.3589285 0
0.94201243 0.36720762 -0.35875019 0
0.10352445 -0.47986296 -0.35959852 0
0.17581436 -0.38161361 -0.36288965 0
0.22699691 -0.33315957 -0.36377001 0
0.28313938 -0.23811883 -0.36500606 0
0.37366498 -0.17644219 -0.3582181 0
0.4350495 -0.093958929 -0.36157721 0
0.49114409 -0.016118534 -0.36068076 0
0.55421603 0.03733623 -0.36001289 0
0.58686626 0.1320996 -0.36432627 0
0.66958517 0.1882292 -0.36264044 0
0.74390638 0.26081491 -0.36202434 0
0.80884397 0.33801544 -0.35949135 0
0.87394768 0.40695098 -0.35655576 0
0.019270971 -0.46418452 -0.35785428 0
0.032940373 -0.39217892 -0.3623375 0
0.099281356 -0.32177946 -0.36426952 0
0.16369739 -0.2456236 -0.36310071 0
0.22500922 -0.16241446 -0.36243942 0
0.2968477 -0.09543328 -0.36551496 0
0.358293 -0.0037443414 -0.3657926 0
0.41359991 0.024292376 -0.35902476 0
0.48732781 0.13443759 -0.36156183 0
0.5607748 0.26296014 -0.36367166 0
0.60718668 0.29409611 -0.36766392 0
0.67295581 0.31590462 -0.36355668 0
0.73201579 0.39602926 -0.3607485 0
0.79308081 0.4814097 -0.36062795 0
-0.08770448 -0.40016258 -0.36044759 0
-0.03265518 -0.33531493 -0.3653582 0
0.027894422 -0.26204118 -0.36351007 0
0.087931603 -0.19165504 -0.36448613 0
0.15780106 -0.097790353 -0.36587 0
0.2145519 -0.011827659 -0.36601266 0
0.26808316 0.038736816 -0.36410996 0
0.36325288 0.11301127 -0.36149618 0
0.41537032 0.22265369 -0.36137506 0
0.48535189 0.3054944 -0.36313799 0
0.51140237 0.32031375 -0.36939982 0
0.58365995 0.44455975 -0.36517924 0
0.66448188 0.47875512 -0.36022961 0
-0.19782367 -0.32621381 -0.36301565 0
-0.12246446 -0.26910642 -0.36425424 0
-0.060270712 -0.20497893 -0.36502406 0
0.014823169 -0.11671264 -0.36420119 0
0.070439845 -0.031322498 -0.36636004 0
0.12157039 0.015657367 -0.36200577 0
0.20207071 0.11994877 -0.36431035 0
0.29723126 0.1862337 -0.36581594 0
0.33453238 0.28795204 -0.36562508 0
0.41219059 0.33808097 -0.36142686 0
0.47972938 0.4340446 -0.36397213 0
0.5367825 0.48452455 -0.36774874 0
-0.32445145 -0.30427912 -0.36093378 0
-0.26251101 -0.26993594 -0.36532137 0
-0.20636204 -0.20246664 -0.36266053 0
-0.14062247 -0.11152827 -0.36431029 0
-0.059168115 -0.061694354 -0.36373267 0
-0.031416371 0.026464798 -0.36383289 0
0.048093349 0.10023515 -0.36328501 0
0.13967922 0.17058422 -0.36379761 0
0.21325579 0.25496435 -0.36475596 0
0.26191336 0.32178092 -0.36486989 0
0.30922851 0.41224721 -0.36541882 0
0.39786315 0.48049206 -0.36437991 0
-0.40792722 -0.28098428 -0.35639387 0
-0.31685221 -0.21176225 -0.36000898 0
-0.26095331 -0.12766036 -0.36137757 0
-0.20382154 -0.047917038 -0.36012867 0
-0.13436815 -0.0041170032 -0.36026177 0
-0.077254102 0.10668608 -0.36577111 0
-0.026817277 0.17581223 -0.36333653 0
0.037278056 0.23390277 -0.36266208 0
0.12486076 0.29206178 -0.36374289 0
0.16878355 0.39376825 -0.36478421 0
0.22871554 0.45046276 -0.3651633 0
-0.54026687 -0.28205082 -0.34988117 0
-0.4731738 -0.22777811 -0.35398057 0
-0.40909544 -0.15742078 -0.35857296 0
-0.36638612 -0.083771035 -0.36174515 0
-0.29154608 0.0048868801 -0.36239967 0
-0.1989117 0.078973934 -0.36138093 0
-0.14396331 0.13933372 -0.36375713 0
-0.10004887 0.22553571 -0.36159575 0
-0.023622572 0.31071413 -0.36371192 0
0.053823888 0.37907797 -0.3658146 0
0.12713784 0.49410066 -0.36456147 0
-0.67877555 -0.30552435 -0.33794796 0
-0.61504453 -0.23923077 -0.34574056 0
-0.54801142 -0.15101792 -0.34961307 0
-0.48146605 -0.10561432 -0.35005671 0
-0.43170911 0.00056254212 -0.35444376 0
-0.35566252 0.078214206 -0.36079651 0
-0.30165488 0.13912942 -0.35989329 0
-0.23360702 0.20652936 -0.36406389 0
-0.15737635 0.29521638 -0.36382803 0
-0.10277006 0.36977807 -0.36050692 0
-0.032938898 0.43773624 -0.36159417 0
-0.9076215 -0.33535129 -0.31915489 0
-0.82613945 -0.29225084 -0.33045065 0
-0.7620728 -0.23459052 -0.33986336 0
-0.6993407 -0.16003388 -0.34324637 0
-0.64399701 -0.098981276 -0.34183893 0
-0.5667038 -0.013269475 -0.34865767 0
-0.50523436 0.079833448 -0.34938988 0
-0.43426833 0.14083117 -0.35214406 0
-0.39351195 0.21030951 -0.35530922 0
-0.32403293 0.27392301 -0.36164087 0
-0.24501497 0.34468651 -0.36334157 0
-0.19591272 0.44169092 -0.35941961 0
-0.96948457 -0.33871663 -0.31473431 0
-0.90717125 -0.24656588 -0.32415622 0
-0.83676201 -0.16454771 -0.33028325 0
-0.75955015 -0.11036302 -0.33697724 0
-0.71621519 -0.013438679 -0.33985862 0
-0.64265877 0.047689579 -0.34244204 0
-0.58027411 0.11001685 -0.34202161 0
-0.53450882 0.18738034 -0.35299212 0
-0.46161723 0.30185649 -0.35192496 0
-0.38509956 0.35737351 -0.35682875 0
-0.30759063 0.41691592 -0.36196107 0
-0.27103272 0.49954113 -0.36155394 0
-0.99251461 -0.18354282 -0.31801417 0
-0.93658257 -0.11269704 -0.32286456 0
-0.8556149 -0.023939781 -0.33202198 0
-0.7817511 0.041919753 -0.33502427 0
-0.71209836 0.12173694 -0.34003499 0
-0.64524603 0.20216359 -0.34329778 0
-0.5806154 0.28548783 -0.34697855 0
-0.52866215 0.34452 -0.3502543 0
-0.45421112 0.44258133 -0.35144684 0
-0.99132597 -0.041819897 -0.31668341 0
-0.92747045 0.029492248 -0.3226431 0
-0.86085975 0.098999664 -0.32622743 0
-0.79714268 0.167804 -0.33436939 0
-0.72785997 0.23655652 -0.33526248 0
-0.66440928 0.3173756 -0.34031656 0
-0.58671427 0.3963013 -0.34285405 0
-0.94338578 0.17490253 -0.31812447 0
-0.87587667 0.26105997 -0.32404134 0
-0.78392243 0.30746153 -0.32886925 0
-0.71302092 0.39613155 -0.33632985 0
-0.68060297 0.47462174 -0.33779904 0
-0.96287334 0.29320168 -0.31440252 0
-0.86992407 0.38988411 -0.32410797 0
-0.79603291 0.4601993 -0.32825622 0
-0.96441996 0.46458474 -0.31337234 0
-0.86728066 0.49633515 -0.32395318 0
0.91876829 0.35621217 -0.35247999 0
0.054632515 -0.4357928 -0.36682555 0
-0.082261577 -0.46098942 -0.36535108 0
-0.022006109 -0.39963561 -0.36782035 0
-0.22699064 -0.47882175 -0.36349323 0
-0.15094429 -0.41576707 -0.36442396 0
-0.10305114 -0.31320786 -0.36654702 0
-0.33607936 -0.44403988 -0.35988581 0
-0.29352608 -0.3958374 -0.36483169 0
-0.23451675 -0.33780277 -0.36688319 0
-0.17221157 -0.25954023 -0.36811188 0
-0.43370312 -0.38227281 -0.3625707 0
-0.37931857 -0.34902167 -0.3628554 0
-0.3072722 -0.26646045 -0.36729842 0
-0.25848624 -0.19062895 -0.36668092 0
-0.16718134 -0.1563696 -0.37019181 0
-0.50243455 -0.36041552 -0.35633746 0
-0.43984291 -0.29399168 -0.36126328 0
-0.39073434 -0.21305455 -0.36259791 0
-0.31272197 -0.10574666 -0.36695668 0
-0.64962697 -0.36600712 -0.3484177 0
-0.58587837 -0.29326731 -0.35325462 0
-0.5208739 -0.21622297 -0.35487136 0
-0.44930983 -0.1576809 -0.35831532 0
-0.40632719 -0.10387462 -0.36338446 0
-0.34043819 -0.028600667 -0.36517757 0
-0.79836667 -0.3607128 -0.34008035 0
-0.73529637 -0.30422455 -0.34563431 0
-0.6857481 -0.21386653 -0.34986085 0
-0.60399216 -0.16099709 -0.35000136 0
-0.50289375 -0.076519936 -0.3553803 0
-0.46255627 -0.025674926 -0.36166623 0
-0.93061954 -0.39017975 -0.32391062 0
-0.87057996 -0.31070361 -0.33328965 0
-0.81143332 -0.23118754 -0.34162968 0
-0.73983592 -0.16614009 -0.34674063 0
-0.6664477 -0.091697454 -0.3471989 0
-0.49177182 0.12776777 -0.36698472 0
-0.94838446 -0.23684092 -0.33060944 0
-0.88118255 -0.18592814 -0.33419374 0
-0.82766455 -0.11641038 -0.33943105 0
-0.79311067 -0.029092167 -0.34424669 0
-0.91779852 -0.11615158 -0.3335999 0
0.9755646 -0.47697994 -0.34920508 0
0.79723895 -0.49958989 -0.35416061 0
0.85058057 -0.44480538 -0.35140812 0
0.90527809 -0.37470615 -0.35409614 0
0.97315985 -0.32080951 -0.34881273 0
0.70323557 -0.48441756 -0.35490447 0
0.76871204 -0.3703967 -0.35548595 0
0.84352195 -0.30295205 -0.35471302 0
0.91621375 -0.24654 -0.35148337 0
0.96521115 -0.1480732 -0.35047272 0
0.56247783 -0.47968537 -0.35642749 0
0.61833358 -0.40439624 -0.36093003 0
0.67613351 -0.31994343 -0.35967395 0
0.76336038 -0.23957574 -0.35719261 0
0.84118515 -0.15126508 -0.35566598 0
0.9064253 -0.066503026 -0.35541791 0
0.96337193 0.019111045 -0.3506968 0
0.41865158 -0.49460116 -0.36396059 0
0.47677016 -0.43034419 -0.35986134 0
0.54172736 -0.32747635 -0.36222753 0
0.62996078 -0.27503645 -0.35769343 0
0.67771649 -0.17258775 -0.36053783 0
0.68553632 -0.11448164 -0.36246681 0
0.75564688 -0.032631509 -0.36424065 0
0.83179528 0.018970102 -0.35812089 0
0.92082369 0.087423593 -0.3571066 0
0.99435806 0.16906181 -0.35729912 0
0.34567022 -0.43504816 -0.36348957 0
0.40758336 -0.36728084 -0.36285701 0
0.47287211 -0.26605338 -0.36283991 0
0.54531968 -0.23009896 -0.35979044 0
0.5782668 -0.14132516 -0.36076862 0
0.63763154 -0.06878303 -0.36338395 0
0.73650742 0.015588574 -0.35969189 0
0.7587142 0.090665229 -0.35897774 0
0.86899257 0.15414694 -0.36110565 0
0.93593669 0.22311801 -0.35628596 0
0.1872586 -0.43368143 -0.36721024 0
0.24948353 -0.37622285 -0.36391541 0
0.3350828 -0.29176143 -0.36518294 0
0.39454094 -0.18697286 -0.36662015 0
0.45957923 -0.13866141 -0.36479649 0
0.50729847 -0.043885235 -0.36162296 0
0.57038879 -0.014597945 -0.36310622 0
0.63687515 0.071965843 -0.36410356 0
0.72659606 0.11738438 -0.35857886 0
0.80306476 0.21855232 -0.36183241 0
0.85647303 0.32698843 -0.36337364 0
0.93861902 0.4278667 -0.36040628 0
0.060927689 -0.45003414 -0.36474782 0
0.1226885 -0.38707116 -0.36482841 0
0.16331343 -0.28267115 -0.36775252 0
0.24803452 -0.22561088 -0.3659339 0
0.33389053 -0.14826767 -0.36523011 0
0.36365783 -0.066616073 -0.36484838 0
0.42588836 -0.0064836107 -0.36424717 0
0.46667814 0.070782587 -0.36437926 0
0.56819201 0.1243842 -0.36371413 0
0.6475991 0.21927649 -0.36689153 0
0.729599 0.29576308 -0.36484885 0
0.78472275 0.38749743 -0.36303777 0
0.86611187 0.48255989 -0.3583788 0
-0.064426586 -0.47124013 -0.35775313 0
-0.011912599 -0.33103222 -0.36687213 0
0.049182326 -0.3185221 -0.36773506 0
0.10787481 -0.25243977 -0.36656317 0
0.16437282 -0.15040646 -0.36836675 0
0.25016174 -0.076003022 -0.36830732 0
0.28602815 -0.023061261 -0.36262473 0
0.36311996 0.031104743 -0.36264199 0
0.39664119 0.12539691 -0.3653405 0
0.49015397 0.1941476 -0.36627635 0
0.55835342 0.28803554 -0.36695406 0
0.6359989 0.38721132 -0.36862418 0
0.71055847 0.44900352 -0.36332259 0
-0.034571484 -0.32526743 -0.36537987 0
-0.031201288 -0.25342354 -0.36525026 0
0.033798829 -0.16751987 -0.36801866 0
0.099128395 -0.11285152 -0.36925459 0
0.16908817 -0.022307485 -0.36858535 0
0.22326398 0.062761053 -0.36474344 0
0.30849177 0.13006429 -0.36474264 0
0.41855419 0.24236669 -0.36577943 0
0.4732601 0.35826826 -0.36903572 0
0.52960312 0.48498824 -0.37296724 0
-0.11011199 -0.17609805 -0.36700925 0
-0.043530971 -0.11558731 -0.36638278 0
0.022379935 -0.026821284 -0.36975449 0
0.087299362 0.040811129 -0.3662208 0
0.16295841 0.12125596 -0.36561659 0
0.24968386 0.22605231 -0.36615562 0
0.28184998 0.32943201 -0.36533237 0
0.33652866 0.30735171 -0.36798602 0
0.39649242 0.4101218 -0.36901018 0
-0.1806355 -0.19411807 -0.36144292 0
-0.16531932 -0.10350551 -0.36585635 0
-0.11487623 -0.022905022 -0.36598587 0
-0.040203691 0.038872898 -0.36633158 0
0.027741149 0.11016296 -0.36498129 0
0.085833639 0.22022136 -0.36616522 0
0.17178404 0.27574605 -0.36672732 0
0.20872536 0.37090999 -0.36486247 0
0.2977252 0.46072584 -0.36645377 0
0.33763438 0.44848254 -0.36908576 0
-0.26583567 -0.063981272 -0.36452931 0
-0.18810819 0.026799655 -0.36636263 0
-0.11090952 0.11592377 -0.36504439 0
-0.049882054 0.15784058 -0.3663193 0
-0.0081589371 0.26774001 -0.36551607 0
0.075627476 0.32010269 -0.36472335 0
0.13641077 0.42092115 -0.36670062 0
-0.38706914 -0.036411677 -0.35924029 0
-0.33969602 0.05778842 -0.36677539 0
-0.27631134 0.082195774 -0.36584109 0
-0.20295154 0.17020424 -0.36245182 0
-0.13808385 0.24373387 -0.36322829 0
-0.083748311 0.29963979 -0.36430433 0
-0.032228023 0.39256036 -0.36790708 0
0.025635868 0.49930194 -0.37041038 0
-0.5916431 -0.12797688 -0.34558463 0
-0.55247939 -0.080533668 -0.35059857 0
-0.49689347 -0.022676414 -0.35227105 0
-0.39922804 0.071053587 -0.35924545 0
-0.33460486 0.097016096 -0.36050299 0
-0.30655909 0.24643622 -0.36702177 0
-0.2427725 0.32502484 -0.36496595 0
-0.16457221 0.40261623 -0.36724839 0
-0.090326846 0.4112038 -0.36591256 0
-0.93948591 -0.35095912 -0.3199394 0
-0.72615767 -0.15685856 -0.33797076 0
-0.70998967 -0.074478321 -0.34084538 0
-0.58633441 -0.026334738 -0.34447765 0
-0.56147552 0.071410373 -0.35061759 0
-0.47072065 0.15141059 -0.35924524 0
-0.42298228 0.23118846 -0.36083746 0
-0.33181059 0.28903571 -0.36076203 0
-0.29371732 0.39293483 -0.36423114 0
-0.21793512 0.46202582 -0.36450991 0
-0.94340426 -0.27651638 -0.32345909 0
-0.81138361 -0.07296218 -0.33517608 0
-0.76123452 0.011152171 -0.33994266 0
-0.67885834 0.037677437 -0.34287196 0
-0.62475568 0.1623117 -0.34943801 0
-0.5415436 0.19010404 -0.34924635 0
-0.49296865 0.32911414 -0.35511974 0
-0.41841888 0.36144701 -0.36111087 0
-0.37226939 0.40361378 -0.36018893 0
-0.32151559 0.49643216 -0.36286771 0
-0.94722962 -0.09804441 -0.32631111 0
-0.8928026 -0.026917432 -0.3317996 0
-0.82498598 0.030936971 -0.33292776 0
-0.75143135 0.10665568 -0.33725774 0
-0.72072148 0.21218231 -0.33944538 0
-0.62934661 0.25492486 -0.34931815 0
-0.57751191 0.36706516 -0.34966141 0
-0.5109545 0.41991076 -0.35210839 0
-0.96746898 0.025845058 -0.32091057 0
-0.90097195 0.099950947 -0.32589382 0
-0.82876801 0.21316625 -0.33449006 0
-0.72256917 0.33232224 -0.33958513 0
-0.64245057 0.39109758 -0.34341428 0
-0.97010517 0.18209222 -0.32047248 0
-0.92105842 0.26461318 -0.32705575 0
-0.84791571 0.32343778 -0.33048376 0
-0.79832649 0.41524389 -0.33208451 0
-0.7288872 0.48357657 -0.33684441 0
-0.99646437 0.30203354 -0.31812379 0
-0.93243617 0.40217882 -0.3221221 0
-0.85049331 0.4829073 -0.32376003 0
-0.99722481 0.44825208 -0.30950648 0
0.18971035 -0.4522135 -0.37453628 0
0.27648067 -0.46628463 -0.37337661 0
0.36400768 -0.44578472 -0.37219304 0
0.42122653 -0.43263227 -0.37301728 0
0.052493602 -0.34584197 -0.37694353 0
0.14399126 -0.38060611 -0.37430796 0
0.23672175 -0.38195172 -0.37313682 0
0.34171918 -0.35649189 -0.37478468 0
-0.049074799 -0.28722399 -0.37446234 0
0.041877836 -0.26218978 -0.37919289 0
0.14189 -0.25974867 -0.37613851 0
0.24663535 -0.26523721 -0.37601939 0
0.32135183 -0.26477951 -0.37525907 0
-0.47428718 -0.17116658 -0.35986176 0
-0.25750577 -0.18685235 -0.3762911 0
-0.15392542 -0.18358473 -0.37671584 0
-0.036003619 -0.19329284 -0.37718725 0
0.044413552 -0.17047869 -0.37661812 0
0.13897853 -0.15709351 -0.37690657 0
0.24259162 -0.1581113 -0.37668258 0
0.31341898 -0.16049719 -0.37810171 0
-0.94839776 -0.13104305 -0.3383764 0
-0.87447518 -0.11169229 -0.34617871 0
-0.77473962 -0.12667669 -0.34916994 0
-0.64629197 -0.09948051 -0.35740015 0
-0.55761027 -0.12195574 -0.35904634 0
-0.45787868 -0.10295784 -0.36699513 0
-0.37059793 -0.11506671 -0.37369156 0
-0.27074602 -0.082493439 -0.37664512 0
-0.16798747 -0.079304934 -0.37764266 0
-0.069244698 -0.071027711 -0.37801713 0
0.02382648 -0.066864759 -0.37546411 0
0.11556695 -0.068901211 -0.37805259 0
0.20940876 -0.10140482 -0.37505838 0
0.28923315 -0.049027037 -0.37972715 0
-0.96873611 -0.068732999 -0.33252025 0
-0.86827743 -0.034398962 -0.34348655 0
-0.76758254 -0.035070807 -0.35183609 0
-0.68736279 -0.03663129 -0.35485661 0
-0.58379877 -0.019030903 -0.36066622 0
-0.4656083 -0.0021209121 -0.36483908 0
-0.36376143 0.0040243827 -0.37281018 0
-0.26951596 0.0060263211 -0.37494645 0
-0.17803939 0.01991008 -0.37566319 0
-0.07820119 0.025415093 -0.37767804 0
0.022887707 0.0084584076 -0.37430805 0
0.12950295 0.041038524 -0.3768369 0
-0.97656715 0.06264443 -0.3321324 0
-0.89046967 0.059250511 -0.33719525 0
-0.78880048 0.067900576 -0.34910873 0
-0.68176371 0.07887128 -0.35207659 0
-0.59401608 0.073108308 -0.36140963 0
-0.49020675 0.10378365 -0.36693364 0
-0.37331036 0.11069871 -0.37389541 0
-0.26762399 0.08910919 -0.37469116 0
-0.16732672 0.11923912 -0.37348521 0
-0.081126347 0.1164081 -0.37690493 0
0.014186293 0.12727611 -0.37650341 0
0.10147053 0.16724457 -0.38140684 0
-0.96669155 0.14482443 -0.32795957 0
-0.89094663 0.16882829 -0.33979958 0
-0.79050761 0.1749593 -0.3463667 0
-0.68289179 0.18019783 -0.35333934 0
-0.58103156 0.17494248 -0.36253855 0
-0.48119816 0.16854833 -0.36626348 0
-0.37693542 0.18725869 -0.36966971 0
-0.29194322 0.21424 -0.37644565 0
-0.18796919 0.22333156 -0.37207383 0
-0.091569558 0.21763155 -0.37675479 0
0.0080753565 0.20476426 -0.37856543 0
0.092317492 0.2550391 -0.38142309 0
-0.9560678 0.24684712 -0.33296451 0
-0.89658034 0.24567087 -0.33580503 0
-0.78458476 0.26090088 -0.34464815 0
-0.69734752 0.28251356 -0.35350201 0
-0.5858891 0.26739746 -0.36150089 0
-0.48590463 0.27486667 -0.36639857 0
-0.40910575 0.31132966 -0.3687484 0
-0.28972113 0.31585073 -0.37386617 0
-0.19863285 0.31922394 -0.3712796 0
-0.10792202 0.29744542 -0.37743419 0
-0.90939748 0.36686161 -0.34239602 0
-0.79731482 0.36905512 -0.34389365 0
-0.71085024 0.37589765 -0.35109526 0
-0.60117149 0.36987466 -0.35674483 0
-0.50184846 0.39029467 -0.36225563 0
-0.38919979 0.40005299 -0.37209105 0
-0.31105441 0.42313805 -0.37752062 0
-0.19008806 0.43269074 -0.37563112 0
-0.091627225 0.4363603 -0.37826148 0
-0.87836033 0.41874373 -0.33924431 0
-0.83738911 0.42728102 -0.34296036 0
-0.71849406 0.43949553 -0.35152122 0
-0.58776331 0.48113263 -0.3580561 0
0.96326947 -0.4977991 -0.35770905 0
0.37107521 -0.41806379 -0.36603996 0
0.47450566 -0.45594534 -0.37024269 0
0.54508877 -0.4308596 -0.36877206 0
0.6626029 -0.4356578 -0.36604419 0
0.75952184 -0.42083973 -0.36597145 0
0.8517949 -0.4118143 -0.36528397 0
0.97547174 -0.40346566 -0.35914353 0
0.27632999 -0.33965236 -0.36693001 0
0.3640908 -0.34371406 -0.37056488 0
0.43968475 -0.3487291 -0.37360549 0
0.56176126 -0.33280778 -0.37168759 0
0.66712755 -0.32579124 -0.36898553 0
0.75364584 -0.32790124 -0.36740494 0
0.84805596 -0.32364422 -0.36443955 0
0.91956764 -0.28247023 -0.36306638 0
0.36076635 -0.2142837 -0.37417811 0
0.43305647 -0.24100293 -0.37340754 0
0.53428161 -0.2374928 -0.37097657 0
0.64085352 -0.25078011 -0.36906439 0
0.7493763 -0.22780463 -0.36811739 0
0.85345161 -0.2055164 -0.36245126 0
0.95605707 -0.20447648 -0.35888919 0
0.34072298 -0.15335397 -0.37466633 0
0.46255088 -0.14699054 -0.3739391 0
0.54395223 -0.12973556 -0.37287894 0
0.64208341 -0.13826071 -0.37102142 0
0.74626839 -0.11126055 -0.36788049 0
0.84933841 -0.10233726 -0.36520678 0
0.96691173 -0.080379076 -0.35982782 0
0.15418389 -0.083794549 -0.37118408 0
0.24503078 -0.043577347 -0.37435383 0
0.33355355 -0.04388053 -0.37608379 0
0.42596608 -0.039293021 -0.37472573 0
0.52157807 -0.027135871 -0.37234375 0
0.60132325 -0.018014677 -0.3771992 0
0.70808542 -0.028176263 -0.36895084 0
0.80753142 -0.0099845752 -0.36647326 0
0.91349965 0.011641391 -0.36835897 0
0.142088 0.0080452412 -0.37140352 0
0.21777582 0.061578698 -0.37414098 0
0.32444906 0.062225148 -0.37587947 0
0.38747811 0.043480705 -0.37696838 0
0.50640148 0.045995247 -0.37357774 0
0.62592399 0.06432128 -0.37352312 0
0.736408 0.070709005 -0.36907074 0
0.8615737 0.070347331 -0.36901686 0
0.95794177 0.094493799 -0.3610785 0
0.12343267 0.11339322 -0.37297833 0
0.23889911 0.13602611 -0.37497175 0
0.32860196 0.17650381 -0.37352231 0
0.40793505 0.12966664 -0.37546879 0
0.53224504 0.13951665 -0.37315795 0
0.63706183 0.18121442 -0.37442169 0
0.7259419 0.17442948 -0.37209427 0
0.82429385 0.16169187 -0.36944571 0
0.89875823 0.18934739 -0.36948445 0
-0.99286836 0.14670584 -0.32003668 0
-0.84307861 0.21374571 -0.33285788 0
0.015314817 0.26661444 -0.37530568 0
0.12325379 0.223561 -0.37151384 0
0.20005003 0.24085918 -0.37539876 0
0.27869117 0.22530115 -0.37688658 0
0.41217774 0.24383214 -0.3764849 0
0.5168767 0.27862403 -0.37506971 0
0.61032367 0.26501125 -0.37492052 0
0.68506914 0.25762433 -0.37360767 0
0.81737685 0.2636176 -0.36784172 0
0.94513547 0.29862177 -0.36741015 0
-0.92778599 0.30559132 -0.33022371 0
-0.10557753 0.30008063 -0.37020516 0
-0.041411132 0.28769788 -0.37376907 0
0.083794236 0.33437949 -0.37556738 0
0.23542616 0.36058971 -0.37665358 0
0.31030247 0.30876744 -0.37557608 0
0.41302246 0.35432124 -0.3753767 0
0.50929397 0.40375686 -0.37576869 0
0.57779491 0.35752174 -0.37676772 0
0.70778102 0.39821535 -0.37668923 0
0.7969262 0.39961842 -0.37080163 0
0.87573773 0.37904584 -0.37046826 0
-0.98577696 0.36084542 -0.32690296 0
-0.88072038 0.35759559 -0.33508494 0
-0.11962438 0.41430914 -0.37142906 0
-0.0010814965 0.40362436 -0.37523058 0
0.0925726 0.43156409 -0.37452886 0
0.18455493 0.42477548 -0.3759861 0
0.29515642 0.45114127 -0.37961331 0
0.41557708 0.46287537 -0.37448096 0
0.44902363 0.45351678 -0.37734115 0
0.60205162 0.48321366 -0.37687436 0
0.69190991 0.47212297 -0.37298742 0
0.76004088 0.48120278 -0.37037158 0
-0.99514604 0.4647238 -0.32405117 0
-0.89333135 0.49108011 -0.33369899 0
-0.83596623 0.49720368 -0.33774552 0
0.51544106 -0.43302244 -0.3693783 0
0.61535537 -0.43407017 -0.36541596 0
0.72334564 -0.43537894 -0.36472216 0
0.79655957 -0.4090848 -0.36538175 0
0.90583801 -0.42489108 -0.35955742 0
0.99649072 -0.40001202 -0.3608512 0
0.40004399 -0.32569897 -0.37298819 0
0.49234572 -0.34338334 -0.37243021 0
0.59797913 -0.33544093 -0.37089634 0
0.69347656 -0.33132139 -0.36696562 0
0.79160863 -0.31114975 -0.36793935 0
0.89422011 -0.31292564 -0.36157858 0
0.98253751 -0.29636157 -0.36028522 0
0.21784361 -0.23099881 -0.37556818 0
0.29518569 -0.25889128 -0.37477475 0
0.3936516 -0.2423594 -0.37398377 0
0.48723465 -0.22524339 -0.3750048 0
0.59130502 -0.24514638 -0.36937186 0
0.69006079 -0.21870966 -0.37219119 0
0.78779614 -0.20895815 -0.37020081 0
0.90961951 -0.22318923 -0.36147982 0
0.98931235 -0.16460547 -0.3638452 0
-0.017280281 -0.12690319 -0.37657407 0
0.091605067 -0.16404811 -0.3732233 0
0.1773131 -0.15335901 -0.37898558 0
0.28408951 -0.15544984 -0.37524492 0
0.3903133 -0.1408653 -0.37598699 0
0.47241342 -0.12248871 -0.3769564 0
0.57629102 -0.12921083 -0.37131104 0
0.66243255 -0.12576059 -0.37291113 0
0.78431237 -0.10665021 -0.37163809 0
0.88495755 -0.10721046 -0.36564898 0
0.97252065 -0.12426713 -0.36165994 0
-0.9139263 -0.15301912 -0.33743891 0
-0.83311027 -0.10487871 -0.34770173 0
-0.72207785 -0.10652795 -0.34954455 0
-0.57852662 -0.085406102 -0.35670236 0
-0.51451433 -0.085050792 -0.35895094 0
-0.45376804 -0.07141193 -0.36416042 0
-0.29288769 -0.062675133 -0.37440041 0
-0.22432414 -0.066618718 -0.37349167 0
-0.12249839 -0.10342591 -0.37469125 0
-0.027353466 -0.073839277 -0.37840524 0
0.079310566 -0.05468408 -0.37686378 0
0.18742886 -0.069718279 -0.37402463 0
0.28908277 -0.032567456 -0.37431937 0
0.36587676 -0.050769873 -0.37542838 0
0.47035429 -0.045305721 -0.37344897 0
0.58625454 -0.021713264 -0.37122357 0
0.67437005 -0.031530306 -0.37494507 0
0.75665641 -0.0042151958 -0.37199384 0
0.87547505 -0.020785876 -0.36699319 0
0.99821937 -0.0054368973 -0.36518922 0
-0.93084466 -0.051835392 -0.33778167 0
-0.84301621 -0.03605552 -0.34629983 0
-0.73889011 -0.029159624 -0.3493906 0
-0.63715804 -0.014845438 -0.35596284 0
-0.52077913 -0.015387831 -0.36440429 0
-0.41610238 -0.0096425014 -0.37041155 0
-0.32240066 -0.00056937709 -0.37436011 0
-0.22071941 -0.0027337302 -0.37241331 0
-0.12477044 0.0022487631 -0.37699097 0
-0.024590746 0.029036807 -0.37530893 0
0.0733805 0.02683644 -0.37690526 0
0.16608028 0.044376764 -0.37611592 0
0.26001033 0.056342088 -0.37257987 0
0.36875665 0.054956298 -0.37403271 0
0.47383475 0.061770551 -0.37478387 0
0.55872118 0.071372747 -0.37432215 0
0.66602772 0.067795202 -0.37426981 0
0.76021886 0.089891471 -0.37250537 0
0.89722484 0.091692522 -0.36845332 0
0.93434405 0.067868613 -0.3696892 0
-0.94710106 0.058624059 -0.33498892 0
-0.83935964 0.057384741 -0.34170738 0
-0.74798286 0.089706272 -0.34694445 0
-0.63366061 0.087092839 -0.3540453 0
-0.53873432 0.075305834 -0.35940701 0
-0.44269758 0.070677251 -0.36748841 0
-0.34451565 0.091272421 -0.37235624 0
-0.23039076 0.10020462 -0.375424 0
-0.13837183 0.1245606 -0.37707385 0
-0.036319345 0.1187059 -0.37526628 0
0.051517591 0.14499205 -0.37765476 0
0.16431117 0.16206498 -0.37729856 0
0.25379413 0.15991685 -0.37295932 0
0.3561857 0.14065748 -0.37262341 0
0.45653781 0.17055355 -0.37659389 0
0.55235088 0.13545123 -0.37392896 0
0.66173774 0.17188647 -0.37630725 0
0.78074384 0.20012704 -0.3738462 0
0.93214589 0.21134448 -0.37276641 0
-0.92827094 0.14219438 -0.3328065 0
-0.82014334 0.17270616 -0.34156051 0
-0.74585414 0.18664193 -0.34753501 0
-0.65033627 0.18870871 -0.35272595 0
-0.53522909 0.17105326 -0.36197338 0
-0.43776354 0.16813189 -0.36765409 0
-0.34361392 0.18854675 -0.3759712 0
-0.23142602 0.21286397 -0.37518689 0
-0.092707485 0.20401026 -0.37627217 0
-0.026369691 0.21889161 -0.37524432 0
0.073352396 0.22605546 -0.37501508 0
0.14266741 0.24625595 -0.37567788 0
0.25075468 0.23758535 -0.37372687 0
0.36053082 0.23593865 -0.3741816 0
0.44648224 0.26766598 -0.37584496 0
0.56187832 0.26353061 -0.37726358 0
0.64774805 0.29931295 -0.37720591 0
0.74896455 0.27821791 -0.37296051 0
0.84147954 0.26769492 -0.37069997 0
-0.95319641 0.23420043 -0.33097914 0
-0.86366713 0.22570848 -0.33590537 0
-0.74647737 0.28277454 -0.34813067 0
-0.64780581 0.29454434 -0.35276929 0
-0.54803526 0.26600799 -0.36061195 0
-0.45478743 0.28291136 -0.36739227 0
-0.34788999 0.29564691 -0.37469584 0
-0.24014515 0.29261941 -0.37350124 0
-0.15637238 0.30970642 -0.37611654 0
-0.037711695 0.33064881 -0.37591189 0
0.059224159 0.35611144 -0.37418196 0
0.15484375 0.331085 -0.37595692 0
0.23106328 0.34860626 -0.37534949 0
0.34300247 0.33723122 -0.3757095 0
0.46456349 0.39289299 -0.37631956 0
0.52406693 0.3575581 -0.37523451 0
0.66416657 0.40103817 -0.37545836 0
0.72216839 0.35654157 -0.37327006 0
0.83983779 0.41111928 -0.37393549 0
-0.96613067 0.31662336 -0.33040753 0
-0.84148186 0.33626321 -0.33982885 0
-0.75798678 0.37999144 -0.34529313 0
-0.66118085 0.38890234 -0.35292158 0
-0.55409908 0.37454748 -0.35905188 0
-0.46501154 0.40419704 -0.3664107 0
-0.36611575 0.40850914 -0.3744224 0
-0.26401496 0.42620462 -0.37514356 0
-0.14321078 0.42862654 -0.37662578 0
-0.053779215 0.43176743 -0.37396801 0
0.034323931 0.44197106 -0.37326914 0
0.13088244 0.41349006 -0.37417138 0
0.23163584 0.48873934 -0.37543195 0
0.35918206 0.45959625 -0.37986404 0
0.42000857 0.43667784 -0.38077518 0
0.54889005 0.47113925 -0.37717009 0
0.61374164 0.46691793 -0.38317546 0
0.73249251 0.47657269 -0.37369987 0
-0.85757601 0.43542945 -0.33898219 0
-0.75127161 0.44950193 -0.34340286 0
-0.65499294 0.47788161 -0.35062489 0
-0.57044017 0.4863508 -0.3548277 0
-0.45373201 0.49463567 -0.36474013 0
-0.17096522 0.4866738 -0.37095585 0
-0.10055915 0.49557015 -0.37567636 0
0.86428541 0.09773986 -0.36427709 0
0.98825753 0.13605672 -0.3657476 0
0.91768682 0.18694717 -0.36487707 0
0.953224 0.30145326 -0.36728987 0
-0.9181546 0.30343366 -0.32898843 0
0.79490924 0.42273599 -0.37031311 0
0.95908499 0.43136001 -0.36873698 0
-0.94487101 0.37473512 -0.32695836 0
0.68997592 0.47507566 -0.36837855 0
0.90815675 0.46808079 -0.36912951 0
-0.96074533 0.46859083 -0.32539439 0
0.73411536 -0.42695934 -0.37436372 0
0.81559628 -0.45178095 -0.37265942 0
0.92215705 -0.42830515 -0.36902741 0
0.62080383 -0.34465185 -0.37762466 0
0.71471405 -0.36210936 -0.37608522 0
0.80768317 -0.33790025 -0.374587 0
0.92767614 -0.33249202 -0.36728042 0
0.43948933 -0.25837809 -0.37816712 0
0.51402581 -0.26194021 -0.37909469 0
0.61888319 -0.2684578 -0.3784208 0
0.7038126 -0.25234869 -0.38003078 0
0.81379247 -0.2473149 -0.37506926 0
0.89705175 -0.22999948 -0.37293425 0
0.99405968 -0.21670386 -0.37057015 0
-0.9155488 -0.24855055 -0.34265038 0
-0.82860184 -0.21204834 -0.3533805 0
0.21865797 -0.13395883 -0.38737276 0
0.30986804 -0.17210183 -0.38317084 0
0.39924252 -0.177626 -0.38410053 0
0.50049257 -0.15521505 -0.38158584 0
0.59563345 -0.15157901 -0.38039806 0
0.69513965 -0.16293557 -0.37848753 0
0.78357261 -0.14713138 -0.37960258 0
0.89368188 -0.10665448 -0.37471378 0
0.9930625 -0.12532288 -0.36924943 0
-0.8871699 -0.16699441 -0.34830126 0
-0.78935814 -0.15455012 -0.35423878 0
-0.7094115 -0.14871709 -0.36161882 0
-0.62179321 -0.10518804 -0.37101114 0
-0.52340245 -0.10457668 -0.37140542 0
-0.41350159 -0.089704938 -0.37538061 0
-0.30240721 -0.079134017 -0.38029373 0
-0.20760891 -0.073445112 -0.38400456 0
-0.11316052 -0.079838961 -0.38462311 0
-0.0043424666 -0.095668837 -0.38469195 0
0.10878009 -0.1014988 -0.38489026 0
0.17830081 -0.086709201 -0.38661659 0
0.2885955 -0.065163329 -0.3854908 0
0.39500818 -0.077674568 -0.38320112 0
0.47454032 -0.050854824 -0.38398328 0
0.57663035 -0.046003487 -0.37870964 0
0.68713486 -0.033194095 -0.37857613 0
0.79733276 -0.031336263 -0.37890786 0
0.8691535 -0.012693912 -0.37683257 0
0.98596799 -0.023860492 -0.36863986 0
-0.9103595 -0.085254148 -0.34801233 0
-0.82577729 -0.051122621 -0.35336852 0
-0.72021502 -0.046331495 -0.36146337 0
-0.61581612 -0.033456318 -0.36753106 0
-0.52544808 -0.030741641 -0.36926806 0
-0.42349696 -0.020799886 -0.37404254 0
-0.31403154 -0.024247374 -0.3821826 0
-0.23200808 -0.0066867778 -0.38407591 0
-0.12118809 -0.00049768761 -0.38546282 0
-0.014140368 -0.00063273683 -0.38684297 0
0.077439487 0.022273079 -0.38721147 0
0.19004557 0.01498539 -0.38478276 0
0.29805994 0.04037302 -0.38343728 0
0.38367832 0.023907959 -0.38199937 0
0.47438243 0.012876399 -0.37934253 0
0.56539571 0.074313991 -0.38207886 0
0.67957896 0.083361328 -0.38541061 0
0.77447456 0.072248489 -0.37747097 0
0.87869453 0.05892653 -0.37776154 0
-0.81342888 0.038166672 -0.35453805 0
-0.71293575 0.054420155 -0.35883251 0
-0.61716336 0.056492612 -0.36268082 0
-0.52387387 0.053174149 -0.36978394 0
-0.42149681 0.070874751 -0.37464029 0
-0.33050564 0.070788808 -0.38082555 0
-0.2300303 0.093363672 -0.3866052 0
-0.12992753 0.098380342 -0.38374141 0
-0.013479546 0.084723845 -0.38361228 0
0.078274503 0.11202265 -0.38545537 0
0.18427265 0.11276734 -0.3858718 0
0.28269616 0.11910553 -0.38396487 0
0.36180067 0.15541063 -0.38345492 0
0.47261882 0.1470218 -0.38258699 0
0.57057846 0.15240833 -0.38116097 0
0.67961603 0.15283707 -0.38147363 0
0.79112959 0.18140823 -0.38246185 0
0.88142991 0.17518222 -0.37822518 0
0.97884619 0.15627542 -0.37341514 0
-0.82858372 0.11806987 -0.35204682 0
-0.72469211 0.14112277 -0.35584971 0
-0.62974185 0.16213024 -0.36445329 0
-0.51829457 0.17059794 -0.37145013 0
-0.43195948 0.17736821 -0.37734011 0
-0.33052146 0.16873215 -0.37972862 0
-0.22761618 0.18209034 -0.3859134 0
-0.12280391 0.18883124 -0.38580921 0
-0.023764595 0.20935848 -0.38472772 0
0.079830468 0.20834506 -0.3862707 0
0.18343133 0.20894873 -0.38464755 0
0.26369274 0.23534399 -0.38305607 0
0.35454798 0.23894939 -0.38327459 0
0.45507541 0.26987875 -0.38283259 0
0.57094342 0.25301424 -0.38337848 0
0.6696617 0.27158076 -0.38638172 0
0.76054204 0.26665536 -0.38471448 0
0.88419819 0.29036611 -0.37860355 0
0.94316685 0.26707754 -0.38011521 0
-0.74266636 0.23688012 -0.35857049 0
-0.63286656 0.26717475 -0.36364046 0
-0.54580319 0.27798268 -0.36863786 0
-0.44334179 0.26682919 -0.37233511 0
-0.34571311 0.28024533 -0.37898964 0
-0.22021119 0.26619837 -0.38419464 0
-0.12942354 0.29183275 -0.38292208 0
-0.04142198 0.31628725 -0.38657713 0
0.058046639 0.30783513 -0.38310698 0
0.1729064 0.32110146 -0.38578218 0
0.27105239 0.35847786 -0.38529503 0
0.35088629 0.32799515 -0.38364908 0
0.46120498 0.37680915 -0.383461 0
0.55927432 0.33994186 -0.38286602 0
0.65639555 0.35303125 -0.38554561 0
0.75513643 0.36941987 -0.38244438 0
0.83744669 0.37663195 -0.37944376 0
0.95126092 0.37444174 -0.37827909 0
-0.66052324 0.33444223 -0.36070365 0
-0.54425448 0.37254414 -0.36771202 0
-0.43994892 0.38124216 -0.37421051 0
-0.33058131 0.38536412 -0.38116282 0
-0.2502099 0.39509144 -0.38479713 0
-0.14875302 0.38486227 -0.38433951 0
-0.041248247 0.40208331 -0.38202536 0
0.067154169 0.4369671 -0.38751182 0
0.1401476 0.41425356 -0.38245836 0
0.23640335 0.43763706 -0.3870537 0
0.35951081 0.42325097 -0.38644415 0
0.57830679 0.46077007 -0.38663229 0
0.64488137 0.41010284 -0.38162279 0
0.76415098 0.47327355 -0.38059333 0
0.87985975 0.47699571 -0.37934232 0
-0.74383003 0.40455064 -0.35906431 0
-0.62148136 0.42427102 -0.36234251 0
-0.54371297 0.44756654 -0.36673355 0
-0.45976955 0.46327558 -0.37062666 0
-0.3576256 0.496272 -0.37859485 0
-0.24361145 0.4985559 -0.38488027 0
-0.14701538 0.48579842 -0.38509822 0
-0.93083787 -0.33819085 -0.33071631 0
-0.99520105 -0.26546252 -0.33136794 0
-0.93827021 -0.142185 -0.33853087 0
-0.91602433 -0.05345425 -0.33982348 0
-0.91983664 0.041614626 -0.33985353 0
-0.85763508 0.079545885 -0.3457205 0
-0.92890972 0.13443126 -0.34204572 0
-0.82483941 0.14613125 -0.34682223 0
-0.92669916 0.22914895 -0.33863285 0
-0.85194814 0.26876757 -0.34559932 0
-0.74408174 0.28401655 -0.35241318 0
-0.93168974 0.3557817 -0.33516416 0
-0.82741493 0.32739154 -0.34642199 0
-0.74233896 0.35544106 -0.35541749 0
-0.65632534 0.398911 -0.358024 0
-0.57292986 0.39889628 -0.35831571 0
-0.95661676 0.46037355 -0.33540261 0
-0.85163617 0.46026692 -0.34316939 0
-0.7707026 0.46650168 -0.35268745 0
-0.654185 0.46515381 -0.3522158 0
0.95768195 -0.37611622 -0.33935136 0
0.85543692 -0.29592839 -0.34401986 0
0.93750292 -0.30494395 -0.34386471 0
-0.96479177 -0.32437038 -0.31473207 0
0.74151415 -0.21122172 -0.35021895 0
0.82566535 -0.20197394 -0.34784704 0
0.93630362 -0.18547212 -0.34528637 0
-0.97281033 -0.23843205 -0.31288803 0
-0.88573784 -0.23427138 -0.32378477 0
-0.78968233 -0.20032725 -0.33097881 0
0.52642947 -0.10524245 -0.35508823 0
0.6393615 -0.13860419 -0.35311404 0
0.71453536 -0.12250103 -0.3517465 0
0.8261553 -0.11893813 -0.34778559 0
0.93171144 -0.10181289 -0.34645978 0
-0.99976116 -0.13675313 -0.31375927 0
-0.88292575 -0.13063183 -0.3227067 0
-0.77209055 -0.1220727 -0.33168268 0
-0.67084777 -0.11147536 -0.33691218 0
-0.57913017 -0.10016266 -0.34118065 0
-0.48389912 -0.082591534 -0.34313121 0
0.13783729 -0.011215022 -0.35740498 0
0.20811372 -0.026959632 -0.35627246 0
0.32045913 -0.024902243 -0.35598797 0
0.42247826 -0.043392334 -0.35593981 0
0.50134373 -0.020963933 -0.35653546 0
0.60864747 -0.032500431 -0.35394484 0
0.71834493 -0.014169514 -0.35138974 0
0.83359528 -0.011893347 -0.35032302 0
0.92019129 -0.006506905 -0.34946883 0
-0.95874381 -0.065768227 -0.31637153 0
-0.88794297 -0.019974761 -0.32243398 0
-0.7983098 -0.0454343 -0.32814467 0
-0.69904852 -0.027572732 -0.33347329 0
-0.5948438 -0.0077361465 -0.34003574 0
-0.49683946 -0.0023481175 -0.34570411 0
-0.39311117 -0.00049902312 -0.35364309 0
-0.28313088 0.00900748 -0.35422906 0
-0.19635041 0.017762743 -0.35559818 0
-0.094655573 0.021740463 -0.35621554 0
0.0047379583 0.029073345 -0.3574869 0
0.097697765 0.046202175 -0.35892636 0
0.2204473 0.041103635 -0.35688764 0
0.31485736 0.04429391 -0.35423991 0
0.39369267 0.057559822 -0.35649237 0
0.5050509 0.054715622 -0.3534365 0
0.59398258 0.074375659 -0.35469055 0
0.70517588 0.085525341 -0.35394374 0
0.80515409 0.084027022 -0.35172623 0
0.90158629 0.091803975 -0.34981617 0
-0.95901459 0.02874358 -0.31430003 0
-0.89869785 0.07722728 -0.3203539 0
-0.80236971 0.049590744 -0.32617709 0
-0.69801366 0.082772166 -0.33187962 0
-0.58829236 0.10352959 -0.33918226 0
-0.50300235 0.081380613 -0.34445968 0
-0.41053325 0.095956162 -0.35151193 0
-0.29877603 0.10228074 -0.35677436 0
-0.18698929 0.12088866 -0.35639694 0
-0.094639093 0.14896296 -0.35650939 0
-0.0093849152 0.12534079 -0.35867819 0
0.10280548 0.14036396 -0.357263 0
0.19552186 0.12978642 -0.35728019 0
0.2831797 0.13540252 -0.35746706 0
0.40323719 0.14804104 -0.3557685 0
0.51888454 0.17269212 -0.35593084 0
0.61264253 0.17985947 -0.35649049 0
0.71366292 0.17678559 -0.35251421 0
0.80704451 0.17730017 -0.35316789 0
0.91157109 0.17813177 -0.35004348 0
0.99116421 0.2245619 -0.34746811 0
-0.89110851 0.1473361 -0.317812 0
-0.81378311 0.16017467 -0.32450706 0
-0.70018989 0.1672916 -0.32982147 0
-0.59858918 0.1719192 -0.33797538 0
-0.49256915 0.18172425 -0.34626284 0
-0.39568627 0.20999701 -0.35129601 0
-0.31237766 0.20798337 -0.3545509 0
-0.22418378 0.23695105 -0.35626826 0
-0.11277176 0.22907466 -0.35474211 0
-0.00032013655 0.2320805 -0.35707662 0
0.098877966 0.22483279 -0.35726351 0
0.19669008 0.23894401 -0.35809115 0
0.28686491 0.2497011 -0.35686854 0
0.39693457 0.24943085 -0.35695878 0
0.48129964 0.26276755 -0.35942426 0
0.60046172 0.28434151 -0.35812369 0
0.70823014 0.28061402 -0.3554849 0
0.79054153 0.25097209 -0.35494506 0
0.87913543 0.30479634 -0.35387039 0
0.98656291 0.31619045 -0.3472096 0
-0.90705913 0.25881797 -0.32173485 0
-0.80617368 0.26152056 -0.32675236 0
-0.70276272 0.27244374 -0.33329147 0
-0.61854851 0.27514365 -0.3372038 0
-0.53148168 0.29180613 -0.3429397 0
-0.41109675 0.3146331 -0.35242507 0
-0.31003135 0.31459635 -0.35220078 0
-0.20764184 0.34028289 -0.35219935 0
-0.10886659 0.3471151 -0.35660025 0
-0.0018011332 0.35412073 -0.35845205 0
0.099331826 0.33672532 -0.35693648 0
0.17668089 0.3268224 -0.35689855 0
0.28595948 0.37171295 -0.35695967 0
0.374515 0.3412993 -0.35806835 0
0.47851944 0.37119877 -0.3602736 0
0.59227282 0.36970276 -0.36005595 0
0.70525682 0.37340617 -0.35552016 0
0.79190683 0.37472945 -0.3543604 0
0.89364612 0.37752751 -0.35169941 0
0.99769807 0.42139494 -0.34621352 0
-0.81072068 0.36595118 -0.3273685 0
-0.7199204 0.38489595 -0.32945135 0
-0.61584985 0.38823709 -0.33667478 0
-0.51131302 0.40054357 -0.34287107 0
-0.41393217 0.37540457 -0.34881267 0
-0.31393141 0.38930044 -0.35096255 0
-0.24502574 0.41868705 -0.35511136 0
-0.10772111 0.42988896 -0.35669625 0
-0.0070090592 0.41892374 -0.35549188 0
0.093226045 0.41774866 -0.35703272 0
0.18819904 0.42081797 -0.3595041 0
0.28870445 0.4828757 -0.35793954 0
0.36636397 0.4523288 -0.35999894 0
0.4840734 0.4661954 -0.3579323 0
0.57348967 0.4716585 -0.35885301 0
0.67230999 0.46496019 -0.35846871 0
0.75311804 0.45690331 -0.35732216 0
-0.62614888 0.46911231 -0.33622354 0
-0.43216246 0.49279776 -0.35050431 0
-0.32443526 0.48810318 -0.35297444 0
-0.22107744 0.49356532 -0.35304093 0
-0.99577212 0.066887513 -0.30799055 0
-0.94394332 0.1465281 -0.31191719 0
-0.99345684 0.23899719 -0.30745929 0
-0.90045077 0.25299188 -0.31168479 0
-0.9274078 0.41066936 -0.31587502 0
-0.85660565 0.32823831 -0.31813508 0
