# .PCD v0.7 - Point Cloud Data file format
VERSION 0.7
FIELDS x y z intensity
SIZE 4 4 4 4
TYPE F F F F
COUNT 1 1 1 1
WIDTH 1290
HEIGHT 1
VIEWPOINT 0 0 0 1 0 0 0
POINTS 1290
DATA ascii
-0.60866654 0.4591662 -0.24137752 0
-0.54100406 0.44830433 -0.24835438 0
-0.4366664 0.45404252 -0.24648052 0
-0.33916834 0.44529894 -0.2560553 0
-0.24835241 0.4726432 -0.24389221 0
-0.15068483 0.4789198 -0.24525762 0
-0.061492682 0.47593364 -0.24251047 0
0.051799953 0.49459326 -0.23325968 0
0.22145319 0.48023456 -0.23778829 0
0.35183406 0.49138731 -0.23748732 0
0.24635422 -0.4741134 -0.71365845 0
0.31268418 -0.45323044 -0.70418286 0
0.075500727 -0.39891601 -0.6865949 0
0.15618837 -0.42221344 -0.63385332 0
0.24442375 -0.37821889 -0.6693145 0
0.32908154 -0.38792992 -0.67178184 0
0.16648543 -0.32962143 -0.59123766 0
0.26776123 -0.28895295 -0.62822127 0
0.35960758 -0.27521372 -0.61970001 0
0.16409409 -0.25267917 -0.51807499 0
0.27319622 -0.23282641 -0.59824759 0
0.36786354 -0.2142902 -0.58800578 0
0.17297125 -0.18096769 -0.49660686 0
0.19724607 -0.16520905 -0.47627264 0
0.29677451 -0.13368917 -0.5541032 0
0.38145685 -0.12446147 -0.543971 0
0.22927833 -0.095913291 -0.45355096 0
0.28967118 -0.069571376 -0.42670393 0
0.38952661 -0.0099279284 -0.45426336 0
0.49488747 0.015835404 -0.47631341 0
0.58969438 0.043127298 -0.45213354 0
0.49410617 0.074087441 -0.41006234 0
0.58994842 0.097812116 -0.3774367 0
0.51308 0.16743797 -0.40494969 0
0.621858 0.17192364 -0.39746964 0
0.76850343 0.19551587 -0.3888098 0
0.90363634 0.23641253 -0.36575747 0
0.63983524 0.28278893 -0.34742099 0
0.76178527 0.26937908 -0.34944236 0
0.89257598 0.29675484 -0.33205026 0
0.63845325 0.3266564 -0.32561812 0
0.76279414 0.3766548 -0.29782516 0
0.88763952 0.36647165 -0.29633224 0
0.59695554 0.45617169 -0.25335249 0
0.75377357 0.47761917 -0.24705264 0
0.88244402 0.47031736 -0.24484906 0
0.1395638 -0.47327 -0.55447167 0
0.15669537 -0.37488198 -0.51561558 0
0.23102188 -0.37816972 -0.48001379 0
0.1597985 -0.28368908 -0.49519995 0
0.24694169 -0.29037476 -0.46347591 0
0.31809831 -0.25535429 -0.42465538 0
0.25680542 -0.16922921 -0.44692022 0
0.32922018 -0.17668694 -0.41153446 0
0.37905192 -0.19179487 -0.38765293 0
0.33032072 -0.08344698 -0.40197653 0
0.41354859 -0.08537966 -0.36013886 0
0.4866277 -0.070154607 -0.32569319 0
0.38225341 -0.013913631 -0.37977877 0
0.49907374 0.017226756 -0.33212292 0
0.57377827 0.048323214 -0.30090916 0
0.62863517 0.074302495 -0.26922321 0
0.68956411 0.1169647 -0.25805604 0
0.27505934 -0.49767315 -0.46944761 0
0.2775569 -0.40953529 -0.45979351 0
0.35031545 -0.38747233 -0.42084688 0
0.43561721 -0.38567299 -0.37525758 0
0.35625529 -0.29338378 -0.40894711 0
0.42371988 -0.30252653 -0.37398368 0
0.51529324 -0.28797871 -0.32357854 0
0.44561243 -0.21774787 -0.35440445 0
0.52552152 -0.22946 -0.31268343 0
0.53245175 -0.11608273 -0.30336368 0
0.60223162 -0.11482251 -0.2737729 0
0.72418523 -0.11288291 -0.25916004 0
0.81883693 -0.10435587 -0.2379193 0
0.61267579 -0.011409402 -0.27904868 0
0.71445167 0.019557655 -0.25187337 0
0.78958797 0.0021566749 -0.23892474 0
0.89035714 -0.014324427 -0.21580741 0
0.98398721 0.021499157 -0.1927954 0
0.91243613 0.082525194 -0.20113844 0
0.47505116 -0.43122602 -0.35972461 0
0.54580116 -0.41311181 -0.32757449 0
0.61949253 -0.39697802 -0.29552609 0
0.54598582 -0.33574581 -0.31609118 0
0.64723539 -0.33095157 -0.27747017 0
0.7632947 -0.32379425 -0.25693899 0
0.84938157 -0.33138531 -0.23901039 0
0.93396604 -0.29644907 -0.22400552 0
0.58427012 -0.24714017 -0.28765899 0
0.61031508 -0.23517299 -0.28019196 0
0.72987413 -0.244551 -0.26700515 0
0.83188665 -0.21221352 -0.23563853 0
0.91458464 -0.20401818 -0.22058445 0
0.90254903 -0.10702002 -0.21787167 0
0.99711549 -0.035160661 -0.19211885 0
0.67189968 -0.44348246 -0.28202811 0
0.79570997 -0.4060055 -0.2484684 0
0.85327899 -0.44172662 -0.24605158 0
0.97997487 -0.41326243 -0.22480583 0
0.96001136 -0.34708732 -0.22193065 0
-0.73066366 -0.47006154 -0.72969961 0
-0.66380739 -0.46221536 -0.72714686 0
-0.56348312 -0.44346368 -0.72214246 0
-0.48424375 -0.40011847 -0.70189095 0
-0.72812945 -0.36992711 -0.67433292 0
-0.67768168 -0.3624838 -0.67816234 0
-0.57655686 -0.36309987 -0.67687583 0
-0.49600869 -0.34096491 -0.67187929 0
-0.67912793 -0.27705386 -0.63229656 0
-0.58480245 -0.27222747 -0.63165951 0
-0.52933609 -0.23592114 -0.61681873 0
-0.68579268 -0.1919668 -0.58740771 0
-0.57753557 -0.19136924 -0.58968633 0
-0.52024913 -0.15456361 -0.57150984 0
-0.69742239 -0.10251406 -0.54031193 0
-0.59054351 -0.090572715 -0.54119194 0
-0.5110321 -0.075309694 -0.53210586 0
-0.70095444 0.010453075 -0.48624286 0
-0.61687505 -0.0013356209 -0.49220574 0
-0.52203888 0.0033397973 -0.49030939 0
-0.42150557 0.015818655 -0.48580399 0
-0.34868199 0.061846167 -0.46501887 0
-0.71916783 0.060568154 -0.4557879 0
-0.61436087 0.082393825 -0.44713515 0
-0.51345038 0.098711818 -0.43889987 0
-0.43530321 0.070075601 -0.45549265 0
-0.35878456 0.089644015 -0.44861126 0
-0.73634827 0.15628996 -0.40468752 0
-0.62797701 0.16675887 -0.39925605 0
-0.54501182 0.17262849 -0.39873448 0
-0.4661389 0.19618836 -0.38740787 0
-0.80471337 0.25871778 -0.34935641 0
-0.74653327 0.24970815 -0.35629016 0
-0.64892054 0.26151347 -0.35054892 0
-0.57225186 0.265719 -0.34571603 0
-0.46672928 0.2817139 -0.34168163 0
-0.30300146 0.25534794 -0.36587816 0
-0.83213425 0.32127297 -0.31471825 0
-0.74601048 0.32719535 -0.31318265 0
-0.62998062 0.35557345 -0.29704967 0
-0.5429163 0.35534468 -0.29955155 0
-0.45679998 0.34781188 -0.308204 0
-0.84967178 0.41386962 -0.26405182 0
-0.75553221 0.41316909 -0.26460049 0
-0.65333265 0.4307622 -0.26105568 0
-0.56663966 0.45537686 -0.2453429 0
-0.46694922 0.43201578 -0.26207137 0
-0.25493884 -0.48912156 -0.74381214 0
-0.15605903 -0.49345869 -0.74338561 0
-0.039836764 -0.49219239 -0.73818535 0
0.070035458 -0.49169421 -0.73187101 0
0.15720975 -0.49756277 -0.73049122 0
-0.51292241 -0.48185974 -0.73437858 0
-0.43021625 -0.42044038 -0.70757014 0
-0.36604017 -0.44515491 -0.72017694 0
-0.26499248 -0.42304289 -0.70939171 0
-0.14668179 -0.42048162 -0.7048831 0
-0.057072997 -0.39520699 -0.69289333 0
0.015463114 -0.40496767 -0.69314778 0
0.1355294 -0.40683115 -0.68932009 0
0.24090123 -0.38804418 -0.67484832 0
0.28615427 -0.34418666 -0.64988583 0
-0.47770709 -0.33919019 -0.66343641 0
-0.3730908 -0.34831929 -0.67030936 0
-0.28549695 -0.34176409 -0.66687727 0
-0.16411197 -0.32958966 -0.66204846 0
-0.036829114 -0.29393905 -0.64523047 0
0.030580044 -0.32060659 -0.65125513 0
0.11628783 -0.29245281 -0.63718903 0
0.21644592 -0.26501554 -0.62139869 0
0.30755365 -0.26455647 -0.61411721 0
-0.55408579 -0.2627601 -0.62101692 0
-0.49296248 -0.23876542 -0.61074877 0
-0.37184799 -0.24645877 -0.61869377 0
-0.27671248 -0.24810696 -0.62040025 0
-0.20368612 -0.24282944 -0.62009215 0
-0.12208664 -0.24000859 -0.61733413 0
0.0027598143 -0.2008844 -0.59951615 0
0.10357761 -0.19660127 -0.59653735 0
0.23360288 -0.19281292 -0.58853525 0
0.31587303 -0.19592226 -0.57860941 0
-0.41400439 -0.16544271 -0.57798439 0
-0.29839027 -0.1615141 -0.57398236 0
-0.20923609 -0.15490925 -0.57205963 0
-0.11460435 -0.15259439 -0.57472861 0
-0.0039966106 -0.12918067 -0.55964279 0
0.090917945 -0.13633758 -0.56521404 0
0.21907449 -0.10945791 -0.54733336 0
0.3393929 -0.10795778 -0.54061437 0
-0.42231971 -0.066703141 -0.52575827 0
-0.32306582 -0.064955056 -0.52736413 0
-0.21822375 -0.085440457 -0.5338347 0
-0.11432427 -0.059338808 -0.52734894 0
-0.033274949 -0.052220345 -0.52109838 0
0.053852737 -0.038136721 -0.51244128 0
0.16063809 -0.025420964 -0.51211911 0
0.26114905 0.0057300925 -0.4928709 0
0.39129162 -0.020845115 -0.4993386 0
0.46666265 0.0365026 -0.46791631 0
-0.44234097 0.011116683 -0.48154497 0
-0.29969937 0.020151794 -0.4835614 0
-0.21524221 0.040671468 -0.47299036 0
-0.12514347 0.036652148 -0.47629857 0
-0.020259082 0.078879416 -0.46063873 0
0.052008748 0.064793885 -0.46096423 0
0.14879608 0.057812989 -0.46643502 0
0.25089049 0.081619084 -0.45169076 0
0.37691832 0.080435455 -0.45562664 0
0.48034048 0.11663175 -0.43118304 0
0.57398701 0.086472511 -0.43992227 0
0.72946167 0.13390201 -0.41692352 0
-0.41748726 0.10469869 -0.43222535 0
-0.29811418 0.11646771 -0.43248221 0
-0.22742087 0.11920953 -0.43159875 0
-0.12248981 0.1507566 -0.42200434 0
-0.040297687 0.1481638 -0.42077217 0
0.066845715 0.15350217 -0.41308978 0
0.18332404 0.11793017 -0.43011233 0
0.24660033 0.20582891 -0.39011127 0
0.37268996 0.17089319 -0.40863356 0
0.48216128 0.17195034 -0.40312865 0
0.59021211 0.20560467 -0.38363543 0
0.7479533 0.21721733 -0.37924969 0
0.88837314 0.24416852 -0.35895437 0
-0.43657386 0.18965435 -0.38901377 0
-0.31516767 0.18103993 -0.39710695 0
-0.23981673 0.21613225 -0.38247442 0
-0.13720411 0.21112752 -0.38908228 0
-0.052484572 0.21116203 -0.38711178 0
0.048020601 0.25445992 -0.36864057 0
0.12830323 0.24385703 -0.37023059 0
0.2350046 0.22884935 -0.37551856 0
0.34007621 0.24373609 -0.36336836 0
0.49685884 0.26551533 -0.36133868 0
0.60839605 0.31369841 -0.33446503 0
0.74387598 0.30438834 -0.33367783 0
0.89369762 0.31101263 -0.32736373 0
-0.41110009 0.2474336 -0.35986757 0
-0.33686644 0.26544043 -0.35197896 0
-0.28179431 0.29067776 -0.3365047 0
-0.16507393 0.30588317 -0.33716547 0
-0.059409738 0.31290674 -0.33236879 0
0.060649693 0.31486434 -0.33067948 0
0.12167174 0.3097586 -0.33719397 0
0.22371376 0.32509184 -0.32666647 0
0.33707148 0.35787958 -0.30855337 0
0.4845711 0.35556751 -0.31436217 0
0.59866083 0.37191826 -0.30293453 0
0.75365257 0.40340132 -0.28838325 0
0.88692665 0.37829053 -0.29164213 0
-0.36438471 0.37375993 -0.29541537 0
-0.2808497 0.39030704 -0.29129982 0
-0.18686664 0.40579915 -0.28552598 0
-0.10000348 0.42050004 -0.2771858 0
0.043314636 0.40972346 -0.28204826 0
0.1910786 0.43390542 -0.2667824 0
0.20532721 0.39917856 -0.286771 0
0.31498975 0.43774539 -0.26504266 0
0.46354234 0.43675399 -0.27004781 0
0.59820342 0.46619815 -0.2584686 0
0.74896765 0.48252016 -0.2485477 0
0.88527203 0.46408319 -0.24899483 0
-0.51534927 0.44431686 -0.24515203 0
-0.42665884 0.47934213 -0.23288451 0
-0.34761271 0.47141448 -0.24249648 0
-0.22443622 0.48524296 -0.24014226 0
-0.12715453 0.48760006 -0.23988402 0
0.027888954 0.4902755 -0.24115258 0
0.14967859 -0.42785513 -0.60002959 0
0.14740956 -0.34596169 -0.54442251 0
0.15338802 -0.25732243 -0.51764512 0
0.22037864 -0.25904107 -0.46611938 0
0.15937114 -0.15856552 -0.4930841 0
0.20775032 -0.17256987 -0.46867058 0
0.28660905 -0.15594113 -0.42304799 0
0.2033968 -0.091473579 -0.45831481 0
0.29039359 -0.060098827 -0.4192366 0
0.36479568 -0.040606618 -0.38736373 0
0.4405117 -0.0042874217 -0.33623573 0
0.48150575 0.038158715 -0.34904197 0
0.57575023 0.076298296 -0.34442031 0
0.59189463 0.11512285 -0.33288091 0
0.14475799 -0.4744584 -0.51058382 0
0.24362433 -0.49580914 -0.4774608 0
0.15097499 -0.37765855 -0.49831608 0
0.22593057 -0.39537328 -0.47443265 0
0.31143415 -0.38501745 -0.43278342 0
0.2583468 -0.29609698 -0.45074528 0
0.32644212 -0.3055858 -0.41747242 0
0.39592493 -0.27815694 -0.37840134 0
0.33579206 -0.20491612 -0.40311041 0
0.42515397 -0.20132232 -0.35565996 0
0.48421359 -0.18110573 -0.3219496 0
0.40717423 -0.10785121 -0.35658652 0
0.52204752 -0.093010485 -0.30118674 0
0.56281757 -0.052200913 -0.28573823 0
0.4878118 -0.0033522844 -0.31421125 0
0.5978837 0.020477533 -0.27282172 0
0.73725545 0.028860927 -0.24219787 0
0.60742533 0.076274633 -0.2749216 0
0.71183753 0.070616424 -0.24620593 0
0.82982802 0.12353426 -0.21039325 0
0.90809 0.095089495 -0.1970771 0
0.40544236 -0.49739325 -0.39342967 0
0.35986018 -0.41652101 -0.41058016 0
0.43883538 -0.41056722 -0.36820623 0
0.43457353 -0.33147252 -0.36254776 0
0.54146719 -0.33773041 -0.31189904 0
0.60958219 -0.31030953 -0.28024328 0
0.53258228 -0.22540337 -0.3008875 0
0.71554184 -0.20410699 -0.25420454 0
0.77383041 -0.2221269 -0.24693328 0
0.65026248 -0.099885821 -0.26362777 0
0.71400833 -0.12514842 -0.25303802 0
0.85748124 -0.091334522 -0.21957803 0
0.86749816 -0.14520997 -0.21911845 0
0.96300161 -0.085241199 -0.19657543 0
0.74876881 -0.029158711 -0.24101198 0
0.83086133 -0.015293062 -0.22552264 0
0.93911481 0.00019848347 -0.19781196 0
0.49514234 -0.46981901 -0.34998119 0
0.5614146 -0.42156667 -0.31608504 0
0.62554741 -0.42558128 -0.29071361 0
0.70933151 -0.43453056 -0.2709806 0
0.79896772 -0.41105711 -0.24982992 0
0.68896055 -0.34487104 -0.27079445 0
0.84548998 -0.34710819 -0.23667264 0
0.83155823 -0.2444216 -0.23277614 0
0.94249523 -0.22382158 -0.2085605 0
0.83415461 -0.44168997 -0.24254832 0
0.93574882 -0.44049996 -0.22797608 0
-0.11841691 -0.49337834 -0.7352581 0
-0.90216672 -0.48952392 -0.73151386 0
-0.79966873 -0.47219169 -0.72463298 0
-0.69953626 -0.4954713 -0.73594797 0
-0.60828006 -0.44436562 -0.71282291 0
-0.50541741 -0.46509594 -0.72292256 0
-0.40181971 -0.43103451 -0.70652097 0
-0.30522263 -0.4683823 -0.71970981 0
-0.20213425 -0.44758409 -0.71381152 0
-0.10201907 -0.41263777 -0.6965239 0
0.0009701252 -0.36959666 -0.67587513 0
-0.90948606 -0.41477129 -0.69127536 0
-0.80831379 -0.38487598 -0.67703056 0
-0.71617693 -0.36735129 -0.67333961 0
-0.62149113 -0.38713729 -0.68225133 0
-0.52040672 -0.36621678 -0.66848886 0
-0.40780407 -0.36158687 -0.66924238 0
-0.27903515 -0.33473593 -0.65846217 0
-0.19225609 -0.34991896 -0.66472042 0
-0.087305903 -0.31831712 -0.65148664 0
-0.0028222799 -0.34458995 -0.65929121 0
-0.90867752 -0.30943349 -0.63878113 0
-0.81169695 -0.30989271 -0.6375488 0
-0.72911263 -0.28347233 -0.627285 0
-0.61463636 -0.28697616 -0.63117284 0
-0.50386679 -0.26782757 -0.6232022 0
-0.42231625 -0.24313629 -0.61305195 0
-0.32535565 -0.27082735 -0.6238271 0
-0.18464303 -0.247293 -0.61325026 0
-0.08901155 -0.25087428 -0.61484194 0
0.014084458 -0.24956131 -0.61467373 0
-0.93117565 -0.22358063 -0.5922184 0
-0.82822746 -0.2234849 -0.59340388 0
-0.7218495 -0.19877297 -0.58334839 0
-0.59816945 -0.21330136 -0.59229457 0
-0.50604659 -0.19475961 -0.5847733 0
-0.42933124 -0.17419225 -0.57489353 0
-0.31966501 -0.17423385 -0.57319134 0
-0.19132423 -0.18904811 -0.58037853 0
-0.08349967 -0.16248018 -0.57100046 0
0.015541315 -0.14519101 -0.56080902 0
0.029572487 -0.15496022 -0.57135868 0
-0.93651485 -0.15442064 -0.55592805 0
-0.84934288 -0.10936099 -0.5367192 0
-0.7482217 -0.11823115 -0.53919572 0
-0.6364522 -0.11838919 -0.54248023 0
-0.53938109 -0.087921649 -0.5297128 0
-0.43089521 -0.083147883 -0.52857995 0
-0.35586226 -0.064688444 -0.51867902 0
-0.2474038 -0.055289865 -0.51467878 0
-0.17693263 -0.075721085 -0.52809012 0
-0.052155614 -0.078950644 -0.52728689 0
0.027880311 -0.081612051 -0.53293926 0
0.12354076 -0.075115979 -0.52862 0
-0.94173253 -0.041171432 -0.4992761 0
-0.87129676 -0.040608525 -0.49793845 0
-0.75685549 -0.022380561 -0.48987579 0
-0.66206425 -0.012257725 -0.48613513 0
-0.56927043 -0.015099913 -0.48904571 0
-0.44330907 -0.0038727224 -0.48559695 0
-0.34203404 0.012063682 -0.47714686 0
-0.28238761 -0.0099508762 -0.49083513 0
-0.15982193 0.023644269 -0.47329468 0
-0.082285404 0.0037858486 -0.48732004 0
0.022757769 0.039738953 -0.47006762 0
0.1159569 0.047300637 -0.46419311 0
-0.95844698 0.026223153 -0.46234453 0
-0.85479081 0.070422828 -0.44237721 0
-0.76272339 0.064440876 -0.44505686 0
-0.66660833 0.081904918 -0.43545341 0
-0.56931156 0.071489245 -0.44515306 0
-0.45977974 0.081532359 -0.43921611 0
-0.38205636 0.08714661 -0.43640786 0
-0.29470479 0.10060763 -0.43327543 0
-0.19213814 0.12701744 -0.42321461 0
-0.093648493 0.11667109 -0.42805845 0
0.011188567 0.13453031 -0.41948599 0
0.11491895 0.14493966 -0.41564935 0
-0.95626527 0.12669407 -0.40923241 0
-0.88581133 0.12746161 -0.41120327 0
-0.77962351 0.15528524 -0.39953244 0
-0.67144835 0.13725019 -0.40376094 0
-0.57017142 0.15489498 -0.39996099 0
-0.47585201 0.1707013 -0.39217889 0
-0.39331877 0.16679889 -0.39516959 0
-0.30437106 0.21001434 -0.3782739 0
-0.20576018 0.19555002 -0.38617948 0
-0.10188609 0.1971851 -0.38663036 0
-0.0015825033 0.20649171 -0.38064513 0
0.093144 0.21020806 -0.3771393 0
-0.97036266 0.21163283 -0.36422133 0
-0.87118101 0.2212356 -0.35960659 0
-0.76938617 0.23746511 -0.3520087 0
-0.67124009 0.23876435 -0.35673523 0
-0.56351233 0.26079878 -0.34715909 0
-0.50403339 0.24234369 -0.35068119 0
-0.37472123 0.26991946 -0.34108257 0
-0.23292196 0.3092393 -0.32484049 0
-0.17792535 0.30325791 -0.33373126 0
-0.11522204 0.27580571 -0.34525239 0
-0.017147839 0.29038203 -0.33603701 0
0.085957706 0.30841011 -0.32810041 0
-0.98076636 0.29239833 -0.31912121 0
-0.88877177 0.30195689 -0.31683236 0
-0.77346706 0.32086027 -0.31037232 0
-0.67308545 0.34197652 -0.30099851 0
-0.5994277 0.34135559 -0.30061901 0
-0.47927058 0.33060667 -0.305866 0
-0.36589366 0.36955571 -0.28672552 0
-0.25812268 0.38150689 -0.28433907 0
-0.22915697 0.37837091 -0.29375166 0
-0.091059864 0.41263363 -0.27298266 0
-0.0089031458 0.38368559 -0.28474253 0
0.069291234 0.39966333 -0.28008619 0
-0.88993579 0.39372832 -0.26645452 0
-0.79080468 0.41612303 -0.25865576 0
-0.72131526 0.41347164 -0.25650844 0
-0.59113967 0.43311995 -0.25098383 0
-0.47657442 0.41922674 -0.26252729 0
-0.37938404 0.46195394 -0.24092926 0
-0.2885325 0.44547749 -0.2469171 0
-0.1734854 0.46768051 -0.23997608 0
-0.097436428 0.46761018 -0.24581295 0
0.042701483 0.49609771 -0.22774512 0
-0.99881798 0.49038109 -0.21174471 0
-0.90548646 0.47317025 -0.22230598 0
0.2245276 -0.49891698 -0.70345753 0
-0.023485541 -0.4493947 -0.70933688 0
0.071245909 -0.40190828 -0.68548268 0
0.16503608 -0.42241561 -0.65246356 0
0.26774561 -0.40741658 -0.67274159 0
0.079978943 -0.32528239 -0.64478111 0
0.18025947 -0.3249864 -0.6250394 0
0.29579878 -0.2993232 -0.6234324 0
0.11757064 -0.19359493 -0.58849072 0
0.17720771 -0.25575358 -0.55144477 0
0.32095182 -0.19313347 -0.5747456 0
0.11635077 -0.14860827 -0.56366539 0
0.18303633 -0.18182051 -0.50681353 0
0.22777164 -0.15001845 -0.56267804 0
0.34323859 -0.091451883 -0.52817476 0
0.10690475 -0.067361236 -0.51844358 0
0.18692958 -0.10795379 -0.4690907 0
0.24569762 -0.069810033 -0.47969487 0
0.35452533 -0.0067471862 -0.48667896 0
0.47047031 -0.015759706 -0.48614818 0
0.23776603 0.032813966 -0.47029471 0
0.36285198 0.061411619 -0.4535588 0
0.49269688 0.080037773 -0.44367883 0
0.59290874 0.068055511 -0.43910939 0
0.77444637 0.12555826 -0.41266352 0
0.090622544 0.14883858 -0.40590325 0
0.23799515 0.14271015 -0.41620526 0
0.36711407 0.16903478 -0.4011918 0
0.50222123 0.16706812 -0.40086031 0
0.61929142 0.18742031 -0.385043 0
0.77223325 0.14478385 -0.39973527 0
0.79115808 0.23050773 -0.36290693 0
0.95026731 0.20009696 -0.37227321 0
0.21737558 0.24022597 -0.36222234 0
0.3638978 0.27771795 -0.34722614 0
0.50464487 0.25738841 -0.35494706 0
0.64830029 0.29069316 -0.34115377 0
0.80492866 0.32208276 -0.3215608 0
0.95614064 0.28804326 -0.32875574 0
0.2082361 0.33800423 -0.31249928 0
0.34731323 0.33885705 -0.3126421 0
0.50146461 0.37153864 -0.29859793 0
0.65389752 0.34755766 -0.31381372 0
0.80184495 0.36208934 -0.30026174 0
0.97276831 0.39268506 -0.28112876 0
0.1980347 0.41332006 -0.27379236 0
0.32893491 0.42379254 -0.26661459 0
0.4759475 0.42741454 -0.26418915 0
0.64088714 0.44882882 -0.26025823 0
0.7896409 0.42956585 -0.26219246 0
0.97211766 0.48126686 -0.23559791 0
0.18003035 0.49845797 -0.22861484 0
0.14310968 -0.46247506 -0.56799585 0
0.14784014 -0.37402445 -0.51635718 0
0.18079054 -0.35999388 -0.53345042 0
0.19409251 -0.28177154 -0.48161635 0
0.28069413 -0.26950341 -0.43791491 0
0.22746301 -0.18027067 -0.45588398 0
0.2880131 -0.19174451 -0.42682362 0
0.37463701 -0.15350252 -0.37960887 0
0.28933394 -0.11575109 -0.41883507 0
0.37517476 -0.08070904 -0.37264299 0
0.39664388 -0.010067165 -0.38810393 0
0.47498143 -0.0043877363 -0.33568886 0
0.51955938 0.047830224 -0.33482248 0
0.62515295 0.11343443 -0.28715074 0
0.21157813 -0.42225689 -0.48201388 0
0.29898059 -0.40150106 -0.44147265 0
0.37761283 -0.40220195 -0.4009195 0
0.32970166 -0.33503062 -0.4197824 0
0.39705336 -0.29195535 -0.3804549 0
0.41900194 -0.2109133 -0.36119777 0
0.49203491 -0.23099411 -0.32403201 0
0.4856149 -0.1141426 -0.31988555 0
0.57179761 -0.13613731 -0.28310061 0
0.56027818 -0.020368576 -0.29190451 0
0.62859106 0.0042704344 -0.25859445 0
0.73176658 -0.013890862 -0.2466256 0
0.82103157 0.012450159 -0.22771919 0
0.7201544 0.099530041 -0.24013001 0
0.81796849 0.10128534 -0.21736103 0
0.43184638 -0.42963356 -0.3744311 0
0.51692545 -0.44148189 -0.33671972 0
0.51802635 -0.32084358 -0.31976923 0
0.59970856 -0.33668298 -0.29053688 0
0.60718226 -0.22485429 -0.27833554 0
0.75088882 -0.25564581 -0.25341076 0
0.85370922 -0.19575024 -0.23048735 0
0.75637078 -0.13321507 -0.24442196 0
0.85991335 -0.090733111 -0.21762902 0
0.96909213 -0.11161041 -0.19948789 0
0.8502816 -0.020507693 -0.21645424 0
0.94943523 0.0052018166 -0.19480172 0
0.56995404 -0.47469854 -0.3202551 0
0.61733961 -0.4606601 -0.29904094 0
0.68548918 -0.42918772 -0.27368391 0
0.79072201 -0.45731425 -0.25784528 0
0.67518115 -0.38333625 -0.27895004 0
0.7844739 -0.33004594 -0.24788761 0
0.88613629 -0.35184908 -0.23002785 0
0.87793219 -0.23466969 -0.22352046 0
0.96777356 -0.23752666 -0.21024922 0
0.93144059 -0.44797236 -0.22939116 0
-0.38208371 -0.49519259 -0.74222624 0
-0.22181296 -0.47277397 -0.7299453 0
-0.10225844 -0.44483608 -0.71438229 0
-0.91558373 -0.45331934 -0.71671999 0
-0.80541885 -0.44701892 -0.71511906 0
-0.70879656 -0.43360788 -0.70630068 0
-0.61573702 -0.41858006 -0.70292211 0
-0.51798999 -0.40330893 -0.69334567 0
-0.44326133 -0.4208864 -0.70225978 0
-0.34774095 -0.40956146 -0.69586623 0
-0.24255264 -0.38916272 -0.68639874 0
-0.1342684 -0.37571222 -0.67972708 0
-0.04757452 -0.39129972 -0.68442798 0
-0.91143817 -0.3684769 -0.66976774 0
-0.81828028 -0.37037268 -0.67017227 0
-0.71876585 -0.35863131 -0.66788268 0
-0.58796215 -0.32600081 -0.65332907 0
-0.51151443 -0.32420975 -0.65072167 0
-0.42361051 -0.31081158 -0.64820921 0
-0.33721274 -0.31952578 -0.64864159 0
-0.22637314 -0.29757166 -0.64126039 0
-0.12228978 -0.27629185 -0.62776089 0
-0.018028855 -0.29038101 -0.63790298 0
-0.9297381 -0.2626572 -0.61698866 0
-0.8213895 -0.24583334 -0.61182845 0
-0.73090583 -0.23986608 -0.61050177 0
-0.64551097 -0.25951132 -0.61679637 0
-0.51945984 -0.22543579 -0.60136247 0
-0.41877764 -0.22746438 -0.60356927 0
-0.32719958 -0.23646963 -0.60660172 0
-0.22377729 -0.20323765 -0.58936876 0
-0.10423708 -0.17235667 -0.57784224 0
-0.0057381392 -0.22397947 -0.6049 0
0.010207891 -0.15326732 -0.57267475 0
0.1282413 -0.13612235 -0.5579077 0
-0.95570314 -0.183584 -0.57429874 0
-0.83155203 -0.18764654 -0.57662177 0
-0.74410361 -0.17128542 -0.56849366 0
-0.65181112 -0.15438733 -0.56622648 0
-0.55168837 -0.13553783 -0.55648988 0
-0.43307465 -0.13755143 -0.55709517 0
-0.31579763 -0.12837464 -0.55266118 0
-0.21009582 -0.11330926 -0.54624546 0
-0.10972917 -0.094861627 -0.53278577 0
-0.042720377 -0.11053646 -0.54825079 0
0.0041286349 -0.094374776 -0.53705573 0
0.13652885 -0.068838835 -0.52364731 0
-0.9721725 -0.1164048 -0.53811508 0
-0.85857999 -0.090936333 -0.53101867 0
-0.77211595 -0.08658433 -0.52567804 0
-0.65416837 -0.058492064 -0.51537955 0
-0.55406564 -0.079993814 -0.52390647 0
-0.44886017 -0.041619331 -0.50829649 0
-0.40313399 -0.0081424713 -0.49314332 0
-0.29595357 0.0031015873 -0.49114323 0
-0.20514482 -0.012444556 -0.4944343 0
-0.093475461 -0.022473991 -0.50094402 0
0.016062856 -0.014177084 -0.49879575 0
0.13707626 -0.00794065 -0.49060065 0
-0.95994759 -0.015608728 -0.48637474 0
-0.87027037 -0.0091947615 -0.48568964 0
-0.77869797 -0.0032105446 -0.48350865 0
-0.66160154 0.02249065 -0.47178209 0
-0.58432209 0.00060486794 -0.48176044 0
-0.49923569 0.038206637 -0.46404997 0
-0.40626788 0.050335169 -0.46224657 0
-0.27644217 0.043318629 -0.4644208 0
-0.2085498 0.077775478 -0.44615865 0
-0.084993124 0.053311586 -0.46435088 0
0.011121988 0.055044532 -0.45980725 0
0.15323532 0.089064598 -0.44571635 0
-0.98399532 0.088519111 -0.43442005 0
-0.89926612 0.086434215 -0.43347067 0
-0.77906907 0.089815527 -0.43543643 0
-0.66375846 0.1219942 -0.4218002 0
-0.5833323 0.11306199 -0.42617497 0
-0.4833445 0.14366001 -0.40784657 0
-0.41751426 0.12528482 -0.42084908 0
-0.30968916 0.14135355 -0.41534695 0
-0.21333873 0.11398453 -0.42587027 0
-0.088251829 0.13450414 -0.42085135 0
0.025197446 0.17270082 -0.40401611 0
0.15429938 0.18665081 -0.39557141 0
-0.99849963 0.15600258 -0.39463198 0
-0.89710754 0.19994482 -0.37600231 0
-0.79640388 0.18481201 -0.38416225 0
-0.68089986 0.18253306 -0.38687587 0
-0.60300601 0.2168268 -0.36927816 0
-0.51647365 0.21774173 -0.36979732 0
-0.43364108 0.24285603 -0.35788643 0
-0.3231951 0.21598145 -0.37395316 0
-0.20031232 0.23067883 -0.37197825 0
-0.088166058 0.22952408 -0.3724879 0
0.015055537 0.25438112 -0.3589049 0
0.13962525 0.26424778 -0.35067007 0
-0.91633034 0.25202072 -0.34587944 0
-0.80506903 0.28438473 -0.33247972 0
-0.69165361 0.28057009 -0.33672345 0
-0.62906981 0.29026407 -0.32619697 0
-0.53591454 0.27873272 -0.33433625 0
-0.44663396 0.32035044 -0.31647867 0
-0.33154929 0.30875391 -0.3261314 0
-0.21742457 0.32833657 -0.3184734 0
-0.092833698 0.34611517 -0.31313533 0
0.0038446784 0.33844632 -0.31317949 0
0.13445002 0.36272985 -0.29953596 0
0.29245245 0.36514455 -0.30259621 0
-0.91133857 0.35160124 -0.29334801 0
-0.82636714 0.34803325 -0.2983731 0
-0.71325356 0.36377129 -0.29125679 0
-0.61528289 0.38395265 -0.27780622 0
-0.50717479 0.37595153 -0.28429461 0
-0.35006136 0.3823891 -0.28505784 0
-0.23055047 0.42541337 -0.26766378 0
-0.10240036 0.47471294 -0.24778765 0
-0.0042313337 0.43602082 -0.26269504 0
0.13124228 0.44355041 -0.25847065 0
0.27123058 0.46256047 -0.24648821 0
-0.93141377 0.43050992 -0.24807137 0
-0.82252604 0.44947177 -0.24371755 0
-0.72882187 0.45217729 -0.24006137 0
-0.6185562 0.45805311 -0.23833969 0
-0.4834978 0.47344461 -0.23322052 0
-0.36459184 0.47432113 -0.23716764 0
0.040590763 -0.45628601 -0.71192294 0
0.13104725 -0.4789325 -0.66997927 0
0.14958644 -0.45733052 -0.70780724 0
0.27723193 -0.42189628 -0.68429697 0
0.08784306 -0.36667669 -0.65116549 0
0.18472886 -0.35375857 -0.66003305 0
0.2915045 -0.36943835 -0.65634888 0
0.097077012 -0.25522506 -0.61461926 0
0.16409886 -0.30320412 -0.58823287 0
0.27118599 -0.25131774 -0.60531878 0
0.34028697 -0.22270012 -0.58947951 0
0.13528562 -0.18752664 -0.54153085 0
0.23758137 -0.15750253 -0.56318521 0
0.35219944 -0.16724575 -0.55981988 0
0.15936244 -0.1364888 -0.47197038 0
0.23250151 -0.084722877 -0.46999693 0
0.38012362 -0.064236939 -0.51063848 0
0.26888371 -0.0090223551 -0.46624729 0
0.35973072 -0.011996627 -0.4445264 0
0.39895213 0.037237108 -0.45793164 0
0.52786696 0.052462995 -0.44857109 0
0.29065931 0.11836416 -0.42862597 0
0.43626142 0.14031792 -0.41685733 0
0.56306374 0.1680451 -0.39753696 0
0.72554266 0.13765389 -0.40678722 0
0.2836926 0.17593408 -0.39589205 0
0.44984627 0.21809429 -0.37804723 0
0.5817405 0.247087 -0.35912758 0
0.75229859 0.23544014 -0.36107397 0
0.93431246 0.24830574 -0.35248387 0
0.27613628 0.24699181 -0.35644114 0
0.44857156 0.31559247 -0.32632944 0
0.61344421 0.35336822 -0.31199887 0
0.76619279 0.32928532 -0.31575698 0
0.94540453 0.32810402 -0.31128663 0
0.44726318 0.39498615 -0.28538695 0
0.61608374 0.41409522 -0.28067949 0
0.78275847 0.44368017 -0.26090837 0
0.96623087 0.43647063 -0.25912571 0
0.42673427 0.48763692 -0.23222917 0
0.44718462 0.46582001 -0.24996489 0
0.60502994 0.48494029 -0.24122095 0
0.11781251 -0.43022633 -0.53705066 0
0.11675179 -0.34048694 -0.50595951 0
0.19131994 -0.31686991 -0.47960559 0
0.1740706 -0.2193082 -0.46904299 0
0.25927007 -0.23326856 -0.42899719 0
0.26280332 -0.15996397 -0.42021877 0
0.34586287 -0.11091501 -0.37377268 0
0.29342675 -0.062903762 -0.39551592 0
0.34540725 -0.038446844 -0.37203234 0
0.43813145 -0.047769845 -0.32357574 0
0.46156943 0.033095837 -0.33918497 0
0.55161285 0.070266426 -0.30040637 0
0.62465942 0.13646734 -0.24746427 0
0.12778294 -0.4742685 -0.49414194 0
0.22632754 -0.46147501 -0.46734732 0
0.30565226 -0.4560135 -0.4268328 0
0.29436743 -0.35950917 -0.42337787 0
0.38541234 -0.3690244 -0.37663651 0
0.3210181 -0.24064755 -0.39884961 0
0.38246405 -0.27245367 -0.36920738 0
0.46880412 -0.24956155 -0.32093573 0
0.40160644 -0.16354269 -0.3491295 0
0.49200606 -0.16701561 -0.30101061 0
0.46148276 -0.10755044 -0.31202096 0
0.55025268 -0.076391101 -0.27294219 0
0.68122613 -0.045992911 -0.2528258 0
0.59099138 0.028695285 -0.25967968 0
0.68370712 0.080056787 -0.24274123 0
0.7919122 0.082975924 -0.21826434 0
0.85781097 0.071543813 -0.20052212 0
0.4130882 -0.45667911 -0.37036204 0
0.49411118 -0.45984423 -0.33566731 0
0.4239372 -0.39024121 -0.35791111 0
0.5019387 -0.36082619 -0.31796655 0
0.55882299 -0.38186413 -0.29809168 0
0.5133394 -0.29083633 -0.30358127 0
0.58801603 -0.30129039 -0.27445886 0
0.70907855 -0.28594482 -0.25736669 0
0.55952036 -0.21255916 -0.27427745 0
0.72120488 -0.181714 -0.2442573 0
0.81982648 -0.19480783 -0.22350657 0
0.937379 -0.12857759 -0.19693184 0
0.71846044 -0.092052817 -0.23651248 0
0.82083726 -0.071658492 -0.2159375 0
0.94044363 -0.025943995 -0.18605241 0
0.91345263 0.014680862 -0.19587803 0
0.62922335 -0.49317962 -0.28611287 0
0.748891 -0.46958023 -0.25537598 0
0.59795213 -0.41260552 -0.28684688 0
0.72528207 -0.37564391 -0.25685048 0
0.86313701 -0.40394574 -0.22872826 0
0.83052766 -0.27595961 -0.22979742 0
0.85634828 -0.31158751 -0.21956956 0
0.97530854 -0.30397111 -0.20129088 0
0.95557964 -0.17038602 -0.19020504 0
0.90143383 -0.49464339 -0.2273322 0
-0.99545002 -0.28251719 -0.63573688 0
-0.92768282 -0.29763347 -0.65261543 0
-0.98814976 -0.16671729 -0.57504278 0
-0.9338603 -0.22031838 -0.60508138 0
-0.99183452 -0.036165655 -0.50612438 0
-0.9290275 -0.083918601 -0.53410482 0
-0.87313002 -0.15459177 -0.57292289 0
-0.99513811 0.078674957 -0.44791257 0
-0.94205457 0.017032564 -0.48124135 0
-0.86456406 -0.022915274 -0.50319612 0
-0.81410575 -0.048424959 -0.51903498 0
-0.97878975 0.1519004 -0.40805438 0
-0.91261172 0.094833136 -0.4391337 0
-0.81910777 0.048936278 -0.46787196 0
-0.97102326 0.29141772 -0.33771205 0
-0.89693177 0.23150688 -0.36835194 0
-0.82493871 0.16507789 -0.40584758 0
-0.77055538 0.12017274 -0.43053228 0
-0.97978348 0.38135469 -0.28622481 0
-0.90584999 0.34745061 -0.30551457 0
-0.82820332 0.29942364 -0.33355367 0
-0.75394225 0.23648947 -0.36906916 0
-0.70437288 0.19313836 -0.39529467 0
-0.91946447 0.48007047 -0.23454085 0
-0.8492142 0.4256686 -0.26267308 0
-0.78429413 0.37055182 -0.2969467 0
-0.73878425 0.29197282 -0.33726987 0
-0.64496684 0.2798816 -0.35102594 0
-0.79788899 0.4739607 -0.23603909 0
-0.69831586 0.43207893 -0.26371157 0
-0.96335864 -0.42607236 -0.7112 0
-0.89379007 -0.46543083 -0.73305511 0
-0.94714105 -0.29785329 -0.64226711 0
-0.91101229 -0.33231834 -0.66202503 0
-0.82210398 -0.39426827 -0.69640374 0
-0.76294625 -0.45415354 -0.72925711 0
-0.67415512 -0.49142534 -0.74648434 0
-0.93806827 -0.16709539 -0.5741027 0
-0.91415572 -0.23353249 -0.60930121 0
-0.82164586 -0.27761406 -0.63560987 0
-0.74988729 -0.32999074 -0.66526616 0
-0.68658125 -0.38131881 -0.69339681 0
-0.59767693 -0.45448816 -0.72978497 0
-0.52264464 -0.49542159 -0.74993473 0
-0.83358383 -0.17548391 -0.57808322 0
-0.79550874 -0.19894299 -0.59613508 0
-0.71073484 -0.25323126 -0.62440586 0
-0.62952584 -0.31512886 -0.65812004 0
-0.56713068 -0.37977016 -0.69049299 0
-0.46667159 -0.42278367 -0.71252048 0
-0.39707977 -0.47623938 -0.7407701 0
-0.84021318 -0.012331814 -0.49089652 0
-0.79160213 -0.096667349 -0.54261714 0
-0.72319996 -0.12364569 -0.55699545 0
-0.64144796 -0.19854286 -0.59632802 0
-0.56110299 -0.24723679 -0.6243723 0
-0.48810691 -0.29715025 -0.65223664 0
-0.39276397 -0.3689515 -0.68626153 0
-0.29774678 -0.42042583 -0.71445489 0
-0.23573208 -0.48116034 -0.74178529 0
-0.85465652 0.095209062 -0.43299884 0
-0.79403162 0.041682959 -0.46751282 0
-0.74285626 -0.0054376423 -0.49767184 0
-0.64351755 -0.069403738 -0.53231394 0
-0.5624007 -0.12942576 -0.56355405 0
-0.50123727 -0.18345129 -0.59240973 0
-0.42994624 -0.23879373 -0.62060547 0
-0.34977061 -0.25597006 -0.62998283 0
-0.2659781 -0.34687191 -0.67395747 0
-0.2122165 -0.39173734 -0.69811416 0
-0.12866485 -0.45364314 -0.73029661 0
-0.021125913 -0.49661833 -0.74539602 0
-0.70717216 0.12837204 -0.42607838 0
-0.67330039 0.067497551 -0.45905364 0
-0.5976038 0.0078424811 -0.49029571 0
-0.52964073 -0.065539658 -0.52946019 0
-0.43525642 -0.11638641 -0.55795854 0
-0.34448218 -0.16726315 -0.58102649 0
-0.26947224 -0.22987115 -0.61257654 0
-0.19408715 -0.28751159 -0.64331925 0
-0.099275351 -0.33753395 -0.67146528 0
-0.020269513 -0.39427483 -0.69555593 0
0.053541183 -0.4481945 -0.71663386 0
-0.67963028 0.17968896 -0.39920032 0
-0.58708882 0.11031532 -0.43801293 0
-0.51627147 0.072022319 -0.4590748 0
-0.45112938 0.0067836642 -0.49380645 0
-0.35706747 -0.039929986 -0.51754606 0
-0.27629584 -0.097338378 -0.54738677 0
-0.17598927 -0.15638912 -0.57542557 0
-0.14222503 -0.20360869 -0.60311151 0
-0.092529655 -0.27852643 -0.6383251 0
0.0073965788 -0.30658245 -0.65373445 0
0.075806618 -0.37421876 -0.6784032 0
-0.76651633 0.3345454 -0.30910188 0
-0.67309129 0.30732757 -0.32938915 0
-0.60928816 0.25484198 -0.36122859 0
-0.53924185 0.20167917 -0.39004242 0
-0.46163958 0.15095863 -0.4165071 0
-0.39773613 0.11127681 -0.44492859 0
-0.32736892 0.036751449 -0.4775458 0
-0.2428261 -0.012447357 -0.50320864 0
-0.15126997 -0.061270297 -0.53377485 0
-0.065890074 -0.13850087 -0.56964707 0
0.03039968 -0.20333856 -0.6020394 0
0.092284799 -0.26376009 -0.63074487 0
0.18109536 -0.33806133 -0.6619274 0
-0.7118876 0.400778 -0.27431932 0
-0.62023169 0.39098552 -0.28457969 0
-0.54264206 0.32822114 -0.32230371 0
-0.5099988 0.2789056 -0.35107148 0
-0.42216879 0.20753297 -0.38784719 0
-0.3230505 0.14753291 -0.42244533 0
-0.23863459 0.083199024 -0.45410705 0
-0.14833134 0.0078338981 -0.4969089 0
-0.061811328 -0.038314402 -0.51472718 0
-0.0009919405 -0.055954397 -0.52779734 0
0.058687806 -0.088468134 -0.54949641 0
0.12223315 -0.22133702 -0.60328186 0
0.21544123 -0.23303682 -0.61074436 0
-0.65270483 0.48025417 -0.23395029 0
-0.5535841 0.42642862 -0.26751524 0
-0.46072719 0.39785361 -0.28326952 0
-0.43569171 0.3211576 -0.32779127 0
-0.33892083 0.25177154 -0.36488989 0
-0.23433429 0.21620795 -0.38777551 0
-0.17467552 0.1574111 -0.4183521 0
-0.11226732 0.088961244 -0.45387945 0
-0.0393098 0.062023759 -0.47004467 0
0.061420918 0.01393199 -0.49256927 0
0.15591002 -0.091283083 -0.54197729 0
0.20801485 -0.11573988 -0.5585587 0
0.2290616 -0.18130338 -0.58358985 0
0.32848978 -0.22624725 -0.60065937 0
-0.46321607 0.46069247 -0.2527954 0
-0.3538481 0.39227816 -0.291787 0
-0.25406671 0.35107642 -0.31460011 0
-0.19585413 0.28620496 -0.35094118 0
-0.14685434 0.23598975 -0.37778544 0
-0.046899676 0.15767878 -0.41587651 0
0.069694042 0.10324657 -0.44735366 0
0.17758882 0.019994557 -0.48940364 0
0.26474571 -0.051664889 -0.52063119 0
0.35836363 -0.13025016 -0.55423218 0
-0.38271943 0.49459842 -0.23440234 0
-0.27696335 0.46206445 -0.25399268 0
-0.17320365 0.43617123 -0.27059704 0
-0.15557295 0.36590776 -0.31038713 0
-0.033447206 0.31395471 -0.34102368 0
0.032115579 0.25854343 -0.36581534 0
0.074939787 0.19790494 -0.39933619 0
0.18511039 0.13516104 -0.43004754 0
0.2997191 0.07799685 -0.46226934 0
0.40480375 0.024418414 -0.48135442 0
0.38777959 -0.032500267 -0.50771761 0
-0.051279187 0.43197161 -0.27654529 0
0.006142199 0.36908156 -0.30753288 0
0.061743557 0.33276683 -0.32544476 0
0.18762803 0.25487822 -0.36825493 0
0.29425442 0.19323784 -0.39766487 0
0.29184663 0.12128246 -0.43515503 0
0.42977571 0.10825115 -0.44324234 0
0.054357052 0.44189298 -0.26855034 0
0.17262977 0.36954838 -0.30401409 0
0.18550897 0.31912249 -0.33436677 0
0.29752159 0.2731874 -0.35700879 0
0.4461019 0.19283551 -0.40042749 0
0.54943573 0.1064446 -0.43594408 0
0.16532296 0.4904874 -0.24109229 0
0.17475098 0.45502418 -0.2619465 0
0.30424845 0.40886438 -0.28976005 0
0.45939422 0.28329915 -0.35705572 0
0.56852067 0.18068373 -0.39976984 0
0.4584716 0.41134602 -0.2897799 0
0.4749608 0.37335283 -0.31610778 0
0.5870508 0.25495625 -0.36409679 0
0.44356 0.46208191 -0.25825527 0
0.61837864 0.40519464 -0.29304057 0
0.62545264 0.37657636 -0.31134817 0
0.77546167 0.44581032 -0.27072668 0
0.14956176 -0.44366771 -0.60207725 0
0.1608963 -0.48321003 -0.64853311 0
0.24152768 -0.47379649 -0.72266608 0
0.17242372 -0.32764417 -0.56674314 0
0.27278948 -0.38974106 -0.68112183 0
0.17201889 -0.24235147 -0.51028359 0
0.17414892 -0.29102176 -0.56917548 0
0.30664718 -0.29111612 -0.63185513 0
0.20141518 -0.15592039 -0.47675347 0
0.24296343 -0.10420275 -0.44982302 0
0.32945907 -0.026506484 -0.4089756 0
0.4477427 0.041781604 -0.3994149 0
0.48552108 0.0082210898 -0.4238348 0
0.55501115 0.080978632 -0.34866396 0
0.57852948 0.12012148 -0.37002817 0
0.72419691 0.18521333 -0.39749432 0
0.75085711 0.30776596 -0.3361097 0
0.88167393 0.23441494 -0.3697232 0
0.88358033 0.27739894 -0.34551615 0
0.90688109 0.38968664 -0.29296631 0
0.13715577 -0.47583109 -0.54067218 0
0.1473825 -0.34171551 -0.50119334 0
0.16372418 -0.38979566 -0.52053422 0
0.23568273 -0.43493366 -0.48118019 0
0.22124445 -0.32509083 -0.47743347 0
0.27780747 -0.38397992 -0.45689845 0
0.24958313 -0.22384322 -0.45568958 0
0.29735172 -0.26679385 -0.43585688 0
0.31884408 -0.11288744 -0.41036928 0
0.37246466 -0.20614886 -0.39183503 0
0.38280892 -0.063940644 -0.37345636 0
0.41935539 -0.12260246 -0.35949248 0
0.46629798 0.015665054 -0.33480027 0
0.46524727 -0.073585153 -0.33274603 0
0.54739761 0.038108528 -0.30408317 0
0.63048875 0.092808008 -0.27108884 0
0.71360898 0.059929371 -0.25002313 0
0.68573141 0.14702767 -0.26993835 0
0.7991401 0.12948996 -0.22523701 0
0.15027475 -0.49190766 -0.50106269 0
0.32194138 -0.45194846 -0.44112736 0
0.37643802 -0.36215067 -0.40423775 0
0.43040574 -0.42643744 -0.38115156 0
0.44558895 -0.28762877 -0.36027455 0
0.49266219 -0.34328169 -0.33995453 0
0.47879732 -0.15128267 -0.33002442 0
0.53382874 -0.21117818 -0.30654103 0
0.5719372 -0.16366839 -0.28319627 0
0.55959535 -0.042548597 -0.28655142 0
0.59643674 -0.059954226 -0.27806383 0
0.71842468 -0.11998892 -0.25947011 0
0.72654331 0.0072988272 -0.24685431 0
0.81635749 -0.089426816 -0.2374855 0
0.81538272 0.024076045 -0.22923595 0
0.91197801 -0.020320475 -0.21198076 0
0.90940201 0.066014111 -0.20287323 0
0.50398159 -0.45868313 -0.35100868 0
0.55603588 -0.36797309 -0.31657469 0
0.58875573 -0.4731589 -0.31866607 0
0.6244626 -0.29115248 -0.27766284 0
0.658144 -0.36767954 -0.27530429 0
0.73702419 -0.29897052 -0.25919557 0
0.73552012 -0.1992029 -0.25619784 0
0.81980181 -0.25871193 -0.24185523 0
0.82213247 -0.15310133 -0.23763978 0
0.9274894 -0.22116721 -0.21429706 0
0.94365406 -0.088057339 -0.20169079 0
0.66469526 -0.44433045 -0.28380519 0
0.7383858 -0.44322538 -0.2688114 0
0.84678221 -0.36452591 -0.2379508 0
0.87511122 -0.47341239 -0.2432566 0
0.96940958 -0.40321314 -0.2244758 0
0.9496237 -0.2957837 -0.21951944 0
-0.71211737 -0.47800267 -0.74155241 0
-0.71695662 -0.36574203 -0.68513107 0
-0.65041178 -0.40590197 -0.70509017 0
-0.58411318 -0.45779526 -0.73146242 0
-0.7337566 -0.22999752 -0.61280978 0
-0.6613301 -0.26885146 -0.63482326 0
-0.5895195 -0.32750088 -0.66637307 0
-0.51055813 -0.4022615 -0.70389587 0
-0.41179687 -0.44479549 -0.72759819 0
-0.74615198 -0.10695133 -0.54813325 0
-0.67452276 -0.16947445 -0.57911444 0
-0.59728789 -0.23544639 -0.61580956 0
-0.52618504 -0.26220912 -0.63255024 0
-0.45793486 -0.34070241 -0.6700502 0
-0.37520343 -0.37853318 -0.69377589 0
-0.27393782 -0.43993467 -0.73003256 0
-0.75562954 0.032816142 -0.47586274 0
-0.70104831 -0.034173459 -0.5128215 0
-0.61911923 -0.093203336 -0.5448674 0
-0.54712003 -0.14974836 -0.57263291 0
-0.46222073 -0.19523782 -0.60021198 0
-0.38910156 -0.2609939 -0.63025296 0
-0.31375378 -0.30399126 -0.65370297 0
-0.23344469 -0.36127555 -0.68800306 0
-0.82213056 0.2040856 -0.38412338 0
-0.78541332 0.13941661 -0.41919714 0
-0.7027542 0.090549171 -0.44656354 0
-0.62325591 0.045853347 -0.47365743 0
-0.56160432 -0.032049119 -0.51092362 0
-0.47196209 -0.073013723 -0.53823155 0
-0.39449018 -0.12636298 -0.56657284 0
-0.31602722 -0.21276063 -0.60528344 0
-0.21798187 -0.22189724 -0.61488807 0
-0.19490045 -0.27465075 -0.64230549 0
-0.92040813 0.41238183 -0.26977986 0
-0.86721212 0.32163012 -0.31648421 0
-0.79792845 0.27980924 -0.34721071 0
-0.72205871 0.21260604 -0.38107935 0
-0.63515753 0.15856889 -0.41309375 0
-0.56309581 0.12154692 -0.43579915 0
-0.49248636 0.052203029 -0.46856159 0
-0.42781311 0.003490001 -0.49821341 0
-0.32642722 -0.058005273 -0.53228331 0
-0.25389796 -0.12162423 -0.561571 0
-0.20225251 -0.18701005 -0.5936892 0
-0.095387518 -0.18549693 -0.5993073 0
-0.98029351 0.48966709 -0.22432354 0
-0.89110518 0.45331663 -0.25012624 0
-0.8006916 0.40085217 -0.27875119 0
-0.73279953 0.32497862 -0.31821656 0
-0.63362253 0.28793448 -0.34069896 0
-0.59064716 0.2307162 -0.37400123 0
-0.51125675 0.17057818 -0.40609378 0
-0.4110871 0.11508834 -0.43578097 0
-0.35417873 0.057701737 -0.47242516 0
-0.27574569 0.024421096 -0.48875004 0
-0.20113516 -0.059892595 -0.5304867 0
-0.10171068 -0.12457186 -0.56564891 0
-0.74872088 0.45668513 -0.24938312 0
-0.66953731 0.41192484 -0.27444375 0
-0.59326398 0.36153826 -0.29938561 0
-0.51557207 0.29609066 -0.33824903 0
-0.43486273 0.23776436 -0.37249026 0
-0.36681622 0.19276115 -0.39783743 0
-0.29165268 0.12605208 -0.43562424 0
-0.20822901 0.082850575 -0.45880774 0
-0.1077981 -0.00014638901 -0.50141525 0
-0.097407341 -0.037099957 -0.52317327 0
-0.58961481 0.48899069 -0.23535027 0
-0.52628541 0.43184152 -0.26280919 0
-0.46549529 0.35789397 -0.3039363 0
-0.37233073 0.31873986 -0.3316378 0
-0.32719386 0.23746985 -0.37379572 0
-0.22295254 0.19632399 -0.40098742 0
-0.11732382 0.14183706 -0.42996672 0
-3.0577183e-05 0.057659745 -0.47693521 0
-0.47489443 0.48381823 -0.236359 0
-0.39662036 0.41710761 -0.2747854 0
-0.3125701 0.38666442 -0.2949307 0
-0.23196453 0.31544772 -0.3369576 0
-0.14514536 0.28682917 -0.35420212 0
-0.08640492 0.21053904 -0.39211252 0
-0.026697814 0.14719695 -0.42524418 0
-0.33942038 0.49328548 -0.23612216 0
-0.21307153 0.45631224 -0.25945985 0
-0.19439113 0.39743739 -0.29068783 0
-0.063030779 0.34134638 -0.32410645 0
-0.051740766 0.27697212 -0.35693049 0
0.071043432 0.24166572 -0.37935239 0
-0.098077714 0.45627385 -0.26271257 0
-0.054177642 0.41752687 -0.29154062 0
0.038560569 0.34792256 -0.32051754 0
0.011182666 0.47326928 -0.25587222 0
0.12636638 0.4679684 -0.26132852 0
-0.29375851 -0.44198817 -0.7212373 0
-0.28615588 -0.35628265 -0.6774826 0
-0.21369529 -0.40239656 -0.70351774 0
-0.12823832 -0.44964111 -0.72896582 0
-0.16277254 -0.31696767 -0.65948904 0
-0.094671488 -0.35621989 -0.68097842 0
0.00063884258 -0.41928422 -0.70941687 0
0.076465368 -0.48906565 -0.73864788 0
-0.10873544 -0.24827719 -0.62678218 0
-0.019905448 -0.31923676 -0.66335601 0
0.055503249 -0.34443176 -0.67078364 0
0.14150846 -0.41379249 -0.67181087 0
0.19864368 -0.46841413 -0.72082537 0
-0.015118957 -0.1531778 -0.57715344 0
0.039825678 -0.22320729 -0.61237389 0
0.12987018 -0.30044055 -0.62632072 0
0.18788016 -0.36615479 -0.62476611 0
0.26976085 -0.39861065 -0.68650705 0
0.30337954 -0.45027047 -0.70670748 0
-0.12738276 0.021496952 -0.4844735 0
-0.011275053 -0.027629435 -0.51521528 0
0.039258242 -0.082835078 -0.54331887 0
0.1293211 -0.15788913 -0.53633082 0
0.16222572 -0.22609812 -0.57588989 0
0.24626017 -0.28751612 -0.63619787 0
0.33585942 -0.310314 -0.63803959 0
-0.027192712 0.04692173 -0.47326779 0
0.084144354 -0.023924649 -0.51218557 0
0.17896497 -0.098773181 -0.51415408 0
0.26976764 -0.15212244 -0.56992364 0
0.31834745 -0.19515157 -0.59032315 0
0.36017478 -0.27257168 -0.62930012 0
0.077501893 0.10015029 -0.44905826 0
0.17553282 0.032631695 -0.48187029 0
0.26774383 -0.043611109 -0.45432293 0
0.29311788 -0.046190798 -0.52227962 0
0.381495 -0.12781858 -0.55492288 0
0.046619534 0.27433842 -0.35693341 0
0.17137289 0.18059617 -0.40869778 0
0.16854101 0.091409147 -0.45075333 0
0.30349469 0.025051832 -0.46686617 0
0.3954004 -0.01437813 -0.49848014 0
0.39098227 -0.069957554 -0.52700585 0
0.006860733 0.36992908 -0.30183491 0
0.14626223 0.29302639 -0.34792849 0
0.1598646 0.23488224 -0.37932372 0
0.29132724 0.17292702 -0.41169372 0
0.41548979 0.12736601 -0.43181446 0
0.40722704 0.052727401 -0.44850314 0
0.5206213 0.052520275 -0.46268111 0
0.12872261 0.41136873 -0.28797531 0
0.13471526 0.36028963 -0.31326276 0
0.26788849 0.29975593 -0.34405977 0
0.40347779 0.25935215 -0.36355481 0
0.4227047 0.21160519 -0.39248931 0
0.54163969 0.10510409 -0.40970653 0
0.23837858 0.42571181 -0.27685922 0
0.39295202 0.33588445 -0.32414591 0
0.54215991 0.18731636 -0.400033 0
0.65231931 0.13941878 -0.41923702 0
0.37932926 0.43711948 -0.27282169 0
0.56067085 0.33227116 -0.33328328 0
0.66974652 0.21857595 -0.38335335 0
0.53787851 0.43945426 -0.27543512 0
0.67125165 0.3913247 -0.2968277 0
0.69297242 0.35454738 -0.32204753 0
0.82603765 0.23759615 -0.36976534 0
0.67098808 0.48591024 -0.25170109 0
0.82924032 0.34961504 -0.31477314 0
0.99896443 0.24954671 -0.3627013 0
0.83368814 0.45105499 -0.26625234 0
0.9977988 0.30270994 -0.33462912 0
0.14547372 -0.47376126 -0.58401912 0
0.14270043 -0.35873687 -0.5281381 0
0.16500938 -0.37796354 -0.55066997 0
0.19440496 -0.2633462 -0.48791513 0
0.20602083 -0.1536541 -0.47063264 0
0.25370789 -0.2019493 -0.45152512 0
0.24503493 -0.082499743 -0.44420305 0
0.32131624 -0.12483281 -0.41031241 0
0.33411682 -0.21435791 -0.41261464 0
0.38372517 -0.063605547 -0.37283522 0
0.42577779 -0.019419074 -0.36240116 0
0.51835728 0.051711917 -0.33626816 0
0.635252 0.12766647 -0.28816074 0
0.1336056 -0.41533631 -0.50648844 0
0.20540762 -0.42779946 -0.48846847 0
0.2727145 -0.49149853 -0.47014129 0
0.286852 -0.35869402 -0.4502182 0
0.33280826 -0.44039094 -0.4348253 0
0.32282162 -0.28130364 -0.42471224 0
0.39571166 -0.35448766 -0.39371312 0
0.40617681 -0.22412056 -0.3760277 0
0.45178974 -0.2825709 -0.35684532 0
0.45167661 -0.15780699 -0.3452484 0
0.51618695 -0.20771509 -0.31526583 0
0.5332979 -0.0924595 -0.30101579 0
0.59145236 -0.012641132 -0.28517175 0
0.6625793 -0.06906271 -0.26489437 0
0.6517365 0.07410115 -0.25473827 0
0.76685035 0.0072903037 -0.24011332 0
0.7497077 0.13733488 -0.23608941 0
0.8003273 0.052250087 -0.23388183 0
0.88703358 0.029232621 -0.2104286 0
0.95628345 0.06941855 -0.1944077 0
0.44095516 -0.40867531 -0.37461573 0
0.51287854 -0.46702319 -0.34971431 0
0.49822831 -0.34710354 -0.33953556 0
0.5836972 -0.41873395 -0.31404144 0
0.52477789 -0.26639861 -0.31615937 0
0.59729493 -0.35125172 -0.29858381 0
0.58657205 -0.20901948 -0.28192785 0
0.69218135 -0.26164526 -0.27023947 0
0.70259154 -0.33205307 -0.27565932 0
0.67487681 -0.13635045 -0.26768023 0
0.74195743 -0.19492888 -0.25652954 0
0.79437029 -0.27532238 -0.25353661 0
0.77764976 -0.098470986 -0.24405515 0
0.89569569 -0.14468193 -0.21660051 0
0.87351203 -0.061054587 -0.21948838 0
0.99993348 -0.00048220158 -0.18588072 0
0.63017941 -0.48199731 -0.30468014 0
0.69673038 -0.40305156 -0.27449414 0
0.81598425 -0.4615593 -0.25623143 0
0.83289576 -0.34955829 -0.23763597 0
0.83831334 -0.27257061 -0.23190096 0
0.91584802 -0.34292698 -0.23134869 0
0.93766296 -0.40742767 -0.23264617 0
0.91522801 -0.24414986 -0.21871674 0
0.9863807 -0.44932729 -0.22702795 0
-0.56576461 -0.49196911 -0.75848162 0
-0.57135201 -0.37652725 -0.69836032 0
-0.51918977 -0.41252071 -0.72042251 0
-0.44397074 -0.47330552 -0.74942017 0
-0.58385205 -0.23189753 -0.62512207 0
-0.54200548 -0.29751772 -0.65977776 0
-0.44864869 -0.34815103 -0.68508112 0
-0.3723045 -0.39487129 -0.70900393 0
-0.29970682 -0.44992024 -0.73880607 0
-0.60907978 -0.10958371 -0.56165934 0
-0.55316138 -0.17786282 -0.59822929 0
-0.46916837 -0.21884936 -0.62051976 0
-0.3785001 -0.29088283 -0.65325093 0
-0.30480367 -0.33127469 -0.67741752 0
-0.24842072 -0.39409184 -0.70910692 0
-0.15477753 -0.45032316 -0.73743308 0
-0.059268951 -0.47887939 -0.75251102 0
-0.68072027 0.054777741 -0.47126368 0
-0.62927067 0.0082117319 -0.4987188 0
-0.55789745 -0.059209764 -0.5361113 0
-0.48536468 -0.09907639 -0.56110632 0
-0.40223926 -0.16421926 -0.59260392 0
-0.33001757 -0.20410269 -0.61333609 0
-0.25061959 -0.25492251 -0.63991064 0
-0.17036927 -0.31458753 -0.67068654 0
-0.092834711 -0.34894139 -0.68717921 0
-0.023598075 -0.41935003 -0.72062784 0
-0.75477302 0.27144909 -0.36217156 0
-0.71503818 0.19025663 -0.40243012 0
