# .PCD v0.7 - Point Cloud Data file format
VERSION 0.7
FIELDS x y z intensity
SIZE 4 4 4 4
TYPE F F F F
COUNT 1 1 1 1
WIDTH 1301
HEIGHT 1
VIEWPOINT 0 0 0 1 0 0 0
POINTS 1301
DATA ascii
0.45679486 -0.419236 -0.27922398 0
0.54384291 -0.42565829 -0.23469257 0
0.6132654 -0.3949101 -0.20605208 0
0.47837126 -0.33286643 -0.2711705 0
0.54192078 -0.32440275 -0.23813394 0
0.63884866 -0.32290995 -0.19455743 0
0.5616225 -0.2298848 -0.23126471 0
0.63917053 -0.21018332 -0.19363692 0
0.72597909 -0.21106273 -0.16027394 0
0.80521071 -0.21243817 -0.15224051 0
0.64696419 -0.12736338 -0.19043255 0
0.73490191 -0.12764132 -0.16391578 0
0.84369063 -0.12433356 -0.14787596 0
0.93203354 -0.11157823 -0.12831327 0
0.72910905 -0.042926371 -0.16778007 0
0.82138407 -0.039214671 -0.16057697 0
0.92670441 -0.017065287 -0.13790914 0
0.91832244 0.050203323 -0.14260477 0
0.99748468 0.085881948 -0.12817487 0
0.57935572 -0.46825463 -0.22087535 0
0.65517008 -0.44386971 -0.19042182 0
0.7486676 -0.43414456 -0.15348604 0
0.84248209 -0.42376673 -0.127866 0
0.95808423 -0.4080348 -0.107535 0
0.67863977 -0.36011916 -0.17952707 0
0.74545455 -0.33791459 -0.1534231 0
0.84355199 -0.33415699 -0.13326797 0
0.94726717 -0.33042896 -0.11246544 0
0.75491214 -0.26874191 -0.15188608 0
0.84755301 -0.25001395 -0.13741618 0
0.93408453 -0.22081876 -0.12130615 0
0.84585488 -0.47584271 -0.1255042 0
0.95397127 -0.44545591 -0.10597426 0
0.78900766 0.1842522 -0.36087263 0
0.84238744 0.19650918 -0.35413814 0
0.79187083 0.25163203 -0.34060419 0
0.87507331 0.27235216 -0.33190867 0
0.96200013 0.2989502 -0.32603189 0
0.79131424 0.35295439 -0.30984724 0
0.88778269 0.3648634 -0.30188993 0
0.96106946 0.37465113 -0.29717723 0
0.77151597 0.43956345 -0.27989304 0
0.86239648 0.44390213 -0.274995 0
0.95304286 0.46743894 -0.26389357 0
0.40740323 -0.15076846 -0.34698483 0
0.4319948 -0.099732161 -0.33655575 0
0.46647084 -0.055365801 -0.32111862 0
0.49782383 -0.0028361678 -0.30985591 0
0.56897461 0.052688122 -0.29565379 0
0.53178525 0.070108533 -0.29317179 0
0.612975 0.094238222 -0.28337011 0
0.68176889 0.14106858 -0.2970916 0
0.77525568 0.19140667 -0.25407669 0
0.29477012 -0.48651975 -0.40863651 0
0.27374482 -0.43876714 -0.38881019 0
0.3154552 -0.40654802 -0.37372679 0
0.40881634 -0.39188075 -0.33800668 0
0.32887852 -0.3183763 -0.3697598 0
0.41045022 -0.30565602 -0.34014094 0
0.48470414 -0.28863025 -0.30392671 0
0.36160147 -0.24040246 -0.36641198 0
0.42350709 -0.20734155 -0.33709762 0
0.50664592 -0.21344972 -0.29538417 0
0.58855045 -0.17170739 -0.2540375 0
0.50105643 -0.09863627 -0.30239347 0
0.58415985 -0.1130532 -0.25857708 0
0.65550411 -0.085991621 -0.22196755 0
0.53071976 -0.014598429 -0.29059923 0
0.60256946 -0.0010486841 -0.25617027 0
0.67831123 -0.017536461 -0.21992072 0
0.75721991 0.02358377 -0.18964556 0
0.68746614 0.091461837 -0.23342964 0
0.76947272 0.095811188 -0.20202726 0
0.87404323 0.10464787 -0.18169826 0
0.97242367 0.12433314 -0.1598323 0
0.78279316 0.17349821 -0.20859426 0
0.86624956 0.20936173 -0.18935668 0
0.98081255 0.17826533 -0.16217321 0
0.50752616 -0.49959797 -0.28395224 0
0.3537848 -0.46671379 -0.35673672 0
0.43562257 -0.44315106 -0.32298273 0
0.52802312 -0.41759932 -0.2762776 0
0.6004467 -0.40317434 -0.24001482 0
0.46316755 -0.36235029 -0.31225085 0
0.52848196 -0.33088601 -0.2793493 0
0.60910106 -0.33291501 -0.23756903 0
0.67724407 -0.31627262 -0.20795336 0
0.54717124 -0.24401122 -0.27326939 0
0.61175776 -0.23261255 -0.23924497 0
0.70360315 -0.22333771 -0.19593915 0
0.80428898 -0.19981533 -0.16701651 0
0.63461423 -0.15253639 -0.23007709 0
0.70327103 -0.12811458 -0.19638038 0
0.80351138 -0.12574404 -0.17266297 0
0.8853488 -0.13029987 -0.1614649 0
0.97923946 -0.11867964 -0.14310956 0
0.71745443 -0.048768401 -0.19334528 0
0.78296089 -0.018961668 -0.18292966 0
0.88857603 -0.011265635 -0.1688326 0
0.97698951 -0.011730433 -0.14796659 0
0.98224401 0.069239974 -0.15315834 0
0.64213455 -0.45043927 -0.22425714 0
0.73097003 -0.46069592 -0.18919653 0
0.81085086 -0.45229095 -0.15861911 0
0.65293932 -0.37107331 -0.21860665 0
0.72475958 -0.35224581 -0.18975642 0
0.80864775 -0.34220725 -0.15977916 0
0.92317247 -0.33448833 -0.1352717 0
0.7495476 -0.27698654 -0.17857689 0
0.80973518 -0.25620008 -0.16368973 0
0.91559398 -0.2259658 -0.14588162 0
0.93284714 -0.16444713 -0.14690423 0
0.8520565 -0.47645593 -0.14606422 0
0.92574334 -0.46263319 -0.13079649 0
0.52071524 0.064532459 -0.41160512 0
0.51768947 0.12792861 -0.38984191 0
0.59806287 0.14503527 -0.38070285 0
0.7004596 0.19103611 -0.36500895 0
0.78419721 0.19072497 -0.35984233 0
0.52092755 0.24789774 -0.35222429 0
0.59032845 0.23022944 -0.3519088 0
0.69190466 0.25122005 -0.34346434 0
0.7815485 0.25827563 -0.33917725 0
0.90636957 0.30114764 -0.32404181 0
0.96728814 0.2831378 -0.32363582 0
0.50503039 0.34213632 -0.3183338 0
0.59924698 0.33886319 -0.31726745 0
0.68008614 0.35167164 -0.30939466 0
0.76941872 0.36375004 -0.30559173 0
0.87695885 0.37598884 -0.29773179 0
0.96967983 0.38277704 -0.29184589 0
0.48423123 0.43255478 -0.28178886 0
0.56330031 0.42738861 -0.28407687 0
0.66826594 0.46390539 -0.27201608 0
0.77654469 0.43346572 -0.27879691 0
0.88746274 0.46921873 -0.26579201 0
0.95706713 0.47602242 -0.25929987 0
0.21495616 -0.47575587 -0.50378627 0
0.21848524 -0.37889212 -0.46636078 0
0.22197378 -0.29020613 -0.42698544 0
0.23469722 -0.19739962 -0.39378512 0
0.2828666 -0.16871327 -0.37313315 0
0.2635597 -0.12412822 -0.38404766 0
0.32462251 -0.087700129 -0.35522747 0
0.33429277 -0.020184875 -0.35569504 0
0.41069257 0.013838649 -0.32859409 0
0.46151721 0.029900372 -0.29261312 0
0.51973855 0.094680309 -0.31650591 0
0.59840202 0.12520707 -0.28910363 0
0.67935789 0.18184829 -0.30123031 0
0.66786563 0.17755312 -0.27086505 0
0.20586967 -0.47583687 -0.4460339 0
0.19114316 -0.4441461 -0.40275499 0
0.22150111 -0.39758801 -0.39587903 0
0.30370152 -0.40452456 -0.35534227 0
0.23669386 -0.32335347 -0.38307327 0
0.34027898 -0.31135267 -0.34036773 0
0.39354503 -0.28724247 -0.31505758 0
0.25320792 -0.23163944 -0.37793368 0
0.33760631 -0.20572627 -0.34506473 0
0.42910409 -0.20654869 -0.29960257 0
0.48088777 -0.18556964 -0.27338234 0
0.34564757 -0.13894343 -0.34328604 0
0.42104363 -0.099597335 -0.30736783 0
0.51435339 -0.097754002 -0.25906751 0
0.56854451 -0.071035087 -0.23141322 0
0.44279826 -0.020097613 -0.29938787 0
0.50650525 -0.0070875287 -0.26849678 0
0.60734868 -9.9360943e-05 -0.22333083 0
0.67709136 0.024702191 -0.19950813 0
0.53675842 0.066179514 -0.26526597 0
0.62096679 0.10638672 -0.23737484 0
0.69102049 0.10345519 -0.20830724 0
0.78611088 0.093107939 -0.18688998 0
0.88003826 0.11765862 -0.16715273 0
0.72529781 0.1838311 -0.21333399 0
0.79272699 0.17464536 -0.19084167 0
0.87748206 0.17461008 -0.16696525 0
0.94781888 0.19022095 -0.15376222 0
0.26421452 -0.46092278 -0.36356914 0
0.35596263 -0.42924064 -0.32887757 0
0.44248867 -0.43609607 -0.28429979 0
0.43687618 -0.32371998 -0.29150045 0
0.52434468 -0.31640273 -0.24587595 0
0.59290445 -0.30034983 -0.21451387 0
0.46623158 -0.26374245 -0.2782467 0
0.53009796 -0.23288924 -0.2456837 0
0.61727691 -0.2263999 -0.20369151 0
0.54681802 -0.14384699 -0.24017075 0
0.62466383 -0.12964588 -0.20108089 0
0.71370149 -0.14846587 -0.17617497 0
0.81622863 -0.11172527 -0.16263652 0
0.88954878 -0.086345613 -0.14940327 0
0.62037015 -0.048417985 -0.21006238 0
0.70438194 -0.024114668 -0.18620181 0
0.81130314 -0.017572999 -0.1705403 0
0.92206073 -0.0093482733 -0.14772117 0
0.73965621 0.040116966 -0.18764162 0
0.81046402 0.060169637 -0.17596182 0
0.89016747 0.071422935 -0.1628508 0
0.99164557 0.10452032 -0.14152673 0
0.48330104 -0.47285748 -0.26190534 0
0.54659605 -0.43324113 -0.23545718 0
0.65252483 -0.44574881 -0.19391987 0
0.56166506 -0.38423026 -0.2285862 0
0.64389563 -0.34870011 -0.19535926 0
0.73516655 -0.36110818 -0.16228637 0
0.82677209 -0.3498686 -0.14554012 0
0.95713353 -0.29722464 -0.12180966 0
0.66606963 -0.2372601 -0.18436527 0
0.73233652 -0.24394488 -0.16427994 0
0.82792497 -0.24051416 -0.15195036 0
0.93190718 -0.225326 -0.13008615 0
0.80430067 -0.16037244 -0.15795571 0
0.93611634 -0.1350823 -0.13494158 0
0.75307596 -0.46865243 -0.15667614 0
0.85021734 -0.44782853 -0.13800532 0
0.93804681 -0.46197248 -0.12055248 0
0.94887447 -0.3759343 -0.12036473 0
0.25639534 -0.43078405 -0.58902675 0
0.29354715 -0.47106993 -0.5963999 0
0.26205218 -0.38909262 -0.57111919 0
0.30870545 -0.33808142 -0.5566662 0
0.32289243 -0.25652921 -0.53039956 0
0.37027407 -0.22060174 -0.52029419 0
0.32292402 -0.15702397 -0.49990639 0
0.37259853 -0.1532765 -0.49404112 0
0.33016396 -0.07889086 -0.4730266 0
0.39300787 -0.060536027 -0.46214709 0
0.33529556 0.0043290854 -0.44491827 0
0.37495911 0.048204899 -0.42722252 0
0.47726798 0.053894103 -0.42186278 0
0.56405699 0.070815325 -0.41259825 0
0.30820727 0.1025902 -0.40358755 0
0.37748206 0.12963575 -0.39887291 0
0.48474669 0.15863621 -0.38858542 0
0.58388424 0.12733698 -0.39005399 0
0.67978787 0.14891911 -0.38137406 0
0.77830458 0.1769585 -0.36826786 0
0.3060708 0.22182494 -0.36372906 0
0.35179085 0.22334683 -0.36653167 0
0.48387861 0.24051988 -0.35850465 0
0.56910098 0.24427742 -0.35610443 0
0.67660451 0.24936765 -0.35055941 0
0.79020524 0.27053666 -0.34018442 0
0.87620366 0.27288765 -0.34045565 0
0.94910705 0.26482451 -0.33500275 0
0.28760499 0.30807114 -0.33161357 0
0.36551636 0.30653089 -0.33177102 0
0.46984184 0.32813632 -0.32772508 0
0.56055105 0.33247453 -0.32553005 0
0.67910874 0.34628266 -0.31992328 0
0.78120303 0.35638165 -0.30996901 0
0.85709715 0.3710534 -0.30324951 0
0.9565835 0.35268462 -0.30784878 0
0.25369257 0.40078139 -0.29521447 0
0.34607595 0.40152693 -0.29535434 0
0.44651365 0.42759287 -0.28977078 0
0.55067879 0.43251175 -0.28671962 0
0.64838326 0.44791114 -0.28251359 0
0.75557458 0.44895887 -0.27975154 0
0.83435106 0.41995549 -0.28205836 0
0.95092905 0.44670039 -0.27593604 0
0.34682047 0.49401259 -0.26233771 0
0.23444748 -0.46543676 -0.52413207 0
0.24298084 -0.37558687 -0.48938364 0
0.24277258 -0.28131801 -0.45184979 0
0.26828825 -0.27436715 -0.48833099 0
0.24777365 -0.18789071 -0.41300127 0
0.2649107 -0.18499613 -0.41399753 0
0.24662006 -0.13241225 -0.40606487 0
0.29699302 -0.10125959 -0.38717967 0
0.36342788 -0.064730763 -0.35111859 0
0.40059865 -0.0016778708 -0.34291396 0
0.48197103 0.052841365 -0.33245733 0
0.52452159 0.071044803 -0.29741523 0
0.58634877 0.10792619 -0.31010365 0
0.66234243 0.15985364 -0.278588 0
0.69267857 0.20662731 -0.29296002 0
0.7361263 0.20684206 -0.25794107 0
0.22603714 -0.41788578 -0.41287112 0
0.3140794 -0.40343213 -0.36229026 0
0.23632956 -0.32355416 -0.39425457 0
0.32524478 -0.30923361 -0.36120349 0
0.39010501 -0.29082179 -0.33051509 0
0.24450517 -0.23067766 -0.38926354 0
0.32233632 -0.20547217 -0.36597472 0
0.40512884 -0.20292389 -0.32595053 0
0.4787674 -0.17781615 -0.28964126 0
0.41724074 -0.12756103 -0.32256004 0
0.49507058 -0.10134172 -0.28381938 0
0.5716536 -0.073323488 -0.24440593 0
0.44065058 -0.034012735 -0.31414616 0
0.48952019 -0.0065343976 -0.29030785 0
0.58959067 0.0089455247 -0.2446582 0
0.67067051 0.01900661 -0.21378526 0
0.52054715 0.050944865 -0.2826063 0
0.59069741 0.076497972 -0.2619001 0
0.67887771 0.091470301 -0.22592309 0
0.76868987 0.10121381 -0.201693 0
0.83877575 0.12207168 -0.18595561 0
0.74178326 0.16902798 -0.22091535 0
0.83324242 0.20064634 -0.19049674 0
0.9515518 0.19082403 -0.15904793 0
0.27639198 -0.45235527 -0.36515453 0
0.35295558 -0.43866974 -0.34344354 0
0.42220998 -0.43235695 -0.30933714 0
0.50046313 -0.41584843 -0.26896349 0
0.4355011 -0.32999998 -0.30641055 0
0.51810455 -0.32517844 -0.2631228 0
0.56905425 -0.33638024 -0.23636454 0
0.51436782 -0.23441321 -0.2684634 0
0.59844708 -0.22101301 -0.2252267 0
0.67271769 -0.23773617 -0.19358581 0
0.54857385 -0.15096259 -0.25362599 0
0.61289203 -0.12590748 -0.22092941 0
0.66392887 -0.15124184 -0.19601184 0
0.79788852 -0.11979961 -0.17544028 0
0.63119304 -0.042033374 -0.21913821 0
0.70692563 -0.040512204 -0.19419226 0
0.79405677 -0.031883776 -0.17981333 0
0.88891542 -0.013845921 -0.1638633 0
0.97897077 -0.019545913 -0.14328685 0
0.7887367 0.04724896 -0.19202596 0
0.89363623 0.067513585 -0.17086142 0
0.99753344 0.10133445 -0.15084296 0
0.53802991 -0.46437615 -0.25128075 0
0.62350106 -0.45223945 -0.21716759 0
0.69543302 -0.46816272 -0.18902922 0
0.62218535 -0.35134447 -0.2157453 0
0.71541953 -0.3649413 -0.17919564 0
0.81421387 -0.34826869 -0.15492582 0
0.91466248 -0.29831785 -0.13693863 0
0.99665964 -0.31033248 -0.12348151 0
0.7007798 -0.26812273 -0.18315643 0
0.81200647 -0.24023831 -0.16171506 0
0.90001535 -0.23674339 -0.1461167 0
0.83104217 -0.16391677 -0.1660344 0
0.90296781 -0.15002429 -0.15304971 0
0.75715339 -0.49262744 -0.16672799 0
0.84134758 -0.46094197 -0.14450321 0
0.95234537 -0.48521364 -0.1277054 0
0.86128998 -0.38247031 -0.14239931 0
0.93021894 -0.37398332 -0.13247362 0
0.12120366 -0.45527279 -0.61173248 0
0.19075143 -0.44003522 -0.6024152 0
0.30663168 -0.45094907 -0.60239249 0
0.38958704 -0.45285314 -0.59748071 0
0.13054907 -0.34302241 -0.5767051 0
0.19377339 -0.34971869 -0.57269615 0
0.2837292 -0.35657036 -0.57103956 0
0.39672267 -0.3424837 -0.56102324 0
0.13072646 -0.30081517 -0.55796969 0
0.18793082 -0.24361402 -0.54065347 0
0.2794975 -0.26853251 -0.54064262 0
0.39267862 -0.2392326 -0.52821732 0
0.4417367 -0.22863549 -0.52041459 0
0.18133497 -0.17199808 -0.51381779 0
0.29126513 -0.17639452 -0.51065159 0
0.39473188 -0.14799929 -0.49962831 0
0.45747662 -0.1530562 -0.49621686 0
0.15049875 -0.081411004 -0.48049629 0
0.25224316 -0.073507249 -0.4787966 0
0.37177682 -0.059641778 -0.47095108 0
0.47710359 -0.037763774 -0.45910546 0
0.16330087 0.012220204 -0.44707903 0
0.2546072 0.025091946 -0.44426343 0
0.36634648 0.040328741 -0.43539476 0
0.45376039 0.053839505 -0.43113136 0
0.54799521 0.05287689 -0.42297265 0
0.627985 0.069415152 -0.41537422 0
0.17013985 0.12505943 -0.40775478 0
0.25912535 0.1092394 -0.41079593 0
0.37050295 0.12821692 -0.40493196 0
0.49453843 0.13139546 -0.40414608 0
0.55896294 0.13866639 -0.39617857 0
0.66658068 0.13224947 -0.3924267 0
0.81019998 0.19386417 -0.37025669 0
0.14066857 0.19579226 -0.37909439 0
0.23049396 0.19623852 -0.37942788 0
0.36372977 0.22883183 -0.36747599 0
0.48622656 0.22330803 -0.37078118 0
0.56815267 0.2302286 -0.36774147 0
0.6397115 0.22903442 -0.36343518 0
0.73197961 0.23650217 -0.35576314 0
0.81616998 0.29082316 -0.33832058 0
0.91546023 0.27072304 -0.34150225 0
0.1445033 0.2926597 -0.34278992 0
0.24271929 0.31731892 -0.33478048 0
0.33823663 0.31888425 -0.33344615 0
0.44888204 0.31158978 -0.33229044 0
0.54335845 0.33233798 -0.32770953 0
0.6237371 0.328453 -0.32651758 0
0.70617354 0.33432484 -0.32340372 0
0.82358277 0.36234438 -0.31620741 0
0.90813208 0.37788653 -0.30360213 0
0.065286994 0.40067565 -0.30031133 0
0.13584894 0.39754242 -0.30503839 0
0.23665857 0.41730696 -0.29635948 0
0.32945818 0.40240616 -0.30146822 0
0.43478554 0.4048512 -0.29902104 0
0.52301568 0.42192411 -0.29399508 0
0.61473578 0.44592559 -0.28646624 0
0.70621562 0.41005027 -0.29884604 0
0.81135046 0.44426197 -0.28643599 0
0.90126383 0.47109622 -0.27143919 0
0.046671987 0.48656446 -0.27002323 0
0.13153869 0.47569066 -0.27135283 0
0.22691882 0.47764593 -0.27302328 0
0.4023338 0.4958818 -0.26308995 0
0.72643399 0.49259394 -0.26842663 0
0.28915918 -0.46541268 -0.52414262 0
0.29135132 -0.38526934 -0.48853511 0
0.29400671 -0.29043525 -0.44848505 0
0.30418587 -0.19269341 -0.42088592 0
0.34248054 -0.16907674 -0.38591978 0
0.3067776 -0.11522448 -0.40999529 0
0.36668241 -0.11070693 -0.37909701 0
0.37888694 -0.02027148 -0.37783206 0
0.47365892 -0.0046231151 -0.33267951 0
0.55489445 0.043795288 -0.31514499 0
0.56334233 0.07707417 -0.32820114 0
0.67171729 0.13142806 -0.29869479 0
0.74546564 0.14804208 -0.29636204 0
0.75773048 0.18134785 -0.28730628 0
0.28416765 -0.42319691 -0.40525544 0
0.3640213 -0.42873973 -0.36722782 0
0.2939384 -0.32320184 -0.39395082 0
0.3852123 -0.31919515 -0.36061516 0
0.45951581 -0.30352205 -0.32493553 0
0.33001304 -0.24264264 -0.38892251 0
0.39077389 -0.23346424 -0.36118862 0
0.47542298 -0.21503311 -0.31990916 0
0.53717625 -0.18727642 -0.28917289 0
0.40977216 -0.15593529 -0.35434651 0
0.47779286 -0.11373049 -0.32215619 0
0.56660831 -0.1129933 -0.27624872 0
0.63184905 -0.089082003 -0.24238363 0
0.57700336 -0.0087715983 -0.27675363 0
0.64282668 0.0020025969 -0.24620923 0
0.74663603 0.0084485412 -0.20260355 0
0.68980372 0.065616786 -0.23801619 0
0.75532186 0.10004342 -0.21543768 0
0.85042083 0.092702627 -0.19596809 0
0.97567809 0.12322128 -0.17001489 0
0.76709116 0.19182193 -0.22584161 0
0.85854781 0.20551443 -0.20005384 0
0.96055675 0.17675138 -0.17520469 0
0.40966308 -0.44935101 -0.34466693 0
0.49883604 -0.4277271 -0.30010825 0
0.56397498 -0.40869313 -0.26627129 0
0.49909806 -0.32613635 -0.30378002 0
0.59229827 -0.34303749 -0.25450918 0
0.66491783 -0.30827552 -0.22184533 0
0.58086765 -0.2407822 -0.26373836 0
0.67515779 -0.2267862 -0.21751302 0
0.76888132 -0.20009679 -0.18678886 0
0.60422349 -0.16201317 -0.25435647 0
0.68146372 -0.13402659 -0.21515316 0
0.76575065 -0.11523616 -0.19189551 0
0.8597244 -0.11355394 -0.17886406 0
0.93388379 -0.10836911 -0.16132072 0
0.70798814 -0.025487304 -0.21009612 0
0.73472404 -0.061105788 -0.20045888 0
0.848189 -0.0056678057 -0.18757969 0
0.98673642 -0.020684481 -0.15506443 0
0.90641522 0.066792011 -0.18059003 0
0.96142495 0.064262629 -0.16691589 0
0.54263842 -0.49320459 -0.27436861 0
0.61275065 -0.45946062 -0.24537611 0
0.693928 -0.46813667 -0.21323729 0
0.79134166 -0.44062811 -0.17495644 0
0.70376217 -0.36144531 -0.20728636 0
0.80611134 -0.33386207 -0.17275214 0
0.90259922 -0.3416943 -0.14882597 0
0.96567285 -0.35463148 -0.14120552 0
0.77003276 -0.24058801 -0.18188488 0
0.88217127 -0.22792524 -0.1641916 0
0.98990762 -0.24360824 -0.14114708 0
0.97755277 -0.16488266 -0.14974579 0
0.83158123 -0.48396534 -0.16159409 0
0.92728496 -0.48746622 -0.13783693 0
0.93298411 -0.39962399 -0.13911593 0
0.99034584 -0.38527364 -0.13357335 0
0.10186148 -0.47210789 -0.614856 0
0.20652497 -0.4993279 -0.61805558 0
0.26133275 -0.44000858 -0.59591514 0
-0.093479633 -0.39385426 -0.59278131 0
-0.0012018681 -0.39522851 -0.59270561 0
0.10493517 -0.39560002 -0.58898324 0
0.18660557 -0.38341886 -0.58037078 0
0.3032583 -0.38313574 -0.57518351 0
0.35448933 -0.34495699 -0.56047606 0
-0.079374433 -0.31259638 -0.56438076 0
-0.021952271 -0.29274046 -0.55407441 0
0.080630779 -0.30080605 -0.55798531 0
0.17900121 -0.2960062 -0.55251551 0
0.26845694 -0.26731622 -0.53938866 0
0.39912808 -0.2899633 -0.54012221 0
-0.079970181 -0.24233437 -0.53591859 0
-0.016682208 -0.20397377 -0.52127564 0
0.072621942 -0.20621848 -0.52408773 0
0.16594279 -0.18722337 -0.51952726 0
0.30139589 -0.18954337 -0.51195973 0
0.38699722 -0.19505191 -0.51101345 0
0.45290446 -0.1884678 -0.50490999 0
-0.084898829 -0.14381444 -0.49691236 0
-0.030411065 -0.12701654 -0.49326381 0
0.074386656 -0.1420244 -0.49658251 0
0.17942572 -0.12615103 -0.49358615 0
0.27322233 -0.12059999 -0.49049446 0
0.40057015 -0.10701829 -0.48141214 0
0.47826481 -0.075107098 -0.46989635 0
-0.051148832 -0.021183729 -0.45718706 0
0.054876268 -0.031257868 -0.45685598 0
0.15516073 -0.01252538 -0.45364979 0
0.25734222 -0.017987311 -0.45450878 0
0.36626267 -0.019862771 -0.4539828 0
0.46187723 0.0020097494 -0.44407949 0
0.57226014 0.031493723 -0.42896506 0
0.66565573 0.064057946 -0.41446045 0
-0.047382593 0.070917189 -0.42360279 0
0.063651979 0.073456466 -0.41952994 0
0.17764527 0.10586113 -0.41097823 0
0.24593037 0.077533185 -0.41775835 0
0.33386648 0.10170466 -0.4116405 0
0.45555615 0.09105444 -0.41444659 0
0.54625368 0.094170928 -0.40835673 0
0.67091179 0.1233235 -0.3945215 0
-0.055808663 0.16553265 -0.38997665 0
0.048942149 0.16439813 -0.38650209 0
0.13826817 0.16518402 -0.38932768 0
0.232539 0.17649251 -0.38076535 0
0.33445477 0.19559854 -0.37416595 0
0.45328498 0.20037097 -0.37411964 0
0.58007908 0.16562134 -0.3833631 0
0.65237045 0.22188294 -0.36460617 0
0.77044749 0.21484405 -0.35970354 0
0.88372636 0.22657728 -0.35657182 0
-0.12111211 0.24352372 -0.35650194 0
-0.038881242 0.26662803 -0.35347113 0
0.04600358 0.26044935 -0.35319847 0
0.1521191 0.24664813 -0.35765877 0
0.22374815 0.28019089 -0.34449914 0
0.34475458 0.28800219 -0.34079248 0
0.45643395 0.28167182 -0.33922598 0
0.57150722 0.29374236 -0.33803108 0
0.67910647 0.31383222 -0.33090404 0
0.68755651 0.32095319 -0.33061036 0
0.84659243 0.33114374 -0.3199932 0
0.90229714 0.30247688 -0.33521128 0
-0.14265043 0.34356695 -0.31971157 0
-0.065281093 0.35197794 -0.31628075 0
0.04184103 0.33480638 -0.32476628 0
0.12653607 0.34312963 -0.32060909 0
0.22939259 0.37604791 -0.30719709 0
0.34477806 0.37236601 -0.30717373 0
0.445885 0.36152852 -0.31065029 0
0.53930485 0.40152675 -0.29488796 0
0.65944862 0.41334128 -0.2932266 0
0.77928853 0.37205058 -0.30795088 0
0.8344053 0.45405817 -0.28081924 0
0.88687682 0.42926139 -0.28817794 0
0.99122024 0.42481369 -0.28109008 0
-0.17651057 0.43296841 -0.28182366 0
-0.067462802 0.43311298 -0.28454882 0
0.035546541 0.4356755 -0.28675026 0
0.11726868 0.44985139 -0.28048494 0
0.23394382 0.47881126 -0.2693738 0
0.32869965 0.4832058 -0.26438606 0
0.42644519 0.47789603 -0.26902461 0
0.63206041 0.48770171 -0.26283082 0
0.85409606 0.47244608 -0.2655015 0
0.29679811 -0.495377 -0.55549765 0
0.38317502 -0.46744668 -0.59574246 0
0.29198992 -0.41515982 -0.50346577 0
0.40803874 -0.37558788 -0.56508553 0
0.30272412 -0.31766915 -0.46823567 0
0.3043927 -0.22296643 -0.43149391 0
0.31342626 -0.1319297 -0.42203093 0
0.36149561 -0.1197601 -0.38894749 0
0.39712763 -0.066483617 -0.3716034 0
0.47171319 -0.019569337 -0.35093066 0
0.60612035 0.059755623 -0.35237533 0
0.65795016 0.09681499 -0.31208661 0
0.73217177 0.11096323 -0.36150879 0
0.86952829 0.16796112 -0.37332585 0
0.77960718 0.15797418 -0.27459049 0
0.99489498 0.3759014 -0.29850739 0
0.28086972 -0.44036001 -0.41999146 0
0.29561508 -0.34839243 -0.40992203 0
0.39532506 -0.34772193 -0.36242783 0
0.45055056 -0.3037101 -0.33676264 0
0.31211829 -0.26324254 -0.39855611 0
0.38640797 -0.24710554 -0.3703818 0
0.46646523 -0.23376173 -0.33138582 0
0.40905905 -0.15436137 -0.36255375 0
0.4759109 -0.15114999 -0.32964164 0
0.56601977 -0.13690591 -0.28372854 0
0.48312485 -0.051433921 -0.3296586 0
0.55288494 -0.057955921 -0.29391524 0
0.64373028 -0.058783948 -0.25098825 0
0.58813286 0.034004092 -0.29011258 0
0.67299843 0.060474277 -0.26066282 0
0.7499429 0.070808053 -0.22415942 0
0.84978187 0.081730604 -0.20662558 0
0.78136051 0.13308394 -0.23284718 0
0.84873557 0.14740884 -0.21060234 0
0.93959749 0.14843786 -0.18629789 0
0.32268548 -0.47404134 -0.38010126 0
0.40373731 -0.46438479 -0.35345587 0
0.49785733 -0.45953274 -0.30655667 0
0.42627788 -0.40015656 -0.34532031 0
0.48695803 -0.36842906 -0.3160167 0
0.569875 -0.36814576 -0.27223331 0
0.51221979 -0.25924438 -0.30734202 0
0.57336998 -0.26865816 -0.27440146 0
0.67926729 -0.25530761 -0.22151178 0
0.57394958 -0.19260234 -0.27705988 0
0.66807747 -0.18114835 -0.22814706 0
0.75951087 -0.20292211 -0.19686902 0
0.87452257 -0.13038528 -0.18285993 0
0.6845392 -0.067537129 -0.22876707 0
0.78995776 -0.088705778 -0.19770285 0
0.87065554 -0.044645786 -0.19091111 0
0.95064247 -0.043723226 -0.17319155 0
0.78559327 0.016271591 -0.20064461 0
0.88150001 0.075126886 -0.19265848 0
0.95069313 0.047383189 -0.18117729 0
0.53692615 -0.49279529 -0.28474021 0
0.58688557 -0.47988462 -0.26188403 0
0.71334457 -0.47859347 -0.21110675 0
0.62087369 -0.39909405 -0.24655932 0
0.67790341 -0.36718047 -0.22335389 0
0.78535032 -0.380638 -0.1838226 0
0.78930461 -0.2644673 -0.18749923 0
0.89478564 -0.30469 -0.16363716 0
0.97429681 -0.28414482 -0.15352044 0
0.82366693 -0.21667182 -0.18598512 0
0.89827728 -0.1993531 -0.17291051 0
0.97449958 -0.14949453 -0.16120771 0
0.88934505 -0.40605146 -0.15845528 0
0.9966892 -0.38166708 -0.13901111 0
-0.19679213 -0.49821621 -0.64350444 0
-0.10769725 -0.47962385 -0.63439965 0
0.0028064251 -0.49244523 -0.63421464 0
0.11568141 -0.48235255 -0.62644571 0
-0.30935764 -0.41304618 -0.60995162 0
-0.22153002 -0.41111767 -0.60813046 0
-0.11935866 -0.41783804 -0.61307919 0
-0.035836935 -0.38746864 -0.59901386 0
0.084613323 -0.39635766 -0.60064137 0
0.16290057 -0.37493068 -0.58814752 0
-0.30904216 -0.31678951 -0.57371342 0
-0.22478771 -0.32169169 -0.57517815 0
-0.12067717 -0.32246298 -0.57778358 0
-0.030412078 -0.29693902 -0.5653007 0
0.091045141 -0.29132813 -0.56400013 0
0.1663723 -0.27483606 -0.55620188 0
0.23279655 -0.27280909 -0.55300844 0
-0.29711628 -0.2227996 -0.5404247 0
-0.22653949 -0.20508903 -0.53708822 0
-0.14562953 -0.2167353 -0.53893906 0
-0.051075399 -0.18202138 -0.52373523 0
0.056645036 -0.18831778 -0.52632844 0
0.18024302 -0.18604988 -0.52511442 0
0.24719155 -0.18294621 -0.52069318 0
0.3345449 -0.17403811 -0.5154705 0
-0.3080796 -0.15021491 -0.50866389 0
-0.25259054 -0.12176925 -0.50454855 0
-0.12721384 -0.11892503 -0.50246704 0
-0.043217003 -0.10513955 -0.49725458 0
0.022219837 -0.072987139 -0.48197258 0
0.15773749 -0.089085281 -0.49139613 0
0.25484788 -0.11159271 -0.4953793 0
0.34420931 -0.089642465 -0.48491755 0
-0.30230266 -0.049166441 -0.47384205 0
-0.24412739 -0.0194906 -0.46694177 0
-0.14835167 -0.016372979 -0.46487799 0
-0.056268156 -0.0098170042 -0.46317825 0
0.095012069 -0.0064922571 -0.45620257 0
0.13272691 -0.029448628 -0.46799335 0
0.25206387 0.022973895 -0.45110735 0
0.35232568 0.0088096857 -0.45039505 0
0.45438719 0.019277513 -0.44735211 0
-0.3137511 0.056807578 -0.4332816 0
-0.24091035 0.060219109 -0.4353081 0
-0.16225141 0.07381618 -0.42787778 0
-0.06057018 0.080888331 -0.42975804 0
0.022060931 0.075079203 -0.42901993 0
0.14074212 0.089194477 -0.42375559 0
0.25525349 0.085189581 -0.42354041 0
0.35168099 0.11747581 -0.41138035 0
0.45488 0.12765259 -0.40752214 0
0.5590601 0.13412189 -0.40489897 0
-0.32647598 0.13058794 -0.40464336 0
-0.25496322 0.17572585 -0.39201593 0
-0.17221266 0.17719376 -0.39013124 0
-0.076987565 0.17992681 -0.39144611 0
0.064212203 0.20149928 -0.38261637 0
0.14748365 0.17741597 -0.39115062 0
0.25517768 0.20159239 -0.38307515 0
0.35551149 0.22606343 -0.37474728 0
0.44236469 0.205818 -0.37650937 0
0.56996071 0.22925395 -0.37375718 0
0.66137314 0.26857924 -0.35564023 0
-0.34292752 0.24749133 -0.36181641 0
-0.27957308 0.25118068 -0.36070707 0
-0.18341446 0.27977544 -0.354303 0
-0.086021006 0.27718228 -0.35673958 0
0.012773335 0.26774675 -0.36102903 0
0.12860662 0.28056628 -0.35289904 0
0.23757982 0.29173255 -0.34775388 0
0.33922571 0.29548001 -0.3466779 0
0.43754727 0.3016569 -0.34256035 0
0.55067599 0.32325596 -0.3359254 0
0.62047005 0.3187753 -0.34167296 0
0.79390407 0.32069087 -0.33838964 0
-0.36824557 0.33276415 -0.32839534 0
-0.28071702 0.34466425 -0.32408476 0
-0.16587633 0.34805882 -0.32586408 0
-0.10197234 0.38207933 -0.31463283 0
-0.015026331 0.36430687 -0.32250673 0
0.11079937 0.38186908 -0.31520486 0
0.2391023 0.39777732 -0.31308025 0
0.31490546 0.3787874 -0.31254163 0
0.41459191 0.40092278 -0.30336979 0
0.54477751 0.40123546 -0.30815786 0
0.6442734 0.38058615 -0.31210154 0
0.67113614 0.38046908 -0.31946859 0
0.78635955 0.43353057 -0.29596537 0
-0.3972764 0.42858315 -0.28910041 0
-0.29229829 0.43208173 -0.28996202 0
-0.20002323 0.44144887 -0.28821093 0
-0.10272801 0.46282923 -0.28262633 0
0.0059608221 0.44298834 -0.28935188 0
0.099274397 0.46767879 -0.28348821 0
0.20494235 0.46959066 -0.28146333 0
0.29540938 0.4875021 -0.27244192 0
0.39474618 0.47888112 -0.27293453 0
0.52130705 0.4826172 -0.27522314 0
0.66323626 0.48729515 -0.28156683 0
0.77197707 0.47552985 -0.27803966 0
0.17362309 -0.49080491 -0.62430477 0
0.28016102 -0.48409933 -0.57679284 0
0.37291503 -0.4544456 -0.60250252 0
0.43969333 -0.43394059 -0.59574008 0
0.20372975 -0.37308049 -0.58422494 0
0.28418195 -0.39155948 -0.52926224 0
0.37311268 -0.35392427 -0.56992495 0
0.45754647 -0.36558813 -0.57140756 0
0.2965306 -0.29477239 -0.49803397 0
0.3984251 -0.26088703 -0.53984058 0
0.49056697 -0.24810839 -0.53323042 0
0.29602349 -0.20961469 -0.43457928 0
0.405123 -0.20170683 -0.51679742 0
0.5001893 -0.18401873 -0.50905836 0
0.30643487 -0.13604969 -0.42185 0
0.33111537 -0.11847591 -0.40359882 0
0.43088794 -0.098511875 -0.48486337 0
0.51578462 -0.089872599 -0.47609866 0
0.36463475 -0.047632396 -0.38938919 0
0.42566824 -0.019513786 -0.36601815 0
0.52656686 0.034360945 -0.40073106 0
0.63231707 0.055149972 -0.42594028 0
0.72776389 0.083190203 -0.40540907 0
0.63301337 0.12089711 -0.36711904 0
0.72946322 0.14638335 -0.33777896 0
0.65387547 0.21378338 -0.37323564 0
0.76275539 0.21690631 -0.36659265 0
0.90988266 0.23836231 -0.36114642 0
0.78318298 0.33256245 -0.33018449 0
0.90482938 0.31651837 -0.33086756 0
0.7827816 0.37873763 -0.31377393 0
0.90822756 0.42914516 -0.29243469 0
0.26691234 -0.43242514 -0.44431317 0
0.28619206 -0.33047312 -0.41752535 0
0.36060441 -0.33100587 -0.38195503 0
0.29121542 -0.23757803 -0.4081547 0
0.37835562 -0.24220824 -0.37605771 0
0.45038056 -0.20426559 -0.34185979 0
0.39071977 -0.12017971 -0.37411204 0
0.4631362 -0.12483829 -0.33825389 0
0.51276743 -0.13800257 -0.31285244 0
0.46614754 -0.031166255 -0.33990309 0
0.54951572 -0.029791117 -0.29832363 0
0.62304604 -0.012059689 -0.26610953 0
0.51956522 0.03944397 -0.32628718 0
0.63720834 0.073656797 -0.28295794 0
0.71266615 0.10672379 -0.25585181 0
0.76818037 0.13517326 -0.22762054 0
0.83000255 0.17760956 -0.22176743 0
0.27853167 -0.47104388 -0.39131698 0
0.40229034 -0.44926834 -0.35729188 0
0.46890831 -0.4583624 -0.32362396 0
0.4065969 -0.36067784 -0.35823947 0
0.47996473 -0.33561498 -0.32237244 0
0.56549859 -0.33012986 -0.27751875 0
0.48784232 -0.24091971 -0.32180893 0
0.55527401 -0.24720025 -0.28615749 0
0.64735627 -0.22861403 -0.23805934 0
0.57895076 -0.16115582 -0.27689388 0
0.65880454 -0.16943455 -0.23425475 0
0.66804636 -0.05592066 -0.23855877 0
0.7379756 -0.052563488 -0.20948932 0
0.8600111 -0.051385641 -0.19549045 0
0.95491338 -0.042319894 -0.17563573 0
0.75046265 0.049245596 -0.22710231 0
0.85296428 0.081148863 -0.20405179 0
0.92779756 0.063886523 -0.18928874 0
0.50305939 -0.47590178 -0.30499068 0
0.56919742 -0.47429401 -0.27238518 0
0.66841245 -0.45244116 -0.23178405 0
0.60408604 -0.37429929 -0.25674617 0
0.67533433 -0.35392648 -0.22715083 0
0.7494837 -0.33559155 -0.19742665 0
0.67712152 -0.27576292 -0.22499043 0
0.77862704 -0.26846272 -0.1874491 0
0.89490175 -0.26127857 -0.16818407 0
0.98090267 -0.26843274 -0.14967322 0
0.71730447 -0.18519789 -0.20743158 0
0.74361861 -0.17295969 -0.20150673 0
0.86302674 -0.1831373 -0.18756655 0
0.96581244 -0.14937812 -0.16051903 0
0.783108 -0.47873062 -0.18789205 0
0.88956594 -0.49548751 -0.15726483 0
0.80101264 -0.38121331 -0.17859039 0
0.92570436 -0.34253597 -0.15002909 0
0.98255789 -0.37888217 -0.14349428 0
-0.60389078 -0.43237615 -0.61668795 0
-0.53687948 -0.42564893 -0.61524284 0
-0.43617743 -0.40848762 -0.61274236 0
-0.3559925 -0.36466318 -0.59799325 0
-0.59909278 -0.32642168 -0.57368308 0
-0.54852474 -0.32052088 -0.57848889 0
-0.44742763 -0.32304507 -0.57736838 0
-0.36642981 -0.30212235 -0.57523477 0
-0.54804522 -0.23021543 -0.54315174 0
-0.4536401 -0.22727567 -0.5433104 0
-0.39738917 -0.19059843 -0.53303844 0
-0.55279464 -0.14026019 -0.50873148 0
-0.4445591 -0.14215088 -0.51131159 0
-0.38646275 -0.104617 -0.49779165 0
-0.56241024 -0.045606703 -0.47263029 0
-0.45531905 -0.036042035 -0.47517356 0
-0.37547624 -0.021431327 -0.46815652 0
-0.56342638 0.073055178 -0.43243256 0
-0.47962874 0.058923542 -0.43713623 0
-0.38471019 0.06185317 -0.43602777 0
-0.28392732 0.072723985 -0.43327403 0
-0.21010011 0.11940581 -0.4183009 0
-0.58049011 0.12680879 -0.40813977 0
-0.47522753 0.14736518 -0.40239435 0
-0.37397313 0.16248429 -0.39639676 0
-0.29649359 0.13048163 -0.40962851 0
-0.21956712 0.1491639 -0.40530783 0
-0.59551096 0.22827667 -0.36879867 0
-0.48692751 0.23710272 -0.36490327 0
-0.40385967 0.24129623 -0.36527535 0
-0.32447863 0.26442328 -0.35702348 0
-0.66155148 0.33795202 -0.32594165 0
-0.60359627 0.32699239 -0.33188215 0
-0.50574112 0.33740166 -0.32781428 0
-0.42898184 0.34058669 -0.32369292 0
-0.32314244 0.35478953 -0.32183802 0
-0.16009057 0.32238409 -0.34308517 0
-0.68755168 0.4047417 -0.29896039 0
-0.60132051 0.40904421 -0.29833922 0
-0.48467106 0.43676835 -0.28597531 0
-0.39764175 0.43446374 -0.28863019 0
-0.31173494 0.4241941 -0.29651713 0
-0.12871432 -0.46270025 -0.62950635 0
-0.029940128 -0.46897489 -0.62879002 0
0.086307287 -0.46947175 -0.62404287 0
0.19619608 -0.47046834 -0.61808336 0
0.2832408 -0.47791028 -0.61621118 0
0.37375462 -0.4829393 -0.61173153 0
-0.38645363 -0.44909477 -0.62042016 0
-0.30240953 -0.3866173 -0.6013276 0
-0.23880106 -0.41396588 -0.61103851 0
-0.13728154 -0.39279389 -0.60320163 0
-0.018923402 -0.39213049 -0.59930056 0
0.071228743 -0.36744165 -0.59061944 0
0.14355302 -0.37864298 -0.58987141 0
0.2635746 -0.38248897 -0.58612204 0
0.3693682 -0.36426574 -0.57423764 0
0.41560662 -0.31867599 -0.55479509 0
-0.34805703 -0.29972678 -0.56710589 0
-0.24367785 -0.3117466 -0.57307756 0
-0.15595496 -0.3066197 -0.57065248 0
-0.034329414 -0.2964384 -0.56758863 0
0.093719244 -0.26164353 -0.55543888 0
0.16055202 -0.29021114 -0.55838883 0
0.24687123 -0.26233673 -0.54798126 0
0.34763157 -0.23526293 -0.53580904 0
0.43876338 -0.23579967 -0.52884197 0
-0.42269033 -0.21723533 -0.53394473 0
-0.36105162 -0.19344032 -0.52675503 0
-0.24015385 -0.20450002 -0.5340001 0
-0.14507955 -0.20828354 -0.53571415 0
-0.071961403 -0.2045002 -0.53620487 0
0.0096902251 -0.20303804 -0.53398937 0
0.13537693 -0.16462576 -0.52125609 0
0.23627317 -0.16207856 -0.51903969 0
0.36638439 -0.16001964 -0.5118435 0
0.44862163 -0.16360223 -0.50180465 0
-0.28048837 -0.11835968 -0.50316238 0
-0.16480136 -0.11634445 -0.4999215 0
-0.075524867 -0.11138034 -0.49900454 0
0.019120753 -0.1113345 -0.5021463 0
0.13024426 -0.088552356 -0.49021679 0
0.22496951 -0.098260939 -0.4951095 0
0.3537209 -0.072063088 -0.4808591 0
0.47407579 -0.072230339 -0.47464141 0
-0.28658068 -0.013943017 -0.46308428 0
-0.18732029 -0.014427304 -0.46511355 0
-0.082940578 -0.037676454 -0.46932977 0
0.021489799 -0.013115585 -0.46624455 0
0.10269368 -0.0069592595 -0.46107352 0
0.1901257 0.0062736869 -0.45435888 0
0.29714441 0.01675266 -0.45580092 0
0.39834785 0.04791826 -0.44063994 0
0.52790058 0.018107712 -0.44418374 0
0.60455143 0.077243984 -0.42000735 0
-0.30483246 0.068990707 -0.42843649 0
-0.16204947 0.074804187 -0.43184239 0
-0.07714963 0.094709039 -0.42399019 0
0.012834013 0.088483572 -0.42699984 0
0.11861497 0.1301263 -0.41673431 0
0.19058406 0.11462903 -0.4155398 0
0.28718525 0.1050688 -0.42035806 0
0.38980412 0.1283738 -0.40879509 0
0.51576293 0.12415403 -0.4128485 0
0.62000275 0.16088879 -0.39313853 0
0.7129848 0.12799484 -0.39842629 0
0.86948371 0.17464375 -0.38161105 0
-0.277879 0.16726321 -0.39070362 0
-0.15829676 0.17647594 -0.39263612 0
-0.087559462 0.17785859 -0.39224738 0
0.018025815 0.20817477 -0.38672853 0
0.10015452 0.20406884 -0.38538259 0
0.20741832 0.20809585 -0.37863684 0
0.32308 0.16837382 -0.39155418 0
0.38829017 0.25910753 -0.3624818 0
0.51356709 0.21964186 -0.37698603 0
0.62306201 0.21911144 -0.37189624 0
0.73185515 0.25263739 -0.3568081 0
0.88981616 0.26146507 -0.35420001 0
-0.29505837 0.2571415 -0.35790467 0
-0.17388821 0.24514389 -0.36518756 0
-0.097782135 0.28018498 -0.35502267 0
0.0046777129 0.27233177 -0.36121908 0
0.089389503 0.27087039 -0.35945979 0
0.19082654 0.31400067 -0.34652096 0
0.27087271 0.30164587 -0.34701607 0
0.37722611 0.28393734 -0.35071668 0
0.48263049 0.29801798 -0.3406707 0
0.63982546 0.31667596 -0.34161392 0
0.75242972 0.36543334 -0.32094145 0
0.88769853 0.35351759 -0.31935647 0
-0.26829648 0.3174541 -0.33592609 0
-0.19368124 0.33475322 -0.3304137 0
-0.13804287 0.36052671 -0.31818989 0
-0.021045744 0.37315655 -0.32092777 0
0.084759057 0.37854207 -0.31724489 0
0.2048403 0.37823403 -0.31607491 0
0.26571661 0.3711412 -0.32207185 0
0.36809355 0.38553333 -0.31368357 0
0.48216861 0.41792572 -0.29987428 0
0.62956369 0.41192359 -0.3057012 0
0.74401021 0.4271872 -0.29656807 0
0.89966774 0.45700866 -0.28623402 0
-0.21875983 0.44958943 -0.2871297 0
-0.13489193 0.46479931 -0.28521007 0
-0.040591538 0.47894636 -0.28154194 0
0.046586633 0.49275982 -0.27521512 0
0.18963623 0.47855389 -0.27908188 0
0.35138124 0.46421266 -0.28288043 0
0.61037236 0.49823171 -0.27135268 0
0.26783919 -0.49815857 -0.51960832 0
0.27771974 -0.39298928 -0.49499214 0
0.2773515 -0.30501467 -0.44955894 0
0.28522861 -0.21395367 -0.4335736 0
0.35241282 -0.21087801 -0.38236415 0
0.29330242 -0.11311412 -0.42099717 0
0.34150589 -0.1250897 -0.39519602 0
0.42089522 -0.10474885 -0.35206574 0
0.33882523 -0.043265224 -0.39459026 0
0.42661524 -0.0092342496 -0.35973728 0
0.5015415 0.012398839 -0.33059013 0
0.57820868 0.053006411 -0.28433841 0
0.6199832 0.092773974 -0.30221584 0
0.714993 0.12925911 -0.30239704 0
0.7319653 0.1688453 -0.29561415 0
0.2722882 -0.42847234 -0.40060943 0
0.37086177 -0.44773227 -0.36539879 0
0.28049862 -0.33104759 -0.40000513 0
0.35519612 -0.34731251 -0.37434769 0
0.4410845 -0.3338086 -0.33442813 0
0.38970375 -0.24660182 -0.36276078 0
0.45775139 -0.25344044 -0.32874796 0
0.52795184 -0.22296953 -0.29339075 0
0.4691813 -0.15198845 -0.32653356 0
0.55881953 -0.14458293 -0.28005558 0
0.61842954 -0.12169814 -0.24913573 0
0.54270983 -0.051543057 -0.29209834 0
0.65811622 -0.032545984 -0.2391293 0
0.69976723 0.0089743733 -0.22875842 0
0.62562096 0.055597186 -0.26269099 0
0.736341 0.081943095 -0.22469461 0
0.87599504 0.091072559 -0.19560871 0
0.74698746 0.13688409 -0.23346531 0
0.85139942 0.13256186 -0.20451722 0
0.9705925 0.18695414 -0.17555001 0
0.39276218 -0.49474913 -0.3530446 0
0.46320331 -0.4615584 -0.3184422 0
0.53300905 -0.44258046 -0.28214866 0
0.48897433 -0.36341923 -0.30873153 0
0.56825101 -0.35406506 -0.26755193 0
0.56559968 -0.27478993 -0.27137104 0
0.6725837 -0.2771402 -0.22058097 0
0.74138176 -0.24753422 -0.19258198 0
0.66600049 -0.16414392 -0.22304386 0
0.84956694 -0.14117014 -0.17965537 0
0.90751708 -0.15938056 -0.17041665 0
0.7863431 -0.037507057 -0.20131013 0
0.84961998 -0.06262207 -0.18792415 0
0.99389613 -0.027994514 -0.15906903 0
0.88635039 0.03338635 -0.18752798 0
0.96877575 0.047321558 -0.17399251 0
0.58713448 -0.48359478 -0.25832716 0
0.6643914 -0.47649419 -0.22744046 0
0.7508558 -0.45860112 -0.19272611 0
0.62344611 -0.41185588 -0.24250886 0
0.69082916 -0.36126655 -0.21476936 0
0.7549876 -0.36353362 -0.18924618 0
0.83866751 -0.37177342 -0.16877651 0
0.92885387 -0.34777957 -0.15078485 0
0.82009637 -0.28233546 -0.17925376 0
0.97670829 -0.28368121 -0.14546552 0
0.96485305 -0.18100059 -0.1538296 0
0.85139954 -0.46145046 -0.16106075 0
0.98576462 -0.43642741 -0.1330598 0
0.9634546 -0.37803668 -0.13997689 0
-0.1750766 -0.49943709 -0.63585013 0
-0.084741712 -0.4967314 -0.63367224 0
0.0077340603 -0.46869403 -0.62081599 0
-0.88654518 -0.47523332 -0.62587106 0
-0.77575552 -0.44840765 -0.61577421 0
-0.67289984 -0.43247586 -0.61124605 0
-0.57330787 -0.45898062 -0.61992764 0
-0.48093927 -0.40735525 -0.60327983 0
-0.37856096 -0.4312402 -0.61106539 0
-0.27422631 -0.39758843 -0.59908533 0
-0.17845905 -0.4382093 -0.607939 0
-0.07494843 -0.41896635 -0.60480177 0
0.025926232 -0.38425922 -0.59203976 0
0.12985218 -0.34117442 -0.57691395 0
-0.88086778 -0.37431791 -0.58818603 0
-0.78138822 -0.36925265 -0.58473516 0
-0.67957187 -0.33994406 -0.57439345 0
-0.58708644 -0.32399029 -0.57303178 0
-0.49285859 -0.34662908 -0.57973206 0
-0.39131218 -0.32628512 -0.56879699 0
-0.27864426 -0.32407987 -0.57035458 0
-0.14931464 -0.29877079 -0.56315172 0
-0.062886834 -0.3163622 -0.56774938 0
0.042735577 -0.28555751 -0.55862373 0
0.12663901 -0.31429482 -0.56342685 0
-0.87686634 -0.27557209 -0.55007666 0
-0.77822483 -0.25844061 -0.54519981 0
-0.68126804 -0.26073086 -0.54414225 0
-0.59812433 -0.23496711 -0.53729558 0
-0.48376077 -0.24124819 -0.54099774 0
-0.37259364 -0.22355241 -0.53562349 0
-0.29051846 -0.19949734 -0.52868062 0
-0.19418305 -0.23025203 -0.53629214 0
-0.052979648 -0.20850319 -0.52892232 0
0.042552352 -0.21420217 -0.53029263 0
0.14565396 -0.21498519 -0.53051722 0
-0.88163757 -0.17429978 -0.51156789 0
-0.79878104 -0.167202 -0.5091731 0
-0.69585824 -0.16935194 -0.51059592 0
-0.58896101 -0.14579508 -0.50380617 0
-0.46563995 -0.16381139 -0.51123482 0
-0.37313008 -0.1463905 -0.50619167 0
-0.2959727 -0.12636262 -0.49901387 0
-0.18632251 -0.12844151 -0.49756846 0
-0.058339298 -0.14662683 -0.50322723 0
0.050038338 -0.12133801 -0.49733505 0
0.14945245 -0.10498321 -0.48950702 0
0.16323543 -0.11622649 -0.49884623 0
-0.88721967 -0.093221247 -0.4777143 0
-0.8025645 -0.094110161 -0.4813906 0
-0.71441889 -0.048870385 -0.4678995 0
-0.61350799 -0.060036898 -0.46952915 0
-0.50178081 -0.062869549 -0.47302574 0
-0.40406042 -0.033085525 -0.46420979 0
-0.29549646 -0.03042835 -0.46390224 0
-0.22006357 -0.01245594 -0.45644778 0
-0.11142117 -0.0048649907 -0.45384568 0
-0.041436911 -0.02818656 -0.4648813 0
0.083252966 -0.033845782 -0.46398219 0
0.16319209 -0.038797677 -0.46945846 0
0.25898266 -0.033788323 -0.46616384 0
-0.88998806 -0.00026553869 -0.44441798 0
-0.80524814 0.025174409 -0.43865845 0
-0.73480999 0.02445367 -0.43755797 0
-0.61999005 0.0411717 -0.43199068 0
-0.52499866 0.049729794 -0.42970175 0
-0.43229479 0.044665098 -0.43246335 0
-0.30611914 0.053647876 -0.43066695 0
-0.20450693 0.068406343 -0.42441142 0
-0.14537781 0.043701172 -0.43550819 0
-0.022083402 0.07663852 -0.42238483 0
0.054973483 0.053667843 -0.43411455 0
0.16079515 0.089269578 -0.42151901 0
0.25415325 0.095572531 -0.41680187 0
-0.89996266 0.10645264 -0.40534082 0
-0.8204366 0.096822798 -0.41000247 0
-0.71582389 0.14096272 -0.39569324 0
-0.62390834 0.13282377 -0.39784884 0
-0.52741879 0.14934179 -0.39061898 0
-0.43039674 0.13585711 -0.39922667 0
-0.32065928 0.14429703 -0.39478111 0
-0.24282664 0.14861709 -0.39284056 0
-0.1552096 0.1605683 -0.39153719 0
-0.052088618 0.18588907 -0.38493621 0
0.046150446 0.17302817 -0.38873392 0
0.15136325 0.1896373 -0.38259465 0
0.25529808 0.19830853 -0.380265 0
-0.93646783 0.18363531 -0.37186641 0
-0.81599498 0.20284943 -0.36927551 0
-0.74554998 0.20193654 -0.37148431 0
-0.63877249 0.2287789 -0.36346203 0
-0.53100121 0.20816162 -0.36575252 0
-0.42937452 0.2240608 -0.36431789 0
-0.33472228 0.23875263 -0.35869405 0
-0.25229847 0.23283577 -0.36138523 0
-0.16242522 0.27593249 -0.34997463 0
-0.064162195 0.25861615 -0.3563205 0
0.039720714 0.25806308 -0.35719997 0
0.14021748 0.2659663 -0.35259756 0
0.2350148 0.26813811 -0.3497763 0
-0.98519683 0.24823619 -0.34358719 0
-0.92482692 0.2886838 -0.33304113 0
-0.82817787 0.29282388 -0.33469933 0
-0.7288034 0.30088037 -0.3314904 0
-0.62666953 0.31581751 -0.32611707 0
-0.52854013 0.31453761 -0.33118844 0
-0.4203493 0.33535177 -0.32455778 0
-0.36126906 0.31539682 -0.32598597 0
-0.23138708 0.3412734 -0.3200441 0
-0.088754117 0.37934533 -0.30893743 0
-0.033930898 0.37122303 -0.31717533 0
0.028155684 0.34131664 -0.32547802 0
0.12654424 0.35488176 -0.31829289 0
0.23002607 0.37161791 -0.31280106 0
-0.93135917 0.37017709 -0.30368832 0
-0.83675104 0.37859082 -0.29954463 0
-0.74457365 0.38647264 -0.29862332 0
-0.62888479 0.40365219 -0.29472983 0
-0.52805752 0.42368087 -0.28817368 0
-0.45442611 0.42160475 -0.28789052 0
-0.33453417 0.40785375 -0.29208982 0
-0.2203117 0.44648424 -0.27799642 0
-0.11231309 0.45643044 -0.27729994 0
-0.08346045 0.45160222 -0.28633654 0
0.055390775 0.4852702 -0.27012289 0
0.13689548 0.453453 -0.27852821 0
0.21541518 0.4682712 -0.27599162 0
-0.94844484 0.47209772 -0.2616078 0
-0.85914332 0.47435382 -0.2626729 0
-0.74366397 0.48360574 -0.25956434 0
0.12653899 -0.49387354 -0.62151158 0
0.25830722 -0.48593855 -0.58827245 0
0.35064447 -0.47740299 -0.5893625 0
0.10364759 -0.42387962 -0.6005497 0
0.19942117 -0.37583095 -0.58275372 0
0.29293668 -0.39416224 -0.54773521 0
0.39582896 -0.3837927 -0.56989336 0
0.20987713 -0.29508913 -0.55151516 0
0.3102355 -0.29448766 -0.53217852 0
0.42627156 -0.2711823 -0.53391135 0
0.2503612 -0.15841979 -0.51144159 0
0.30891585 -0.21691751 -0.46737289 0
0.45377326 -0.16047651 -0.49831319 0
0.25015843 -0.11077607 -0.49216431 0
0.31643271 -0.13832021 -0.4319047 0
0.36153257 -0.11433452 -0.49126932 0
0.47830915 -0.054439723 -0.46427095 0
0.24255335 -0.024536133 -0.45694861 0
0.32198083 -0.060573876 -0.40328312 0
0.38144982 -0.025177419 -0.41850087 0
0.49148393 0.034364104 -0.43321472 0
0.60722649 0.023112297 -0.43187538 0
0.37561822 0.077975452 -0.42140695 0
0.50132871 0.10580444 -0.40849125 0
0.63156557 0.1228199 -0.40120235 0
0.73153758 0.1094237 -0.39546272 0
0.91431201 0.16595089 -0.37648749 0
0.23113042 0.20383853 -0.37099895 0
0.37830102 0.19351441 -0.38083085 0
0.50799 0.21879941 -0.36936301 0
0.64303076 0.21412617 -0.36910668 0
0.76055801 0.23382479 -0.35609999 0
0.91254497 0.18662345 -0.36594307 0
0.9333545 0.27572572 -0.33965987 0
0.359891 0.29717761 -0.33883438 0
0.50720328 0.33318979 -0.32875705 0
0.64747763 0.30921274 -0.33431509 0
0.791834 0.34098375 -0.32492554 0
0.94914925 0.37128067 -0.30957851 0
0.35294414 0.40035814 -0.30112472 0
0.49200833 0.39834601 -0.30168509 0
0.64684725 0.42931384 -0.29199585 0
0.79869676 0.40057862 -0.30458552 0
0.94696724 0.41359818 -0.29320309 0
0.34443408 0.47994822 -0.27166706 0
0.47555012 0.48852581 -0.2660895 0
0.62261569 0.48940712 -0.26444894 0
0.93629515 0.48537141 -0.26343778 0
0.27060986 -0.42339647 -0.45903793 0
0.27735233 -0.32952964 -0.4183439 0
0.31049633 -0.31831592 -0.43706554 0
0.32560456 -0.23475385 -0.39497542 0
0.41263878 -0.21912915 -0.35324937 0
0.36112046 -0.13161027 -0.38162607 0
0.42156458 -0.14076805 -0.35154131 0
0.50915754 -0.098941684 -0.30942938 0
0.42444372 -0.064407408 -0.35268933 0
0.51118505 -0.025863469 -0.31120875 0
0.53399038 0.041974366 -0.33504507 0
0.61267173 0.052267849 -0.28386194 0
0.65828943 0.10329425 -0.28933993 0
0.76539755 0.17194831 -0.25008544 0
0.2507273 -0.47628719 -0.40307081 0
0.34128058 -0.47978449 -0.37154654 0
0.41504359 -0.45350367 -0.34414646 0
0.34027278 -0.37460989 -0.378631 0
0.42826307 -0.35095352 -0.34105802 0
0.50705528 -0.34841526 -0.30089068 0
0.46040988 -0.28301102 -0.32753205 0
0.52879429 -0.23693454 -0.29378417 0
0.55245078 -0.15463877 -0.28439423 0
0.62524116 -0.1716277 -0.24526256 0
0.62118042 -0.05501014 -0.25508741 0
0.70707786 -0.074212909 -0.21613514 0
0.6978364 0.039888203 -0.2386767 0
0.76678455 0.066926241 -0.20870346 0
0.86963105 0.048219085 -0.19488615 0
0.95949292 0.07479918 -0.17946452 0
0.86032164 0.16181797 -0.20195708 0
0.95825732 0.1642797 -0.17978361 0
0.47079372 -0.48969179 -0.31452438 0
0.5357604 -0.45312589 -0.28165621 0
0.60908866 -0.45510864 -0.24875349 0
0.56085289 -0.37359136 -0.27143919 0
0.64585412 -0.38258934 -0.2327764 0
0.64944875 -0.26083809 -0.23035833 0
0.73093414 -0.27474064 -0.19962946 0
0.74070179 -0.16243124 -0.20088881 0
0.88387895 -0.19295722 -0.17279217 0
0.98798406 -0.13286698 -0.15742069 0
0.89185202 -0.070466518 -0.1785028 0
0.99634874 -0.027214646 -0.1572113 0
0.98813045 0.042831063 -0.16441047 0
0.65656221 -0.49565816 -0.2306492 0
0.82549345 -0.44303912 -0.16725463 0
0.69828391 -0.41467977 -0.21258318 0
0.74604011 -0.39918041 -0.19330558 0
0.81492448 -0.36630547 -0.17204422 0
0.91964662 -0.39448458 -0.15319929 0
0.80551159 -0.32120949 -0.1827254 0
0.91599369 -0.26683658 -0.15849909 0
-0.96166599 0.069913894 -0.42477125 0
-0.93807447 0.13872738 -0.39960521 0
-0.9402076 0.24733758 -0.35417843 0
-0.96913934 0.3215574 -0.32526174 0
-0.96576035 0.43109888 -0.28021798 0
-0.78231865 -0.48721594 -0.63466871 0
-0.57086241 -0.49134243 -0.63575447 0
-0.48740286 -0.47712421 -0.63173288 0
-0.39191937 -0.4794274 -0.63039786 0
-0.25594634 -0.46593946 -0.62691712 0
-0.095202923 -0.44549453 -0.61776668 0
0.024958372 -0.4183473 -0.60592413 0
-0.97212493 -0.43019506 -0.6116603 0
-0.88605541 -0.42741904 -0.60923672 0
-0.78837562 -0.41042951 -0.60537994 0
-0.67810041 -0.40623528 -0.60479361 0
-0.5811888 -0.39384443 -0.59786022 0
-0.48783231 -0.38042533 -0.59651268 0
-0.38975519 -0.3661207 -0.58905119 0
-0.31543589 -0.3861596 -0.59597224 0
-0.21967906 -0.37610656 -0.59119463 0
-0.1140604 -0.35687703 -0.58447087 0
-0.0054985285 -0.34494168 -0.57969993 0
0.080843329 -0.36274689 -0.58270288 0
-0.89190835 -0.32044986 -0.57072264 0
-0.78231221 -0.32069182 -0.56890637 0
