# .PCD v0.7 - Point Cloud Data file format
VERSION 0.7
FIELDS x y z intensity
SIZE 4 4 4 4
TYPE F F F F
COUNT 1 1 1 1
WIDTH 1291
HEIGHT 1
VIEWPOINT 0 0 0 1 0 0 0
POINTS 1291
DATA ascii
0.93587279 0.42514229 -0.3153863 0
-0.95310831 -0.45747566 -0.32516098 0
-0.83878732 -0.43414688 -0.33265972 0
-0.70907211 -0.44807339 -0.33948612 0
-0.61937618 -0.46166325 -0.34376621 0
-0.56789589 -0.4679203 -0.34673452 0
-0.44724703 -0.44703674 -0.3503809 0
-0.24942231 -0.45138264 -0.35721111 0
-0.12128353 -0.48860073 -0.36258888 0
-0.089750051 -0.4235239 -0.36813498 0
0.01735425 -0.46332836 -0.36563969 0
0.17268729 -0.48824215 -0.36675072 0
0.20905161 -0.41261578 -0.37382793 0
0.33708763 -0.43728352 -0.37014437 0
-0.98973179 -0.3564949 -0.33020735 0
-0.87217522 -0.36753273 -0.33436728 0
-0.72301722 -0.34388447 -0.34457731 0
-0.5639081 -0.36132431 -0.35181904 0
-0.4761734 -0.33747387 -0.35753393 0
-0.31770873 -0.36820221 -0.3644681 0
-0.23698092 -0.34586143 -0.36330557 0
-0.12895942 -0.35269642 -0.36493063 0
0.036261082 -0.37093258 -0.37088156 0
0.15267467 -0.31198978 -0.3695879 0
0.25296044 -0.3355875 -0.37204695 0
0.33547115 -0.38154221 -0.37175751 0
-0.97587752 -0.26086712 -0.33975649 0
-0.8852942 -0.25497818 -0.34229374 0
-0.75824142 -0.25571251 -0.34851599 0
-0.64402461 -0.27898121 -0.35207605 0
-0.59159422 -0.23437977 -0.35729027 0
-0.46930099 -0.26906586 -0.36165094 0
-0.36012697 -0.2558651 -0.3644495 0
-0.24639869 -0.2444315 -0.3668952 0
-0.11931014 -0.22040272 -0.37161636 0
-0.088703156 -0.26809311 -0.37387133 0
0.02090764 -0.25582886 -0.3723278 0
0.17431068 -0.23553085 -0.37402058 0
-0.94696927 -0.16318798 -0.34783983 0
-0.83566189 -0.16104603 -0.35207272 0
-0.78459883 -0.14251804 -0.35466433 0
-0.6371417 -0.17268276 -0.36055422 0
-0.58040929 -0.14233398 -0.36419106 0
-0.46507621 -0.17252922 -0.36664486 0
-0.35794902 -0.13011932 -0.36921644 0
-0.22364187 -0.13871765 -0.37309122 0
-0.14393282 -0.17012024 -0.3696928 0
-0.0078978539 -0.17631912 -0.37095547 0
0.0541749 -0.12273979 -0.37096882 0
0.13581204 -0.18270874 -0.37000704 0
-0.99883366 -0.08943367 -0.3521142 0
-0.96957541 -0.032464027 -0.35684729 0
-0.8517046 -0.049690247 -0.36056042 0
-0.76860142 -0.077931404 -0.35964108 0
-0.64357376 -0.046841621 -0.364151 0
-0.58194208 -0.098349571 -0.36525154 0
-0.46773839 -0.053400993 -0.37029457 0
-0.35505509 -0.028570175 -0.37262201 0
-0.24148536 -0.033541679 -0.37367487 0
-0.14596605 -0.080224037 -0.37195683 0
0.0034954548 -0.050823212 -0.37613869 0
0.096762657 -0.043457031 -0.36989498 0
-0.90773082 0.043296814 -0.36298943 0
-0.82480812 0.066177368 -0.36572886 0
-0.76099586 0.035621643 -0.36408901 0
-0.68566489 0.051760674 -0.36534452 0
-0.57412457 0.066405296 -0.37145424 0
-0.47834706 0.06586647 -0.37298727 0
-0.37375164 0.043413162 -0.37290716 0
-0.23592377 0.040249825 -0.37035751 0
-0.16246605 -5.2452087e-05 -0.37218809 0
-0.027486086 0.020442963 -0.3743434 0
0.058148146 0.038845062 -0.36810541 0
-0.95143652 0.16298485 -0.36412573 0
-0.86808872 0.1567049 -0.36415195 0
-0.76857495 0.14437485 -0.36709833 0
-0.64370942 0.14964581 -0.36973906 0
-0.51553798 0.15777588 -0.37143087 0
-0.39841342 0.18300629 -0.37541914 0
-0.3568089 0.12348557 -0.37826824 0
-0.26471019 0.14494324 -0.37410688 0
-0.174582 0.10350895 -0.37415886 0
-0.05305934 0.13015366 -0.37470198 0
0.075954437 0.12953091 -0.37409449 0
-0.97734809 0.25611115 -0.36535215 0
-0.84256387 0.25101471 -0.36729717 0
-0.75741553 0.22519207 -0.36762047 0
-0.6586771 0.24350452 -0.37027884 0
-0.51689196 0.25228786 -0.37483215 0
-0.4252882 0.25539017 -0.37517214 0
-0.32630563 0.26192188 -0.37457085 0
-0.2341938 0.25599194 -0.37313604 0
-0.16531992 0.21290874 -0.37997484 0
-0.060008764 0.23983955 -0.37836981 0
0.072738409 0.24931049 -0.37854099 0
-0.95719838 0.3693037 -0.36728668 0
-0.85182214 0.34526062 -0.37086153 0
-0.71658897 0.33745289 -0.37369919 0
-0.64536214 0.33193874 -0.37332916 0
-0.54381728 0.34220982 -0.37554359 0
-0.41999245 0.35927486 -0.38041687 0
-0.33360338 0.36357212 -0.37795353 0
-0.21591997 0.3331213 -0.3787508 0
-0.10277176 0.35232544 -0.37704182 0
-0.95784163 0.45300484 -0.37130976 0
-0.84446192 0.45031452 -0.37500238 0
-0.73445725 0.44384575 -0.37694311 0
-0.66547394 0.44412422 -0.37613678 0
-0.55948782 0.43671989 -0.37783337 0
-0.45202613 0.45097065 -0.37943983 0
-0.34933209 0.46625233 -0.37938452 0
-0.2565639 0.44090843 -0.37668705 0
-0.15319276 0.44879246 -0.37327051 0
0.47991467 -0.44919777 -0.37000656 0
0.65226698 -0.451581 -0.36811686 0
0.86050653 -0.46678257 -0.36849308 0
0.45218587 -0.35544872 -0.3684063 0
0.60347414 -0.33799934 -0.36380434 0
0.7725594 -0.36845684 -0.35890865 0
0.28903127 -0.25885963 -0.36860037 0
0.42671847 -0.25603962 -0.36736774 0
0.5396781 -0.21349716 -0.35889912 0
0.60891771 -0.27010441 -0.36624527 0
0.75721121 -0.2592268 -0.35940933 0
0.88622713 -0.24336147 -0.34829283 0
0.98318219 -0.30039406 -0.35959435 0
0.25829673 -0.17068386 -0.36658859 0
0.37389135 -0.16758347 -0.36263561 0
0.57710838 -0.13347721 -0.36636972 0
0.72925925 -0.15590858 -0.35874939 0
0.86390734 -0.17049408 -0.34739876 0
0.20125103 -0.018499374 -0.36401272 0
0.23345351 -0.072899818 -0.36606359 0
0.40324998 -0.053987503 -0.36959124 0
0.51756024 -0.080499649 -0.36032009 0
0.68680668 -0.0080804825 -0.35847425 0
0.71039534 -0.076954842 -0.3590498 0
0.85655904 -0.05670929 -0.35028458 0
0.24325585 0.04964447 -0.37213993 0
0.34554648 0.031540871 -0.36505842 0
0.50441623 0.059689522 -0.36302233 0
0.51253867 -0.0031890869 -0.36209106 0
0.69519424 0.062254906 -0.36218214 0
0.79485202 0.044460297 -0.34621429 0
0.2006197 0.10313606 -0.36886692 0
0.26389956 0.17534161 -0.37038565 0
0.369241 0.12964344 -0.37219667 0
0.47625709 0.15156078 -0.3630724 0
0.61673045 0.15271282 -0.35521412 0
0.7878623 0.12623215 -0.34803772 0
0.18273115 0.25263023 -0.37280178 0
0.28008175 0.23990631 -0.36516762 0
0.46182275 0.25169468 -0.36493778 0
0.579005 0.25731754 -0.35441923 0
0.74908876 0.22870827 -0.34636879 0
-0.014592886 0.34543419 -0.37015581 0
0.13633871 0.36380863 -0.37068748 0
0.26089573 0.32726002 -0.36578655 0
0.42277718 0.34111214 -0.36321831 0
0.55578876 0.35327244 -0.35518599 0
0.67462683 0.39248371 -0.34389973 0
0.71820402 0.34017372 -0.34707069 0
-0.058914423 0.48720264 -0.36876202 0
0.016996145 0.45039463 -0.37749767 0
0.11187315 0.44532967 -0.37053585 0
0.24967837 0.45513058 -0.36916733 0
0.39806032 0.43587112 -0.36371899 0
0.54083109 0.45249462 -0.3572917 0
0.67717838 0.4558506 -0.34720469 0
0.98660398 0.073537827 -0.34459639 0
0.98142099 0.15466213 -0.34671926 0
0.88128114 0.24719715 -0.33695555 0
0.82819819 0.35214806 -0.33427525 0
0.98541284 0.35386467 -0.32135916 0
0.7883811 0.4803915 -0.33533669 0
0.82444715 0.41950989 -0.33699369 0
0.95287871 0.46105862 -0.322083 0
-0.93015099 -0.44554234 -0.31994677 0
-0.85775685 -0.40837097 -0.32671928 0
-0.79207993 -0.46162891 -0.3282795 0
-0.65783 -0.44238567 -0.33772469 0
-0.53636336 -0.44745636 -0.34365273 0
-0.41776037 -0.45677567 -0.34647083 0
-0.27417612 -0.44900608 -0.35003281 0
-0.086135864 -0.44624329 -0.36056376 0
0.076355696 -0.43708515 -0.36408854 0
-0.94240808 -0.3171854 -0.33094358 0
-0.86492801 -0.34687233 -0.32919836 0
-0.75246596 -0.36338711 -0.33747768 0
-0.6362431 -0.31808376 -0.34567976 0
-0.50718617 -0.3688221 -0.35071325 0
-0.4543817 -0.33509159 -0.35300827 0
-0.38077641 -0.31379223 -0.35740328 0
-0.25088 -0.35828686 -0.35696745 0
-0.11237597 -0.33207321 -0.35996294 0
0.062446833 -0.34845638 -0.36486387 0
-0.95961714 -0.24132633 -0.3359623 0
-0.85517383 -0.24081802 -0.34142113 0
-0.76717114 -0.23599434 -0.3434515 0
-0.65038848 -0.22731781 -0.34865379 0
-0.50881577 -0.23890591 -0.35636616 0
-0.38885498 -0.23501396 -0.36001968 0
-0.2389164 -0.24636841 -0.36360693 0
-0.097813129 -0.24573517 -0.36564732 0
0.074898005 -0.24236679 -0.36936283 0
-0.93702841 -0.14998341 -0.3445425 0
-0.84085321 -0.14535522 -0.34924364 0
-0.72464275 -0.1107626 -0.35659599 0
-0.6323874 -0.10173988 -0.35811043 0
-0.52927804 -0.13393497 -0.36206245 0
-0.40454292 -0.10478115 -0.36253357 0
-0.34696245 -0.13818645 -0.36934328 0
-0.23724651 -0.13308239 -0.36758423 0
-0.1126411 -0.14954853 -0.36624098 0
0.053894043 -0.14977264 -0.36926174 0
-0.92385268 -0.038358688 -0.35280037 0
-0.82998776 -0.053395271 -0.35595369 0
-0.74744105 -0.020400047 -0.35696316 0
-0.61900353 -0.019225121 -0.36221743 0
-0.51042509 -0.057182312 -0.36300755 0
-0.44689488 -0.015706062 -0.36405849 0
-0.26499629 -0.024308205 -0.36680508 0
-0.10766029 -0.024559975 -0.37029982 0
0.027558327 -0.03435421 -0.36940479 0
-0.93268514 0.070697784 -0.35597372 0
-0.85542417 0.056589127 -0.35623169 0
-0.74042773 0.053260803 -0.36006498 0
-0.65768385 0.045205116 -0.35910749 0
-0.54019785 0.075453758 -0.36320782 0
-0.42769074 0.058444977 -0.36500263 0
-0.32985592 0.1063118 -0.36292458 0
-0.28448844 0.055879593 -0.36688805 0
-0.12360144 0.051094055 -0.37040329 0
0.029615879 0.064167023 -0.37264967 0
-0.9607892 0.15260506 -0.35568905 0
-0.87117195 0.16789055 -0.35867882 0
-0.76640749 0.14905262 -0.36006832 0
-0.64725852 0.15444851 -0.36404419 0
-0.55143356 0.14890575 -0.36417484 0
-0.40893126 0.14297485 -0.37058496 0
-0.31522179 0.16586494 -0.36711693 0
-0.1570363 0.14735031 -0.36940575 0
-0.96189213 0.24524879 -0.35918236 0
-0.85351729 0.24994373 -0.36081219 0
-0.74507141 0.29986477 -0.36938572 0
-0.6423521 0.28326893 -0.36577177 0
-0.53724194 0.23275948 -0.36893606 0
-0.43042469 0.24711227 -0.3717165 0
-0.30268645 0.25906277 -0.37248516 0
-0.16795206 0.26124001 -0.37259388 0
-0.96213961 0.33460617 -0.36281872 0
-0.86845827 0.35728168 -0.36764002 0
-0.74544406 0.35926819 -0.36824322 0
-0.64928794 0.40034103 -0.368361 0
-0.55910301 0.36243343 -0.37172747 0
-0.44810629 0.35502148 -0.37360668 0
-0.3001678 0.39910316 -0.37845707 0
-0.23637414 0.37974453 -0.37687778 0
-0.16781473 0.35180473 -0.37633896 0
-0.94633174 0.46305084 -0.36587143 0
-0.80054426 0.4800005 -0.37118244 0
-0.77895403 0.43835545 -0.37177849 0
-0.67520332 0.4773798 -0.37464809 0
-0.54392266 0.46703434 -0.37163019 0
-0.47995996 0.43192101 -0.37256575 0
-0.35435128 0.46970844 -0.37344265 0
-0.260818 0.47963047 -0.36746025 0
0.20498562 -0.44955063 -0.36156797 0
0.38013148 -0.47844315 -0.36059713 0
0.42194963 -0.39672565 -0.36817789 0
0.614429 -0.42775249 -0.36728573 0
0.80831122 -0.4527235 -0.36366272 0
0.19545889 -0.32106495 -0.36424637 0
0.21991897 -0.38225174 -0.36554909 0
0.37510729 -0.33802891 -0.36370325 0
0.55148602 -0.32052898 -0.36102343 0
0.76423645 -0.33842754 -0.3600378 0
0.9605608 -0.34187031 -0.35801888 0
0.17131853 -0.22379684 -0.36304188 0
0.34136486 -0.2754612 -0.36053896 0
0.53589869 -0.21219158 -0.36186743 0
0.7163837 -0.22259045 -0.35613775 0
0.90617228 -0.21794605 -0.35380077 0
0.18738556 -0.11381149 -0.36784887 0
0.35332799 -0.16073704 -0.36477709 0
0.51497793 -0.13702202 -0.36110401 0
0.72144508 -0.14446163 -0.35921669 0
0.88358927 -0.13903332 -0.35280657 0
0.13620305 -0.029780388 -0.36410379 0
0.2973938 -0.031773567 -0.36078501 0
0.47429299 -0.0099010468 -0.35916853 0
0.51595831 -0.061274529 -0.36325693 0
0.66397142 -0.042642593 -0.35493374 0
0.82392788 -0.075062752 -0.34704971 0
0.1604383 0.080634117 -0.3712554 0
0.28767657 0.070266724 -0.36325741 0
0.43810225 0.064621925 -0.35666275 0
0.60814691 0.069412231 -0.35139799 0
0.0087304115 0.18698597 -0.37387848 0
0.054563999 0.15531826 -0.36971617 0
0.13464355 0.13127613 -0.36983681 0
0.27154207 0.16886139 -0.36502075 0
0.4007895 0.20260525 -0.35718632 0
0.41553807 0.12866306 -0.35628223 0
0.59176183 0.16707039 -0.35261154 0
-0.035039902 0.26886082 -0.37155533 0
0.12457371 0.2630806 -0.37376928 0
0.25924921 0.27009773 -0.36715794 0
0.40774107 0.27276325 -0.36036921 0
0.58561015 0.28855228 -0.35593605 0
-0.038197517 0.36665249 -0.37425947 0
0.065130711 0.34818554 -0.3684516 0
0.19185042 0.3841362 -0.36204958 0
0.24044681 0.33519173 -0.36678553 0
0.37565732 0.33913517 -0.35841227 0
0.53766608 0.34189606 -0.35157681 0
-0.081686497 0.44547272 -0.37064695 0
0.031808853 0.46730042 -0.36740875 0
0.14437675 0.4425106 -0.35786247 0
0.34625006 0.43355179 -0.35787153 0
0.48602772 0.47866249 -0.34988594 0
0.52512836 0.42189503 -0.35283613 0
0.80524015 0.0059127808 -0.34741306 0
0.83601856 0.093274117 -0.35454559 0
0.95286083 0.073807716 -0.33482313 0
0.76714396 0.15501595 -0.34734821 0
0.96978736 0.16460705 -0.33994198 0
0.73667955 0.22628498 -0.34539604 0
0.9021759 0.22890568 -0.33315754 0
0.68345284 0.36493778 -0.34391928 0
0.7511704 0.31904125 -0.35080528 0
0.87621999 0.35424137 -0.33420992 0
0.70018554 0.4434576 -0.3493433 0
0.81402183 0.45796871 -0.33055973 0
0.98307705 0.46881199 -0.31658173 0
-0.93634057 -0.47813129 -0.32336235 0
-0.76292109 -0.47035313 -0.33370256 0
-0.67973781 -0.44018459 -0.33989048 0
-0.44631362 -0.45004177 -0.3498807 0
-0.36486769 -0.49391747 -0.35078144 0
-0.19614387 -0.45705605 -0.35779047 0
-0.85817218 -0.36179924 -0.33626699 0
-0.7979517 -0.38254833 -0.33582926 0
-0.63798571 -0.35534382 -0.34868431 0
-0.54136062 -0.36592197 -0.34893847 0
-0.49531007 -0.4116478 -0.35293818 0
-0.3370769 -0.34469223 -0.36046028 0
-0.19821787 -0.39687443 -0.35936499 0
-0.15480471 -0.33235168 -0.36763716 0
-0.97834396 -0.26686859 -0.3397603 0
-0.87110615 -0.26192474 -0.34389067 0
-0.77243876 -0.25571537 -0.34642982 0
-0.64628601 -0.2562933 -0.3522954 0
-0.47794461 -0.27318192 -0.36103249 0
-0.32021785 -0.25505161 -0.36648369 0
-0.14820075 -0.26434708 -0.37141371 0
-0.95883346 -0.15424347 -0.34909058 0
-0.86803508 -0.14587879 -0.35139847 0
-0.72024488 -0.14967632 -0.35931969 0
-0.635607 -0.17542362 -0.35849571 0
-0.59070706 -0.11578083 -0.36694813 0
-0.45621657 -0.15572548 -0.36863804 0
-0.33528519 -0.13870239 -0.36813545 0
-0.28783822 -0.18371773 -0.37345505 0
-0.15892553 -0.17422104 -0.37260628 0
-0.97553539 -0.043266296 -0.35327721 0
-0.84826684 -0.046320915 -0.35849047 0
-0.72542143 -0.015810013 -0.3634243 0
-0.65631819 -0.067372322 -0.36535549 0
-0.4744575 -0.071494102 -0.36874533 0
-0.3494525 -0.023721695 -0.36926889 0
-0.23918533 -0.065273285 -0.37057066 0
-0.95599508 0.058768272 -0.3593874 0
-0.84513855 0.058610916 -0.36198425 0
-0.74063301 0.05443573 -0.36341333 0
-0.62524843 0.014436722 -0.36591625 0
-0.50176001 0.03584671 -0.3681879 0
-0.47829628 -0.01291275 -0.3698616 0
-0.36944747 0.032569885 -0.36850309 0
-0.96261883 0.15092945 -0.36177349 0
-0.87013102 0.15138149 -0.36234713 0
-0.75262785 0.15716171 -0.36532784 0
-0.62952685 0.12074566 -0.36848927 0
-0.48167014 0.12718105 -0.37358618 0
-0.35361099 0.12398815 -0.37369013 0
-0.95476556 0.27674103 -0.36745119 0
-0.84529114 0.23308468 -0.36885548 0
-0.73718429 0.24180698 -0.37075996 0
-0.63166451 0.22934628 -0.37198877 0
-0.55165458 0.19559669 -0.36662292 0
-0.49234414 0.26828957 -0.37676144 0
-0.3528142 0.24548149 -0.37819195 0
-0.94551897 0.35905361 -0.36846733 0
-0.84773135 0.31167412 -0.37192059 0
-0.74129319 0.31818104 -0.37350512 0
-0.65366125 0.33596325 -0.37371206 0
-0.50827289 0.34570789 -0.3778739 0
-0.36745048 0.33332539 -0.37966108 0
-0.95552897 0.43338108 -0.37031651 0
-0.892874 0.4780798 -0.37372446 0
-0.73419237 0.42815876 -0.37933588 0
-0.66233444 0.43885422 -0.37687397 0
-0.57619262 0.44791508 -0.37254238 0
-0.41833115 0.442379 -0.37616587 0
-0.34899521 0.3961668 -0.38425684 0
-0.0052342415 -0.47036457 -0.36783075 0
0.17156863 -0.49679279 -0.3675909 0
0.36646247 -0.44475269 -0.36990023 0
0.57918859 -0.46717167 -0.37090111 0
0.80221176 -0.47500706 -0.37325954 0
0.017364264 -0.36694813 -0.37343979 0
0.1990056 -0.34649086 -0.37526321 0
0.20459604 -0.41236305 -0.37419081 0
0.39554548 -0.37012196 -0.37585306 0
0.54056334 -0.36275387 -0.36765528 0
0.68764901 -0.3237524 -0.36044788 0
0.72997522 -0.40460587 -0.3647604 0
-0.0099344254 -0.27144623 -0.37239504 0
0.1611135 -0.25437832 -0.37215281 0
0.31336713 -0.27232265 -0.36680603 0
0.52596092 -0.24881649 -0.36818695 0
0.66419458 -0.25141335 -0.35876799 0
-0.020814419 -0.17069435 -0.37328386 0
0.10062671 -0.16165257 -0.36608982 0
0.34488297 -0.15353298 -0.37338591 0
0.48768997 -0.17770958 -0.36463642 0
0.66746426 -0.1626358 -0.3615737 0
-0.064696312 -0.083634377 -0.36960411 0
0.09341073 -0.027714729 -0.36922836 0
0.15763378 -0.07516098 -0.37618256 0
0.30719829 -0.086260796 -0.36977434 0
0.46566272 -0.06756115 -0.3642602 0
0.66063356 -0.091781616 -0.36262178 0
-0.22277284 0.025886536 -0.36907959 0
-0.048893452 0.023611069 -0.37453747 0
0.060893536 0.038972855 -0.36715078 0
0.28641725 0.016065598 -0.37028551 0
0.44965148 0.050375938 -0.36522293 0
0.64175153 0.029883385 -0.363626 0
-0.23194504 0.14532089 -0.37198353 0
-0.17365479 0.10920334 -0.37827826 0
-0.07295084 0.14649487 -0.37500715 0
0.038061857 0.16592598 -0.36851311 0
0.12822485 0.12332439 -0.37877178 0
0.27433515 0.15019703 -0.37327623 0
0.40710711 0.11568356 -0.36193609 0
-0.25270581 0.24001026 -0.37277746 0
-0.076604843 0.23700714 -0.37778664 0
0.0838871 0.2503624 -0.37728548 0
0.22225428 0.25256252 -0.36978388 0
0.39286089 0.25875568 -0.36448383 0
0.41682196 0.18476868 -0.36557579 0
-0.21885109 0.34409714 -0.38105059 0
-0.10338783 0.33554268 -0.37746477 0
0.053870201 0.34147644 -0.37550688 0
0.20011067 0.31377029 -0.36854601 0
0.37882686 0.32912445 -0.36467457 0
-0.28736901 0.4210453 -0.37360764 0
-0.13385224 0.42693901 -0.37546968 0
0.017044306 0.43499565 -0.3728404 0
0.19537997 0.41949558 -0.37099791 0
0.30771041 0.46141148 -0.35936165 0
0.3547368 0.40001869 -0.36363983 0
0.97588873 -0.48018169 -0.36186838 0
0.9632802 -0.3423996 -0.36302567 0
0.94052005 -0.25301647 -0.36188507 0
0.89843869 -0.17636871 -0.3579402 0
0.83571863 -0.066484451 -0.35266542 0
0.83302069 0.059401512 -0.35619211 0
0.99084592 0.054148674 -0.34038687 0
0.56075072 0.13042355 -0.3559556 0
0.77532887 0.13124847 -0.35044384 0
0.97612 0.13849258 -0.34078026 0
0.53644347 0.24127293 -0.35598469 0
0.71850705 0.20901299 -0.34483099 0
0.95487189 0.22223854 -0.34037447 0
0.53695488 0.35105896 -0.35937262 0
0.70564222 0.36640835 -0.34853315 0
0.72836399 0.28413296 -0.34859562 0
0.87495422 0.33209038 -0.33318806 0
0.50248218 0.43189812 -0.3574152 0
0.67793632 0.43227196 -0.34731388 0
0.84409237 0.45546818 -0.33365488 0
-0.98379087 -0.43542957 -0.31142187 0
-0.84643221 -0.46457577 -0.31574392 0
-0.67025256 -0.43632603 -0.32816267 0
-0.46273518 -0.42718124 -0.34177065 0
-0.97409344 -0.34193897 -0.31760025 0
-0.81858063 -0.35686398 -0.32418251 0
-0.64314294 -0.32432175 -0.33583879 0
-0.46818542 -0.34492207 -0.34408855 0
-0.95920706 -0.2434206 -0.32488823 0
-0.79919863 -0.27789116 -0.33085871 0
-0.78001451 -0.22097588 -0.33638811 0
-0.61470938 -0.23243332 -0.34346247 0
-0.42548728 -0.24158669 -0.35353661 0
-0.93184686 -0.13997555 -0.33419228 0
-0.7785697 -0.14570141 -0.34084558 0
-0.62565994 -0.18427658 -0.3447752 0
-0.57839298 -0.12273502 -0.35409641 0
-0.44268966 -0.16720867 -0.35399151 0
-0.90025711 -0.022929192 -0.34350204 0
-0.74314332 -0.05314827 -0.3492384 0
-0.61798668 -0.033595085 -0.35095406 0
-0.47021341 -0.046145439 -0.35353804 0
-0.92292523 0.09932518 -0.3441329 0
-0.88314176 0.060251236 -0.34799814 0
-0.73320341 0.032164574 -0.35253477 0
-0.61518669 0.052052498 -0.35336781 0
-0.49864984 0.035365105 -0.35198259 0
-0.92469859 0.15718555 -0.34588289 0
-0.76350355 0.1389389 -0.35141993 0
-0.62024522 0.14127254 -0.35498762 0
-0.47692275 0.14027977 -0.35757637 0
-0.91091323 0.21710396 -0.34979486 0
-0.86858201 0.2834816 -0.35768223 0
-0.76940274 0.25382519 -0.35466814 0
-0.63359785 0.2601738 -0.35682106 0
-0.47067022 0.26818752 -0.36191511 0
-0.90520644 0.35209942 -0.35561132 0
-0.78771544 0.32991314 -0.35514212 0
-0.77026725 0.39349079 -0.3598423 0
-0.62482309 0.34860516 -0.36121702 0
-0.48223519 0.3605566 -0.36336422 0
-0.90223575 0.46632671 -0.3602972 0
-0.7786696 0.45328903 -0.3611517 0
-0.60608578 0.44377518 -0.3670845 0
-0.49111104 0.45265675 -0.36482286 0
-0.34947133 -0.44062328 -0.33995962 0
-0.14907455 -0.43974495 -0.34737587 0
0.076202154 -0.42625904 -0.35568619 0
0.26201439 -0.45727062 -0.35332823 0
0.49846315 -0.46485233 -0.35981274 0
-0.34026575 -0.35563469 -0.34425163 0
-0.14590764 -0.34173489 -0.35005331 0
0.096787691 -0.3466301 -0.36018085 0
0.26815462 -0.30674362 -0.35738325 0
0.31768131 -0.37722301 -0.36256075 0
0.4614265 -0.34510612 -0.35642004 0
-0.28857684 -0.24437428 -0.35513592 0
-0.12592483 -0.2384882 -0.35621595 0
0.041121721 -0.26122856 -0.35441542 0
0.2444973 -0.22495365 -0.35530281 0
0.40002465 -0.24601364 -0.34967613 0
-0.3133688 -0.16360855 -0.3543973 0
-0.11251807 -0.12622356 -0.36044073 0
0.071348906 -0.13888073 -0.36091566 0
0.23817468 -0.1550293 -0.35548449 0
0.42729712 -0.16118145 -0.35473156 0
-0.31155705 -0.058651924 -0.35660744 0
-0.15460491 -0.041604996 -0.35652113 0
0.057015896 -0.044818878 -0.36130381 0
0.20506358 -0.058512688 -0.3530283 0
0.41173029 -0.072527885 -0.35415745 0
-0.30262637 0.037754059 -0.36016655 0
-0.1394527 0.058365822 -0.36068058 0
0.05816102 0.071232796 -0.36417532 0
0.2260735 0.062034607 -0.35895681 0
0.37502694 0.036560059 -0.35152388 0
-0.31496739 0.13282871 -0.36124468 0
-0.15391493 0.13033772 -0.36062145 0
-0.0068378448 0.15361595 -0.35748911 0
0.2220161 0.13276291 -0.36035728 0
0.39670587 0.15608501 -0.35769606 0
-0.32000875 0.22815609 -0.36346674 0
-0.16634631 0.22984028 -0.36201143 0
0.017771721 0.27239895 -0.3640399 0
0.18375444 0.24292374 -0.35831165 0
0.35303855 0.22657967 -0.35379219 0
-0.32748652 0.35063648 -0.3663559 0
-0.18461728 0.36054039 -0.36328077 0
-0.025027752 0.33174038 -0.35958147 0
0.16954446 0.34348488 -0.35870647 0
0.31063271 0.37797356 -0.35146618 0
0.36389422 0.30678654 -0.35696888 0
-0.3716166 0.43865871 -0.3625412 0
-0.22482181 0.4597435 -0.35960102 0
-0.054791451 0.43646526 -0.3574338 0
0.14178872 0.45104313 -0.35739851 0
0.66632557 -0.414958 -0.34970188 0
0.94086432 -0.45709229 -0.34958601 0
0.67925406 -0.3285141 -0.35251427 0
0.93887234 -0.35374737 -0.35089064 0
0.62328911 -0.25991631 -0.34588718 0
0.84653044 -0.27933979 -0.33954859 0
0.60487986 -0.17105675 -0.34522057 0
0.83821654 -0.17862797 -0.3400898 0
0.58434415 -0.014881134 -0.34585714 0
0.63195157 -0.077433586 -0.35085297 0
0.80364799 -0.053384781 -0.33817005 0
0.58469748 0.078790665 -0.34805012 0
0.76276016 0.068634033 -0.33564758 0
0.99087644 0.06654644 -0.32633209 0
0.52745128 0.14229965 -0.34190369 0
0.75205302 0.14251518 -0.33571148 0
0.93722343 0.14267063 -0.32078552 0
0.55618834 0.23084068 -0.34772253 0
0.73907375 0.24468327 -0.33590174 0
0.94162893 0.23317242 -0.32337236 0
0.49969721 0.33843994 -0.34269524 0
0.73460126 0.32288742 -0.33743572 0
0.87669945 0.3137989 -0.31652164 0
0.30559731 0.45396614 -0.35258293 0
0.48927093 0.46314335 -0.34435081 0
0.67905879 0.43799973 -0.33331871 0
0.85875177 0.44341183 -0.31772709 0
-0.96886277 -0.44437408 -0.32075596 0
-0.92477894 -0.33396053 -0.33183146 0
-0.91156363 -0.24763775 -0.33797216 0
-0.99758005 -0.14436245 -0.34533834 0
-0.89254117 -0.17134571 -0.34443855 0
-0.65774608 -0.15784931 -0.36091375 0
-0.9749248 -0.03761673 -0.35351562 0
-0.82090306 -0.036166191 -0.35921955 0
-0.66923428 -0.043762207 -0.36316252 0
-0.95814133 0.04774189 -0.35826874 0
-0.82140422 0.047895432 -0.36088228 0
-0.67222595 0.049158096 -0.36469173 0
-0.94476914 0.14375973 -0.36280966 0
-0.85864115 0.129529 -0.35824823 0
-0.69772291 0.13405609 -0.363204 0
-0.9968214 0.2408886 -0.35886049 0
-0.84999609 0.24771214 -0.36314106 0
-0.68559051 0.2339592 -0.36757946 0
-0.96475053 0.36164093 -0.36682129 0
-0.84380674 0.3419199 -0.36711788 0
-0.67453074 0.3254652 -0.37203741 0
-0.98180366 0.43850422 -0.36713409 0
-0.81827307 0.43196678 -0.3736105 0
-0.70412397 0.47087097 -0.37270594 0
-0.68238187 0.4115591 -0.37397289 0
-0.98696041 0.49421406 -0.36836386 0
-0.76837683 -0.46278381 -0.33323002 0
-0.61805248 -0.48261356 -0.34020901 0
-0.38799453 -0.46522427 -0.35220528 0
-0.19029951 -0.46800613 -0.35792971 0
-0.0010097027 -0.47566223 -0.36026478 0
0.2272675 -0.46873569 -0.36582565 0
-0.75096607 -0.34688282 -0.33968782 0
-0.55623841 -0.34806633 -0.35287523 0
-0.41930532 -0.36233139 -0.35152674 0
-0.38401461 -0.40472507 -0.35469246 0
-0.17847109 -0.35924816 -0.3618474 0
0.041799545 -0.38522243 -0.36764526 0
0.22066975 -0.40564823 -0.36611509 0
-0.70959997 -0.25811577 -0.34917641 0
-0.5698812 -0.26946068 -0.35394192 0
-0.39943838 -0.29053879 -0.35657501 0
-0.16776848 -0.25948143 -0.36655521 0
0.057463646 -0.27677441 -0.37164688 0
0.22848797 -0.28273869 -0.36913633 0
-0.54408431 -0.16580963 -0.36110401 0
-0.34292006 -0.17465305 -0.36750364 0
-0.13606143 -0.1573391 -0.37289953 0
-0.021459818 -0.18140602 -0.36256075 0
0.18351912 -0.16897011 -0.36421204 0
-0.53309584 -0.073777199 -0.36493587 0
-0.36690283 -0.080331802 -0.3659234 0
-0.15793943 -0.082119942 -0.37116718 0
0.022933245 -0.056518555 -0.37096119 0
0.22771072 -0.078927994 -0.37159777 0
-0.52810907 0.028122902 -0.36770535 0
-0.37428927 0.023702621 -0.36718178 0
-0.15917301 0.023260117 -0.37282801 0
0.019393682 0.045796394 -0.3724165 0
0.19510365 0.037509918 -0.36973667 0
-0.52853632 0.15443802 -0.37046766 0
-0.35645294 0.1531496 -0.37275314 0
-0.23003173 0.18589687 -0.367167 0
-0.19277906 0.118186 -0.37035942 0
-0.0099008083 0.11295795 -0.36978531 0
0.17584538 0.13452339 -0.36936426 0
-0.54005027 0.25253773 -0.37129688 0
-0.34560442 0.25765228 -0.37693691 0
-0.18817782 0.26710129 -0.3748517 0
-0.0045936108 0.23053646 -0.37305164 0
0.15875316 0.21145439 -0.36891365 0
-0.54884601 0.34698582 -0.37299871 0
-0.37440705 0.35355663 -0.37572098 0
-0.16049957 0.34139538 -0.38054943 0
-0.030730724 0.34704399 -0.37171268 0
0.15437746 0.33157444 -0.37051439 0
-0.52973866 0.44570637 -0.37830305 0
-0.35863996 0.46649075 -0.38003683 0
-0.21247578 0.47642326 -0.37520647 0
-0.19394565 0.40328598 -0.37676144 0
-0.038337469 0.45017242 -0.37209225 0
0.15285325 0.44957733 -0.37236738 0
0.67382479 -0.45726013 -0.3599596 0
0.99563766 -0.49266911 -0.36355782 0
0.46091127 -0.37450409 -0.36739588 0
0.65594387 -0.37072563 -0.35828352 0
0.93756127 -0.39243698 -0.35690308 0
0.44770265 -0.25559998 -0.36700821 0
0.59867239 -0.28535175 -0.35122585 0
0.90959024 -0.29712582 -0.35427761 0
0.41991258 -0.16828442 -0.36432409 0
0.62463403 -0.19172955 -0.35621977 0
0.85854363 -0.16360664 -0.34907389 0
0.41085577 -0.096500397 -0.36404848 0
0.63000751 -0.10509014 -0.35839987 0
0.84601665 -0.032741547 -0.34963036 0
0.36322618 0.05865097 -0.36023092 0
0.40642595 -0.009979248 -0.36466408 0
0.60414791 0.060641289 -0.35786009 0
0.6189115 -0.015471458 -0.35847092 0
0.83093762 0.058512688 -0.34938192 0
0.37085986 0.13666058 -0.36305141 0
0.60114241 0.14768505 -0.35907745 0
0.81963825 0.15090084 -0.34929609 0
0.34286499 0.21687317 -0.36098576 0
0.58719969 0.23580456 -0.35877657 0
0.75764251 0.22681522 -0.34202576 0
0.33434129 0.33776855 -0.36193752 0
0.51362109 0.30133057 -0.35005236 0
0.71752143 0.31330585 -0.33829784 0
0.30112267 0.45872498 -0.35969067 0
0.49601173 0.46079254 -0.35078812 0
0.5366838 0.39033604 -0.35486698 0
0.72941613 0.40363026 -0.34189463 0
0.97695208 0.2521801 -0.33457756 0
0.91248679 0.34307957 -0.32751608 0
0.93243885 0.43662167 -0.3322444 0
-0.98485374 -0.46105289 -0.3137579 0
-0.83854294 -0.46997166 -0.317554 0
-0.57433724 -0.48758793 -0.33616114 0
-0.535851 -0.41274738 -0.34368229 0
-0.38001943 -0.45402145 -0.34143019 0
-0.12226129 -0.4611969 -0.35534954 0
-0.97062445 -0.37404537 -0.31979322 0
-0.95578957 -0.31330109 -0.32469893 0
-0.76684785 -0.38699627 -0.32968473 0
-0.73657036 -0.32511044 -0.33625269 0
-0.53048205 -0.35208511 -0.34645271 0
-0.31914043 -0.34002399 -0.35304451 0
-0.15419531 -0.38924694 -0.35202169 0
-0.90552521 -0.24400997 -0.3345232 0
-0.72766972 -0.23913765 -0.34167051 0
-0.50339484 -0.24802685 -0.35363579 0
-0.26926708 -0.22497368 -0.36337805 0
-0.089108229 -0.26625061 -0.36425352 0
-0.87543273 -0.15811825 -0.34277391 0
-0.65977931 -0.12838936 -0.35583162 0
-0.46745634 -0.13971329 -0.36195612 0
-0.2967031 -0.16235256 -0.36116886 0
-0.091671705 -0.15676022 -0.36607695 0
-0.98749423 -0.040106773 -0.34709787 0
-0.87144542 -0.067686081 -0.34763288 0
-0.68075299 -0.039166451 -0.35530806 0
-0.49351621 -0.049211502 -0.36016417 0
-0.29720497 -0.090537071 -0.36215496 0
-0.10270309 -0.080005646 -0.36577415 0
-0.98080444 0.044819832 -0.35040855 0
-0.82961798 0.036994934 -0.35531759 0
-0.64741468 0.06897831 -0.36189747 0
-0.48835874 0.052769661 -0.36288643 0
-0.29993033 0.026885033 -0.36396313 0
-0.13095689 0.036725998 -0.36390209 0
-0.98073125 0.11645699 -0.35230494 0
-0.91010141 0.14882946 -0.35507917 0
-0.85876751 0.1861496 -0.35560083 0
-0.67629361 0.15467358 -0.35994673 0
-0.52521205 0.11615467 -0.35930681 0
-0.30169606 0.12767124 -0.36604404 0
-0.13387346 0.14638996 -0.36569548 0
-0.85122323 0.25273609 -0.35859776 0
-0.66541839 0.2651577 -0.3644619 0
-0.47718596 0.23560905 -0.36833286 0
-0.30941272 0.23527718 -0.36763 0
-0.14440751 0.21982956 -0.36607218 0
-0.94953728 0.36336517 -0.36343622 0
-0.82690692 0.34931087 -0.36482382 0
-0.69060993 0.35551357 -0.36398792 0
-0.45814919 0.34980297 -0.37375021 0
-0.29358578 0.34885406 -0.37260103 0
-0.1327343 0.33723736 -0.37013674 0
-0.99761128 0.44348335 -0.35965586 0
-0.84363389 0.44860077 -0.36593103 0
-0.66603994 0.46295643 -0.37043619 0
-0.4962697 0.4418087 -0.37099648 0
-0.32948041 0.45238686 -0.36927223 0
-0.14578724 0.45468235 -0.36981726 0
0.13572121 -0.48687458 -0.36202669 0
0.36679721 -0.43248272 -0.36202765 0
0.61405635 -0.47436237 -0.35925055 0
0.11834645 -0.36760807 -0.36183167 0
0.34297299 -0.35379887 -0.36025715 0
0.59925008 -0.38506031 -0.35810661 0
0.11710334 -0.24095249 -0.36348343 0
0.32363272 -0.2708683 -0.35847616 0
0.56869102 -0.2909174 -0.35487318 0
0.091046333 -0.17039013 -0.36088562 0
0.33284545 -0.18045139 -0.3607378 0
0.53889966 -0.11472321 -0.3534441 0
0.5788877 -0.19061852 -0.3577261 0
0.10191894 -0.097579002 -0.36369133 0
0.30326509 -0.059069633 -0.35831308 0
0.56167626 -0.025212288 -0.35784292 0
0.09014225 0.02618885 -0.36455488 0
0.29456043 0.063978195 -0.35948324 0
0.53809452 0.071400642 -0.35604572 0
0.090102196 0.15120888 -0.36714792 0
0.29464388 0.14662552 -0.36124611 0
0.53414774 0.15691757 -0.35717678 0
0.072954178 0.21461105 -0.36622524 0
0.30269909 0.23172474 -0.36409473 0
0.49066281 0.23468208 -0.35255289 0
0.053360939 0.34056187 -0.36546659 0
0.24136162 0.34504223 -0.35748386 0
0.52923226 0.33546925 -0.35938454 0
0.054536819 0.47277164 -0.36722994 0
0.23523927 0.47648716 -0.35873508 0
0.43379378 0.48609066 -0.34903145 0
0.46924734 0.41555405 -0.35260391 0
0.85666966 -0.48857784 -0.35627842 0
0.84574699 -0.38311195 -0.35586262 0
0.83140039 -0.27184868 -0.35508442 0
0.76709533 -0.19626999 -0.34712982 0
0.72946191 -0.10648346 -0.34348869 0
0.73605418 0.037521362 -0.34686422 0
0.70711637 0.17040634 -0.34489059 0
0.93375349 0.16580296 -0.33147526 0
0.98784781 0.095952988 -0.33779001 0
0.68540049 0.26899338 -0.34354782 0
0.92848539 0.28307343 -0.33257723 0
0.66562223 0.34753513 -0.34239054 0
0.85041547 0.36150455 -0.32336426 0
0.63221383 0.43845558 -0.33969021 0
0.86081529 0.46029949 -0.32676888 0
-0.87475872 0.26865768 -0.37645292 0
-0.94995999 0.3125658 -0.36777067 0
-0.89796972 0.43035126 -0.37787867 0
-0.88709021 -0.46782875 -0.33179998 0
-0.87330842 -0.40903378 -0.33601236 0
-0.61003518 -0.41775703 -0.35342407 0
-0.43305349 -0.46534443 -0.35438108 0
-0.17787051 -0.46726227 -0.36637211 0
-0.84715557 -0.34076118 -0.3423419 0
-0.63696289 -0.36775208 -0.35141897 0
-0.37006783 -0.35583591 -0.36561298 0
-0.18868351 -0.39178276 -0.36601782 0
-0.16811657 -0.31947517 -0.37064457 0
-0.99069834 -0.24949455 -0.34473753 0
-0.86813951 -0.29263401 -0.34184933 0
-0.61317134 -0.27040291 -0.35756159 0
-0.38228488 -0.24496555 -0.36711264 0
-0.20296049 -0.25380993 -0.36785316 0
-0.9536581 -0.13125801 -0.35509729 0
-0.80344057 -0.14761925 -0.35676718 0
-0.74519801 -0.19487667 -0.36188936 0
-0.60080099 -0.17344379 -0.36302948 0
-0.36499739 -0.17331791 -0.37099838 0
-0.17132545 -0.17126942 -0.37298727 0
-0.91622186 -0.061934471 -0.36321449 0
-0.74159288 -0.040408134 -0.3677268 0
-0.55697775 -0.092857361 -0.37052965 0
-0.35423684 -0.059422493 -0.37370539 0
-0.15702438 -0.082975388 -0.37584066 0
-0.92474747 0.02856636 -0.36390972 0
-0.74428034 0.060582161 -0.36893797 0
-0.53317809 0.02966404 -0.37558508 0
-0.30659056 0.066617966 -0.38209438 0
-0.16428828 0.035269737 -0.37621975 0
-0.93422985 0.1280632 -0.36502504 0
-0.76079535 0.1605196 -0.36868715 0
-0.58572125 0.18789291 -0.37119818 0
-0.54077506 0.13410091 -0.37626982 0
-0.36810279 0.12814522 -0.37496758 0
-0.15114784 0.15601635 -0.37987328 0
-0.90239882 0.19884205 -0.37099648 0
-0.71755838 0.27565289 -0.37728405 0
-0.5429976 0.27621746 -0.37853909 0
-0.34149194 0.24330902 -0.380723 0
-0.14454269 0.23224068 -0.38218403 0
-0.76225853 0.32959652 -0.37283039 0
-0.53824782 0.35050488 -0.38106012 0
-0.34997106 0.3604126 -0.38198662 0
-0.19460917 0.29420757 -0.37668848 0
-0.75183344 0.43793678 -0.37690067 0
-0.54319406 0.45638943 -0.38236713 0
-0.37393165 0.43334484 -0.37924862 0
-0.19945359 0.42457199 -0.37702703 0
0.033759356 -0.48047829 -0.36641884 0
0.30841851 -0.46708965 -0.36966228 0
0.63650203 -0.48323441 -0.37642813 0
0.068116665 -0.34886169 -0.37270355 0
0.37086177 -0.35787201 -0.37952995 0
0.60997367 -0.40705967 -0.3731575 0
0.053217649 -0.26586151 -0.37142706 0
0.31763053 -0.28281784 -0.37266254 0
0.56142521 -0.29749393 -0.36686659 0
0.051814079 -0.14675331 -0.37235308 0
0.25554466 -0.1189909 -0.36507702 0
0.32552457 -0.19094658 -0.37425137 0
0.54399014 -0.16741943 -0.36557961 0
0.064199209 -0.024628639 -0.37563992 0
0.28041768 -0.025875092 -0.36940193 0
0.076682806 0.072509766 -0.37871313 0
0.31751394 0.080768585 -0.37593985 0
0.54734039 0.025673866 -0.36779785 0
0.081465244 0.15166569 -0.38056087 0
0.26363015 0.14257526 -0.36958599 0
0.54022121 0.161129 -0.36833096 0
0.091782093 0.24584389 -0.38333416 0
0.3002553 0.2513504 -0.3759675 0
0.53013778 0.24712086 -0.36778975 0
0.055067301 0.31068611 -0.37895155 0
0.27367735 0.33101559 -0.37306499 0
0.47315907 0.32867146 -0.36082029 0
0.014320374 0.47832108 -0.37451744 0
0.057145596 0.4070034 -0.37986708 0
0.19435501 0.47840881 -0.36374187 0
0.26955843 0.41191387 -0.37330675 0
0.48817754 0.42770863 -0.36393261 0
0.85810328 -0.40450382 -0.36893415 0
0.81190467 -0.29944515 -0.36306763 0
0.80153918 -0.20686436 -0.36216831 0
0.70365286 -0.02328968 -0.35053301 0
0.78425503 -0.10191631 -0.36072111 0
0.76134706 0.081963539 -0.35959864 0
0.73150396 0.18009281 -0.35619164 0
0.94299054 0.1724081 -0.33794832 0
0.72977829 0.27628326 -0.35688543 0
0.92293215 0.27170181 -0.3361578 0
0.6487968 0.35634136 -0.34684563 0
0.92237163 0.37511063 -0.3371706 0
0.65987635 0.45412254 -0.34966516 0
0.88909101 0.4677515 -0.33390093 0
-0.98713326 -0.18525219 -0.3299818 0
-0.99493623 -0.069973946 -0.33423471 0
-0.95037889 0.039885521 -0.34260082 0
-0.95084906 0.13391972 -0.34444952 0
-0.93949628 0.24611568 -0.3484292 0
-0.75703645 0.24452972 -0.350914 0
-0.93749523 0.34545517 -0.35093832 0
-0.71493101 0.3636179 -0.35918713 0
-0.93356824 0.4550848 -0.3540411 0
-0.73666596 0.43190765 -0.35794783 0
-0.95398307 -0.45973682 -0.30507517 0
-0.68240213 -0.44284248 -0.32330275 0
-0.41338348 -0.44515991 -0.33623171 0
-0.16879034 -0.45340824 -0.34507036 0
0.10476255 -0.43925953 -0.35088348 0
-0.85432076 -0.34333611 -0.32245684 0
-0.64023042 -0.37992382 -0.33053207 0
-0.41116738 -0.33749008 -0.33893681 0
-0.17794538 -0.33710957 -0.34536886 0
0.1042397 -0.36184883 -0.35143042 0
-0.8290062 -0.25142956 -0.32948446 0
-0.59999633 -0.29950047 -0.33802509 0
-0.59123421 -0.23049736 -0.34111452 0
-0.33467174 -0.24282074 -0.35133314 0
-0.10495448 -0.23689747 -0.35733843 0
0.14351702 -0.26654434 -0.35745049 0
-0.76642418 -0.13022041 -0.34261274 0
-0.57483029 -0.16505623 -0.34581709 0
-0.32908392 -0.1775856 -0.35356569 0
-0.15339208 -0.1775732 -0.35116673 0
0.1047771 -0.18896675 -0.35210657 0
-0.7807982 -0.039358139 -0.34310865 0
-0.56037402 -0.05193615 -0.34977007 0
-0.34648848 -0.061777115 -0.35195684 0
-0.11026597 -0.084720612 -0.35769987 0
0.098537207 -0.092321396 -0.35202265 0
-0.75893307 0.069815636 -0.34741402 0
-0.5208993 0.065654755 -0.35652113 0
-0.32695222 0.067752838 -0.35611486 0
-0.13259959 0.080014229 -0.35593843 0
-0.076006651 0.017486572 -0.36316252 0
0.083479166 0.067645073 -0.35147619 0
0.14782262 0.0027036667 -0.35962009 0
-0.75830603 0.13900089 -0.3485074 0
-0.5514071 0.141222 -0.35338593 0
-0.27984738 0.16077995 -0.36379862 0
-0.099228859 0.17957687 -0.36166573 0
0.15409136 0.16686344 -0.36217451 0
-0.55967045 0.22028828 -0.35340214 0
-0.28195953 0.24337578 -0.36473989 0
-0.11902142 0.2414341 -0.35988188 0
0.10534024 0.24198151 -0.35641623 0
-0.53452182 0.3390398 -0.35890675 0
-0.30644035 0.3114357 -0.36252642 0
-0.12781477 0.33313274 -0.35992908 0
0.14303398 0.34937572 -0.36224699 0
-0.54449177 0.43772888 -0.35937881 0
-0.31824279 0.42474461 -0.36207724 0
-0.15247154 0.45148182 -0.35684681 0
0.089051247 0.42936039 -0.3551259 0
0.3710866 -0.48278522 -0.35005283 0
0.38828921 -0.39099026 -0.35289574 0
0.67226315 -0.36318207 -0.34982634 0
0.38292789 -0.30142307 -0.35248756 0
0.63049316 -0.21909237 -0.34416342 0
0.36470985 -0.1527319 -0.35024643 0
0.3485384 -0.02414608 -0.3483839 0
0.63834262 -0.065742493 -0.34601212 0
0.34209514 0.069612503 -0.34834909 0
0.62867975 0.07369709 -0.34550095 0
0.33225536 0.15435982 -0.34787321 0
0.58211756 0.16101456 -0.33954382 0
0.35964751 0.26766014 -0.35250664 0
0.53243804 0.25202847 -0.33329296 0
0.32224107 0.34455395 -0.3477726 0
0.56267381 0.35767365 -0.33812428 0
0.30599785 0.43535995 -0.34607744 0
0.55052733 0.45553207 -0.337152 0
0.95060706 -0.42697906 -0.34660721 0
0.91144657 -0.31298161 -0.34134817 0
0.87513804 -0.20572376 -0.33653641 0
0.85171986 -0.061364174 -0.33387899 0
0.88522959 0.10753345 -0.33958721 0
0.79303098 0.23460007 -0.32723808 0
0.71233749 0.47335815 -0.31794643 0
0.7610364 0.38701725 -0.32386589 0
0.97270989 0.49917316 -0.30297995 0
-0.96447062 -0.15872383 -0.34651566 0
-0.95098138 -0.062031746 -0.3516078 0
-0.92101526 0.049729347 -0.35759115 0
-0.9339292 0.11661625 -0.3571291 0
-0.92141294 0.26238346 -0.36177349 0
-0.90982723 0.19714451 -0.36194181 0
-0.86436629 0.35535431 -0.37135649 0
-0.88478255 0.4235487 -0.37023163 0
-0.91178536 0.48968506 -0.36787176 0
-0.87741876 -0.46665764 -0.32596016 0
-0.59586859 -0.43871498 -0.34404564 0
-0.37157273 -0.48131847 -0.34873629 0
-0.047798872 -0.46831894 -0.36308432 0
-0.85137582 -0.3984108 -0.33159781 0
-0.81140399 -0.32606506 -0.33950138 0
-0.57970595 -0.36331463 -0.34809351 0
-0.32859254 -0.35851097 -0.35696411 0
-0.0097184181 -0.37968636 -0.36891413 0
-0.79069567 -0.25362396 -0.34499741 0
-0.53260899 -0.27761269 -0.3563776 0
-0.30531192 -0.27428627 -0.3618722 0
-0.014535427 -0.30601883 -0.3688035 0
-0.73823166 -0.17759037 -0.35474777 0
-0.47554302 -0.18723774 -0.36607647 0
-0.291888 -0.19656658 -0.36488056 0
-0.019892931 -0.20691681 -0.36861372 0
-0.72602654 -0.063792229 -0.35918379 0
-0.46265459 -0.071050644 -0.36919594 0
-0.24707127 -0.095336914 -0.37157154 0
-0.0068128109 -0.11530113 -0.37090683 0
-0.68376184 0.051650047 -0.36618376 0
-0.48519754 0.039717674 -0.36742687 0
-0.26487684 0.01875782 -0.36998272 0
-0.018344641 0.060293198 -0.37046099 0
-0.0030646324 -0.022909164 -0.37198973 0
-0.65094781 0.1386528 -0.37165833 0
-0.44439387 0.12480736 -0.37394333 0
-0.24855208 0.15567207 -0.37379408 0
0.018204212 0.15116787 -0.37616348 0
-0.68871188 0.20060158 -0.36759806 0
-0.47738957 0.20787144 -0.37053156 0
-0.27123427 0.2322607 -0.37176514 0
-0.02170229 0.23467445 -0.37159538 0
-0.71571922 0.27980804 -0.36557961 0
-0.70591068 0.35197735 -0.36839104 0
-0.46238589 0.32519627 -0.37421989 0
-0.24366784 0.31415653 -0.3766408 0
0.013017178 0.33021355 -0.37691307 0
-0.66581488 0.43518353 -0.37551069 0
-0.48623323 0.45428371 -0.3720994 0
-0.26052141 0.40591145 -0.3746686 0
-0.022979259 0.41362858 -0.37206364 0
0.52518511 -0.44459534 -0.3625536 0
0.81916547 -0.44995213 -0.36125135 0
0.22767997 -0.41396046 -0.36370277 0
0.27671504 -0.31324387 -0.37093544 0
0.5509665 -0.28094196 -0.36613846 0
0.23745751 -0.22620869 -0.36548042 0
0.48641825 -0.14972591 -0.35754061 0
0.18417144 -0.053679466 -0.35867071 0
0.23365116 -0.12604618 -0.36503124 0
0.47815514 0.046071053 -0.35693312 0
0.5333569 -0.031681061 -0.36434698 0
0.24086976 0.10463524 -0.36773443 0
0.47726512 0.1529417 -0.35753012 0
0.23182249 0.23809242 -0.36756706 0
0.4952662 0.26002789 -0.36045313 0
0.20947218 0.33950806 -0.36486101 0
0.44888401 0.33188343 -0.35435724 0
0.2193656 0.43228149 -0.36663103 0
0.46970487 0.44302273 -0.35780525 0
0.79447198 -0.33870792 -0.35774803 0
0.75938606 -0.23679066 -0.35286427 0
0.79732704 -0.11675835 -0.35846376 0
0.77934146 -0.019271851 -0.3564105 0
0.7441318 0.066180229 -0.35196686 0
0.70583534 0.17034912 -0.3468523 0
0.99691057 0.16552258 -0.33516264 0
0.72556019 0.28533363 -0.35004663 0
0.95183587 0.28960419 -0.32942629 0
0.66283274 0.36945438 -0.34194183 0
0.89489985 0.38550472 -0.32203913 0
0.67457438 0.46973801 -0.34423351 0
0.89774537 0.48772621 -0.32318163 0
-0.99680591 0.066226006 -0.35806704 0
-0.99672174 0.36083603 -0.36364317 0
-0.71708584 -0.4406023 -0.33565998 0
-0.45545197 -0.43665409 -0.34809399 0
-0.14768338 -0.47621536 -0.35806704 0
-0.95264435 -0.33064079 -0.3299737 0
-0.66225791 -0.34782887 -0.34520435 0
-0.42174602 -0.36878967 -0.35394907 0
-0.15129948 -0.38633156 -0.35801268 0
-0.9293294 -0.2566433 -0.33583164 0
-0.67276216 -0.28751087 -0.34536791 0
-0.42096972 -0.28462601 -0.35580349 0
-0.14951634 -0.31210136 -0.35946512 0
-0.87225437 -0.17828083 -0.34624147 0
-0.62776542 -0.1919384 -0.35464716 0
-0.59437871 -0.12162971 -0.36095619 0
-0.38130546 -0.1901474 -0.36301756 0
-0.094971418 -0.20573044 -0.36806631 0
-0.85528398 -0.066363335 -0.35186195 0
-0.55110765 -0.02896595 -0.36769581 0
-0.3400631 -0.091225624 -0.36913776 0
-0.10310268 -0.12032127 -0.3673358 0
-0.83116531 0.04852581 -0.35647964 0
-0.59879923 0.044816017 -0.36196423 0
-0.35693192 0.020928383 -0.36782408 0
-0.087014914 0.024169922 -0.37034559 0
-0.84694457 0.12851715 -0.35560131 0
-0.58276916 0.13418865 -0.3651228 0
-0.34291363 0.15651512 -0.3712697 0
-0.11916757 0.15556526 -0.36693335 0
-0.80683279 0.22002888 -0.3626442 0
-0.56999373 0.21708012 -0.36782789 0
-0.38220763 0.22426319 -0.36678886 0
-0.085012913 0.24127769 -0.37256575 0
-0.78653932 0.33468342 -0.3676033 0
-0.56207371 0.33953476 -0.37090349 0
-0.31082249 0.3377285 -0.37795687 0
-0.11074257 0.34307575 -0.3696909 0
-0.81878257 0.4354496 -0.36541891 0
-0.59236908 0.4642086 -0.36815739 0
-0.33125305 0.42722893 -0.37553787 0
-0.10758376 0.43066978 -0.37021399 0
-0.38493538 0.49820709 -0.36854649 0
0.45274448 -0.44502354 -0.36132717 0
0.76047873 -0.46180534 -0.36115789 0
0.17543006 -0.42127419 -0.3658843 0
0.43867135 -0.36027145 -0.3593545 0
0.74820113 -0.33681583 -0.3592701 0
0.15986991 -0.32488823 -0.36433315 0
0.46795583 -0.23843861 -0.36346912 0
0.69820428 -0.24650002 -0.35219908 0
0.15618348 -0.17843533 -0.36379671 0
0.4478066 -0.14646339 -0.36076498 0
0.69034886 -0.14468098 -0.35134697 0
0.13209581 -0.039049149 -0.36114836 0
0.43795061 -0.043647766 -0.35954762 0
0.14818978 0.059559822 -0.36406612 0
0.45550799 0.064720154 -0.36230755 0
0.70998812 -0.02344799 -0.35450077 0
0.19066834 0.15935898 -0.37069464 0
0.44235182 0.15282822 -0.36114788 0
0.68394876 0.077026367 -0.35127974 0
0.17538595 0.25721359 -0.36931467 0
0.37718558 0.25930309 -0.35254192 0
0.66935897 0.18685722 -0.34939766 0
0.1773026 0.34196281 -0.36981058 0
0.40715265 0.36057758 -0.35703802 0
0.65590572 0.28329182 -0.34796715 0
0.13510799 0.4336834 -0.36429358 0
0.38456845 0.45955563 -0.3543272 0
0.62714696 0.38801003 -0.34457207 0
0.57851839 0.47948456 -0.33836603 0
0.97323608 -0.056670189 -0.33748674 0
0.9732213 0.06248951 -0.33791256 0
0.9241569 0.18300533 -0.3314333 0
0.91572571 0.30361366 -0.3306489 0
0.85718608 0.39569664 -0.32296848 0
-0.90190244 -0.43306541 -0.32620478 0
-0.86019087 -0.35203552 -0.33427 0
-0.81598639 -0.27375126 -0.34264278 0
-0.77143025 -0.18741894 -0.35139847 0
-0.74825835 -0.077052116 -0.35714722 0
-0.94778228 0.023785591 -0.35760307 0
-0.71475816 0.057181358 -0.36272621 0
-0.93128371 0.14591312 -0.36163521 0
-0.71890759 0.13836861 -0.36287069 0
-0.93336129 0.2217083 -0.36259174 0
-0.70866942 0.21781063 -0.36538553 0
-0.94333577 0.29450321 -0.3625164 0
-0.89294291 0.3776722 -0.37075186 0
-0.67763877 0.31254292 -0.37107468 0
-0.93720198 0.45209217 -0.36624908 0
-0.70045066 0.389534 -0.36931658 0
-0.56716847 -0.46398735 -0.34647083 0
-0.32311368 -0.47065639 -0.351367 0
0.32432771 -0.46375275 -0.36181688 0
-0.58392453 -0.38970375 -0.34577322 0
-0.28135514 -0.38043785 -0.35833216 0
0.057958603 -0.41731834 -0.3682971 0
0.34977126 -0.35377598 -0.36542225 0
-0.52994013 -0.29643726 -0.35486317 0
-0.24097729 -0.29037571 -0.36515617 0
0.030167103 -0.28335667 -0.36457539 0
0.33387518 -0.23870373 -0.36277866 0
-0.50113034 -0.21429062 -0.36023664 0
-0.24099588 -0.12935638 -0.36629581 0
-0.22126245 -0.20365715 -0.36893368 0
0.044996738 -0.13072968 -0.36677408 0
0.35364723 -0.14235783 -0.36527681 0
-0.47133923 -0.084849358 -0.36546326 0
0.062920332 -0.037982941 -0.36951828 0
-0.47410393 0.043839455 -0.36602068 0
-0.2396574 0.059654236 -0.36708832 0
-0.21575689 -0.021684647 -0.37001801 0
0.34233928 0.065327644 -0.36381006 0
-0.47705626 0.13537502 -0.36641264 0
-0.20446301 0.16472626 -0.37274075 0
0.087740421 0.077806473 -0.37338972 0
0.33831048 0.15768147 -0.36362028 0
-0.41700077 0.24037075 -0.37556076 0
-0.1964376 0.26012135 -0.37470102 0
0.090471029 0.22051144 -0.37443733 0
-0.45182824 0.31279564 -0.37153149 0
-0.20065761 0.3568306 -0.37462902 0
0.04620266 0.35646439 -0.36832857 0
0.336622 0.31612873 -0.36351395 0
-0.41657996 0.40666866 -0.37707138 0
-0.25007892 0.44062996 -0.36760712 0
0.074978828 0.46541023 -0.37222338 0
-0.42823815 0.49891663 -0.37550211 0
0.7436893 -0.46191883 -0.37150335 0
0.70331597 -0.36297321 -0.36531353 0
0.98195601 -0.36725807 -0.35573673 0
0.65795827 -0.26154041 -0.35847998 0
0.98865581 -0.25762367 -0.35639715 0
0.6873877 -0.14789772 -0.3624649 0
0.91542053 -0.14558506 -0.34588766 0
0.62118554 -0.049039841 -0.35315895 0
0.32550645 -0.027909279 -0.36117172 0
0.93950176 -0.021255493 -0.34919405 0
0.57549953 0.16430473 -0.34670258 0
0.61856747 0.065432549 -0.35281277 0
0.9096384 0.079369545 -0.3450036 0
0.89315796 0.20143414 -0.34257841 0
0.64205575 0.26941681 -0.35611725 0
0.82243752 0.2969532 -0.33260965 0
0.31412292 0.46686268 -0.3605113 0
0.58306575 0.38706303 -0.34803772 0
0.77234864 0.39995956 -0.32587576 0
0.58092785 0.48503876 -0.34791327 0
-0.93441033 -0.4492321 -0.31936121 0
-0.58595085 -0.49704838 -0.33935928 0
-0.88890767 -0.36719894 -0.32753086 0
-0.5320785 -0.39793587 -0.34800911 0
-0.83221364 -0.2887764 -0.33714294 0
-0.48901749 -0.30631828 -0.35485792 0
-0.82480288 -0.21546459 -0.34020567 0
-0.48571348 -0.22012997 -0.35636187 0
-0.4601388 -0.13316536 -0.36025953 0
-0.99175549 -0.058906555 -0.34835911 0
-0.72461677 -0.067376137 -0.35655499 0
-0.44354081 -0.034044266 -0.3626399 0
-0.97653651 0.057198524 -0.35193157 0
-0.68595552 0.064415932 -0.36225271 0
-0.40985942 0.057370186 -0.36750317 0
-0.95429277 0.14453411 -0.35585833 0
-0.68959904 0.15881348 -0.36214876 0
-0.40036869 0.14688778 -0.369102 0
-0.97371626 0.22092724 -0.3541007 0
-0.68488741 0.23502922 -0.3634634 0
-0.37203169 0.24279499 -0.37342167 0
-0.88385177 0.33061695 -0.36762953 0
-0.68650317 0.31567192 -0.3641305 0
-0.37531519 0.33491898 -0.37345695 0
-0.90010452 0.41003132 -0.36652708 0
-0.64129567 0.42508793 -0.3715682 0
-0.39243913 0.43713665 -0.37103415 0
-0.32984734 -0.49824238 -0.34328651 0
0.11080122 -0.43168068 -0.36453676 0
0.42052126 -0.47791958 -0.36077642 0
-0.25846219 -0.40507793 -0.35374165 0
0.08210063 -0.34775257 -0.36022663 0
0.44083691 -0.36327934 -0.36265945 0
-0.23558283 -0.30603313 -0.35775089 0
0.41585326 -0.258811 -0.35822773 0
-0.17616105 -0.20809078 -0.36653423 0
0.12195683 -0.22434807 -0.36492062 0
0.40918636 -0.1607523 -0.3564949 0
-0.1597867 -0.10287571 -0.36842966 0
0.14064074 -0.12286663 -0.36694574 0
0.43345952 -0.036518097 -0.35902166 0
-0.18227386 -0.024184227 -0.36506653 0
