# .PCD v0.7 - Point Cloud Data file format
VERSION 0.7
FIELDS x y z intensity
SIZE 4 4 4 4
TYPE F F F F
COUNT 1 1 1 1
WIDTH 1315
HEIGHT 1
VIEWPOINT 0 0 0 1 0 0 0
POINTS 1315
DATA ascii
0.050449371 0.39752257 0.27493358 0
0.17011404 0.38859093 0.3032088 0
0.35335302 0.40314496 0.35894093 0
0.41701698 0.39569175 0.37639391 0
0.53149271 0.38896155 0.4350839 0
0.59591198 0.39094841 0.45965505 0
-0.13806963 0.41779864 0.24810007 0
-0.044352055 0.4250648 0.26475024 0
0.052822113 0.43746996 0.2888332 0
0.13137388 0.46488833 0.30703241 0
-0.12759018 0.49788451 0.27329972 0
0.92860985 -0.20714402 0.64781153 0
0.98909664 -0.21797991 0.67733097 0
0.89787102 0.020351052 0.6191231 0
0.91181278 0.027878046 0.6228106 0
0.92787886 0.075469613 0.62908161 0
0.91981792 0.1776582 0.63121134 0
-0.13406563 -0.460513 -0.4321672 0
-0.41570139 -0.46465194 -0.47450164 0
-0.34898663 -0.46485424 -0.47111636 0
-0.23509836 -0.4492991 -0.44053534 0
-0.16360283 -0.42959094 -0.42647091 0
-0.43190169 -0.36888039 -0.47799933 0
-0.36512566 -0.36173952 -0.46571609 0
-0.27296591 -0.35462737 -0.43566445 0
-0.17989874 -0.32568526 -0.40588662 0
-0.44278288 -0.28076231 -0.47753292 0
-0.37367153 -0.26278698 -0.45400763 0
-0.2754283 -0.24920487 -0.42014009 0
-0.18041611 -0.23276353 -0.38829032 0
-0.14650822 -0.19903624 -0.37290725 0
-0.46173048 -0.18180895 -0.46991992 0
-0.40078688 -0.15793812 -0.446033 0
-0.31170678 -0.16302955 -0.41854978 0
-0.20619202 -0.14158857 -0.3811675 0
-0.15038586 -0.13570225 -0.36396477 0
-0.42829657 -0.083760977 -0.44373572 0
-0.31087518 -0.032370448 -0.40256879 0
-0.22007346 -0.032187104 -0.37543902 0
-0.17148066 -0.036922932 -0.36303326 0
-0.40302467 0.044316649 -0.42252365 0
-0.33572769 0.04825592 -0.4021036 0
-0.24265838 0.040773988 -0.37746337 0
-0.41674519 0.1103102 -0.41953641 0
-0.36542416 0.12978065 -0.40297478 0
-0.55173302 -0.49547565 -0.46259511 0
-0.47419572 -0.47416365 -0.46888447 0
-0.6408658 -0.40562773 -0.46632954 0
-0.57686472 -0.39877117 -0.46416646 0
-0.48079681 -0.38823664 -0.47297466 0
-0.58502889 -0.28738451 -0.46742013 0
-0.49920917 -0.2864387 -0.47336325 0
-0.6103971 -0.1945647 -0.47217306 0
-0.51551437 -0.18681347 -0.47705716 0
-0.69441962 -0.072742581 -0.47312629 0
-0.62714171 -0.0966295 -0.47273821 0
-0.52427006 -0.075645089 -0.47011024 0
0.95152903 0.12178636 0.43064463 0
-0.70838666 -0.015565276 -0.48212597 0
-0.63578725 -0.0069314241 -0.47883558 0
-0.54703546 -0.0086168051 -0.46873844 0
-0.74081802 0.07521987 -0.48488826 0
-0.67034602 0.068746328 -0.48162323 0
-0.51994181 0.16817701 -0.44644874 0
-0.47361517 0.1193018 -0.43793198 0
0.82501554 0.33540535 0.3778227 0
-0.73152661 0.14568079 -0.47384229 0
0.81952858 0.38552511 0.38531002 0
0.87927008 0.40333378 0.40858892 0
0.99694347 0.49983335 0.47099671 0
-0.61361146 -0.4949162 -0.45874092 0
-0.85517502 -0.4654541 -0.48568591 0
-0.78809714 -0.42713594 -0.45663121 0
-0.6969161 -0.41881704 -0.45561573 0
-0.63240123 -0.41532147 -0.46061537 0
0.98356438 -0.14791036 0.46529955 0
-0.81101227 -0.33487761 -0.46145114 0
-0.70896077 -0.31634593 -0.46082166 0
-0.6496315 -0.32249582 -0.45896435 0
0.7678504 -0.063008308 0.39869875 0
0.8118825 -0.053817391 0.39691824 0
0.95545292 -0.096488476 0.50527978 0
-0.83037305 -0.23549986 -0.47044256 0
-0.72457099 -0.21136642 -0.46657532 0
0.2358346 -0.036120653 0.063118607 0
0.45771408 0.0035288334 0.26218364 0
0.52218676 0.020620346 0.28159973 0
0.67667103 0.010565281 0.35137102 0
0.73387146 0.021364689 0.36958846 0
0.8032732 0.0024670362 0.42052564 0
-0.91453338 -0.10347092 -0.48071235 0
-0.85323858 -0.13538289 -0.47595745 0
-0.74778795 -0.11641705 -0.47304079 0
0.22231722 0.027229786 0.10187519 0
0.24894857 0.046878695 0.12592426 0
0.46583748 0.050848961 0.27407643 0
0.51046324 0.093084455 0.29327747 0
0.59844255 0.11436069 0.3184146 0
0.73803186 0.0947721 0.37117317 0
0.8022995 0.12186742 0.42195684 0
0.89384174 0.1433996 0.44385967 0
0.9942522 0.14424527 0.51160324 0
-0.92834544 -0.045034289 -0.48753685 0
-0.84488535 -0.042880654 -0.48576671 0
-0.76410389 -0.01664865 -0.4796606 0
0.20403481 0.094629765 0.13742346 0
0.22622442 0.093433499 0.14062193 0
0.47521925 0.11958575 0.29048043 0
0.52747869 0.1453253 0.31056392 0
0.57994127 0.15526617 0.32022786 0
0.72968102 0.19560218 0.35818341 0
0.79558706 0.2063061 0.40823758 0
0.88273191 0.23146355 0.46020922 0
0.98152399 0.22057259 0.49190757 0
-0.95312953 0.056052089 -0.49376154 0
-0.86753798 0.069561005 -0.48991022 0
-0.78758407 0.08194232 -0.48672473 0
0.72539663 0.28178596 0.36708906 0
0.77425575 0.3302846 0.42014822 0
0.85722542 0.31801832 0.48483598 0
0.92800045 0.3029263 0.49648258 0
-0.97533655 0.14592433 -0.49915379 0
-0.88843346 0.1574856 -0.48804098 0
-0.81342983 0.17243361 -0.47758541 0
0.60589886 0.38744462 0.38495472 0
0.67369604 0.40996313 0.40689448 0
0.76297092 0.4176271 0.42292801 0
0.84449244 0.43245161 0.44110528 0
0.98337531 0.45532894 0.48742831 0
-0.97916102 0.24759412 -0.4818939 0
-0.93063521 0.24004447 -0.47775891 0
0.6668992 0.46519792 0.40315804 0
0.76541352 0.47548032 0.42260221 0
0.81921959 0.48193967 0.4480457 0
-0.96136284 0.33043277 -0.46356615 0
0.78307009 -0.16011131 0.52918971 0
0.20512009 -0.13648832 0.20905471 0
0.72209358 -0.07078135 0.49573505 0
0.77484083 -0.082255125 0.51346624 0
0.9082222 -0.064329624 0.54619038 0
0.9412303 -0.033498764 0.54017162 0
0.19032717 -0.10717845 0.21683663 0
0.21428776 -0.081720352 0.21998322 0
0.42991066 -0.0060740709 0.25973782 0
0.71178484 -0.0012117624 0.47473946 0
0.77260876 0.0093985796 0.49738586 0
0.8644166 0.023967981 0.52847785 0
0.97503328 0.058430314 0.57176745 0
-0.96118236 -0.17119503 -0.49672326 0
0.21819401 -0.021737337 0.23083365 0
0.37451839 0.072950125 0.27200872 0
0.43963194 0.071148992 0.27743617 0
0.48333979 0.10691488 0.29657629 0
0.70181608 0.10594893 0.48450327 0
0.7534318 0.10851872 0.49298087 0
0.85178471 0.11916459 0.52252734 0
0.97774553 0.12268913 0.57702267 0
-0.95608044 -0.067628264 -0.48425254 0
0.19780779 0.12465835 0.14481142 0
0.43041611 0.1426928 0.29981655 0
0.4856267 0.16501248 0.3152366 0
0.58711529 0.20017636 0.42406204 0
0.6652689 0.20965171 0.44683263 0
0.74382877 0.20226943 0.49695912 0
0.82691288 0.23199761 0.52052611 0
-0.98945403 0.017922044 -0.49507442 0
-0.097942352 0.1793685 0.015180111 0
0.41494608 0.2262398 0.33279157 0
0.46092558 0.24897647 0.35147917 0
0.56893587 0.28205693 0.42617473 0
0.65670347 0.28906786 0.44792333 0
0.73271227 0.28622925 0.48914546 0
0.82216549 0.29751158 0.5079335 0
-0.130162 0.23030126 0.034769148 0
0.39247513 0.33799398 0.37200946 0
0.44673777 0.36127901 0.39827442 0
0.53992319 0.36063981 0.41544375 0
0.6459198 0.37607491 0.42237234 0
0.72540855 0.38029885 0.45724189 0
0.45615578 0.43541241 0.40256098 0
0.51058245 0.46752095 0.42649639 0
-0.98166561 0.37091804 -0.4574337 0
0.85254049 -0.24701262 0.61998385 0
0.96212196 -0.25364435 0.66544604 0
0.77134037 -0.16713524 0.5461663 0
0.84191942 -0.22316992 0.62018108 0
0.77510738 -0.11776793 0.55097598 0
0.093022823 -0.054675579 0.19679475 0
0.096893311 -0.056671143 0.20131204 0
0.83848524 0.037035465 0.62654531 0
0.096523285 -0.020945191 0.20693886 0
0.76733112 0.081731081 0.56171143 0
0.83135366 0.12571502 0.6223526 0
0.86001587 0.16264355 0.65694714 0
0.74037504 0.24686503 0.56582087 0
0.78784227 0.22866225 0.60512626 0
0.86552238 0.19776165 0.65928555 0
0.71256733 0.28926611 0.56312358 0
0.76228571 0.27471042 0.60300738 0
-0.096313 -0.48235798 -0.42970577 0
-0.34323454 -0.42410767 -0.47245783 0
-0.2676363 -0.41736031 -0.45175359 0
-0.16825724 -0.40150774 -0.42065173 0
-0.44154286 -0.31176984 -0.4741945 0
-0.38274598 -0.33759999 -0.47045004 0
-0.28710985 -0.31804836 -0.4429062 0
-0.19556904 -0.30860698 -0.41189399 0
-0.14003992 -0.30806661 -0.39468738 0
-0.46907043 -0.23576951 -0.47300017 0
-0.40799069 -0.24255657 -0.46711004 0
-0.30707598 -0.21838129 -0.43388996 0
-0.22724152 -0.21759236 -0.40798375 0
-0.49710512 -0.14299214 -0.47120222 0
-0.41831684 -0.13735628 -0.45719954 0
-0.31889129 -0.13288534 -0.42474428 0
-0.25768209 -0.11394572 -0.40248579 0
-0.60787177 -0.043934822 -0.47386333 0
-0.53628325 -0.066382527 -0.47185761 0
-0.42822862 -0.039976001 -0.44611275 0
-0.33911562 -0.022394896 -0.41699305 0
-0.28788304 -0.026400089 -0.40231192 0
-0.65275741 0.028822541 -0.4804723 0
-0.5529139 0.023005486 -0.47188771 0
-0.45036435 0.065181255 -0.44183433 0
-0.36772776 0.065834641 -0.41910514 0
-0.69451261 0.10865057 -0.47414547 0
-0.55393076 0.13188791 -0.45799765 0
-0.47659636 0.14099824 -0.44414836 0
-0.75038505 0.18902349 -0.46513641 0
-0.58381438 0.21292508 -0.44593301 0
-0.55593443 -0.46651804 -0.45700046 0
-0.47661567 -0.46722579 -0.46177962 0
-0.38690186 -0.44082594 -0.4680016 0
-0.58740544 -0.38441193 -0.45948878 0
-0.48887849 -0.35837877 -0.46459499 0
-0.41462135 -0.36250937 -0.46706051 0
-0.69241548 -0.28803015 -0.45745495 0
-0.61383104 -0.29340243 -0.46083081 0
-0.51844954 -0.26812577 -0.46729407 0
-0.72801685 -0.20957434 -0.46891975 0
-0.62165427 -0.18202865 -0.46423516 0
-0.54666853 -0.19594944 -0.47135565 0
-0.84048009 -0.11460757 -0.47980803 0
-0.74333215 -0.11096585 -0.47442645 0
-0.65201688 -0.091324687 -0.47258723 0
-0.57817173 -0.11871254 -0.46974891 0
-0.92584181 -0.026019692 -0.48421472 0
-0.8624444 -0.02488482 -0.4857032 0
-0.76202273 -0.0035967827 -0.47844958 0
-0.67878652 -0.0051494837 -0.47835028 0
-0.94828033 0.06089735 -0.49300778 0
-0.88152623 0.070335031 -0.49681479 0
-0.78031325 0.080316544 -0.48510006 0
-0.98648477 0.16238999 -0.49475694 0
-0.90521383 0.17923915 -0.48426056 0
-0.81608057 0.16911829 -0.47610521 0
-0.8971405 0.25921595 -0.46776256 0
-0.83781052 0.25260711 -0.46243697 0
-0.97517419 0.33106017 -0.46241021 0
-0.90803313 -0.40323925 -0.51823217 0
-0.79561996 -0.41433382 -0.46649599 0
-0.70375133 -0.40261364 -0.45087263 0
-0.63791633 -0.41963661 -0.45128012 0
-0.80329323 -0.32037699 -0.46306315 0
-0.74342585 -0.31161237 -0.45580953 0
-0.64653778 -0.34752762 -0.44664943 0
-0.82744408 -0.21266139 -0.46858224 0
-0.77274609 -0.2224679 -0.45894027 0
0.27115679 -0.039075613 0.070363551 0
0.28991032 -0.039370894 0.082669973 0
-0.95296693 -0.11414969 -0.50243634 0
-0.86539888 -0.15245736 -0.47639886 0
0.080236435 0.0095865726 -0.040762305 0
0.14173651 0.034706116 0.0043738484 0
0.28128481 0.012422323 0.097590208 0
0.094377518 0.077749252 -0.0035976768 0
-0.052097797 0.16439915 0.0082043409 0
0.67538643 0.31392264 0.32352006 0
0.63413239 0.38558185 0.29638219 0
0.65935183 0.35429263 0.33101824 0
0.62647438 0.49972343 0.32492313 0
0.84623384 -0.066101313 0.3982611 0
0.51139879 -0.014498115 0.26650262 0
0.5601716 -0.012401223 0.27081391 0
0.70480299 -0.038639069 0.34978226 0
0.73963022 0.0073939562 0.37153253 0
0.82839155 0.030084252 0.39428976 0
0.93373013 0.054780841 0.40876839 0
0.24754381 0.0054850578 0.10992342 0
0.2805829 0.033174634 0.12770951 0
0.47488976 0.050216436 0.28015348 0
0.5557785 0.057608724 0.29140693 0
0.61713028 0.095524311 0.31212106 0
0.74678373 0.06363368 0.39085436 0
0.82449579 0.076471567 0.41433659 0
0.91080618 0.10277581 0.44495383 0
0.98464251 0.1245203 0.47174954 0
-0.06638813 0.11442351 0.0094230771 0
0.25329685 0.083406091 0.14589924 0
0.45818043 0.1202637 0.30045003 0
0.53107929 0.14601803 0.31994307 0
0.61606359 0.16361809 0.32798246 0
0.72314262 0.16793227 0.41049728 0
0.76351166 0.17901361 0.43396318 0
0.93675232 0.16691113 0.49804017 0
0.9700799 0.18197453 0.51408917 0
-0.06684351 0.16847301 0.010384142 0
-0.042611122 0.18942022 0.045947343 0
0.51737261 0.24635744 0.34660849 0
0.6125164 0.26670671 0.34404168 0
0.66898489 0.28131247 0.40211612 0
-0.064148903 0.22535443 0.082537532 0
0.49795532 0.34947145 0.35678488 0
0.58320427 0.35573649 0.34696484 0
0.68064785 0.38257849 0.40577662 0
0.73501492 0.41108143 0.41461179 0
0.46026039 0.45517385 0.38030836 0
0.52761126 0.47745657 0.41446564 0
0.70749092 0.45895863 0.39898017 0
0.71315002 0.45398164 0.4112103 0
0.992908 -0.18754435 0.49985221 0
0.21224785 -0.163939 0.21756083 0
0.2477622 -0.15280449 0.21433586 0
0.78470278 -0.074570894 0.40070879 0
0.8298068 -0.066125631 0.41657254 0
0.96670675 -0.11510134 0.53604788 0
0.18930674 -0.10523939 0.23965099 0
0.24710941 -0.091745734 0.22957712 0
0.53941059 -0.017140985 0.34780094 0
0.77308035 -0.020927787 0.4067114 0
0.83313942 -0.029287457 0.43468601 0
0.88871431 0.021721005 0.51014262 0
0.18461657 -0.032892823 0.25560746 0
0.22324324 -0.00011742115 0.26548356 0
0.45261383 0.051909328 0.31391612 0
0.53261518 0.044275999 0.36140659 0
0.58750725 0.075806856 0.39900309 0
0.75421429 0.074036479 0.41792068 0
0.80532551 0.099711061 0.47783613 0
0.88604832 0.10336196 0.51997614 0
0.99028063 0.11121869 0.56629944 0
0.21677637 0.087026238 0.28455463 0
0.3556695 0.1311934 0.29278353 0
0.42319345 0.1376698 0.31773853 0
0.50588703 0.13718402 0.37724397 0
0.59904766 0.15869832 0.41826794 0
0.69429541 0.18501472 0.44501263 0
0.77432442 0.18595064 0.48915851 0
0.86604548 0.18378329 0.51604986 0
0.9431715 0.17873514 0.51931071 0
0.2270937 0.17610657 0.28761867 0
0.31205082 0.17505753 0.29681754 0
0.41485977 0.21793962 0.34386823 0
0.47794294 0.24217618 0.3894867 0
0.5741868 0.25042224 0.42730117 0
0.67026806 0.24734795 0.44442537 0
0.75964117 0.25519085 0.50658 0
0.82560444 0.26027167 0.51328057 0
0.41582823 0.30263829 0.36547253 0
0.46746492 0.3307513 0.38920751 0
0.53305817 0.3399514 0.42107254 0
0.62516737 0.35144663 0.52576315 0
0.68694782 0.35158074 0.5537113 0
0.46068811 0.40900493 0.38540468 0
0.53829479 0.42917383 0.42929131 0
0.59130239 0.40703917 0.53472555 0
0.19366264 -0.1175617 0.26335308 0
0.2216177 -0.09534955 0.29507944 0
0.2242856 -0.014488697 0.31285992 0
0.23666716 0.06472683 0.33412364 0
0.26870871 0.10498965 0.36505297 0
0.28850698 0.15517116 0.38103369 0
0.75464535 0.28167093 0.57968509 0
0.78374434 0.27909839 0.58772588 0
0.42939806 0.34620667 0.50913846 0
0.62852859 0.36617434 0.55377609 0
0.70722151 0.33676529 0.57795179 0
0.4232688 0.38472223 0.51970661 0
0.51540327 0.42881298 0.53880674 0
0.584445 0.4214834 0.55192995 0
0.41157627 0.47935557 0.553747 0
-0.59873796 -0.033080459 -0.48403281 0
-0.63146234 0.067309976 -0.48196518 0
-0.61541891 0.04782784 -0.47747427 0
-0.55779815 -0.45275235 -0.46209356 0
-0.47253299 -0.45272923 -0.46582007 0
-0.3886292 -0.43167067 -0.46908325 0
-0.604177 -0.35736322 -0.46107981 0
-0.5038693 -0.35669029 -0.46564749 0
-0.43015099 -0.35487831 -0.47592649 0
-0.7005465 -0.29090905 -0.46312752 0
-0.6216681 -0.26899886 -0.46098351 0
-0.51421189 -0.25800991 -0.46775866 0
-0.4508152 -0.2757895 -0.46854958 0
-0.8991704 -0.23948526 -0.49587676 0
-0.81187201 -0.19246864 -0.47393394 0
-0.73886013 -0.19499183 -0.46998984 0
-0.6330471 -0.16521907 -0.46630308 0
-0.54651737 -0.15910578 -0.46778756 0
-0.84969568 -0.1200583 -0.47781026 0
-0.74265814 -0.069071412 -0.47826225 0
-0.66365361 -0.081142426 -0.47450742 0
-0.57920718 -0.040727019 -0.47060996 0
-0.85443759 0.00080001354 -0.48391324 0
-0.79404902 -0.018252492 -0.48013648 0
-0.69462729 -0.015916467 -0.47643146 0
-0.8662982 0.047832489 -0.49127784 0
-0.68430829 -0.47361982 -0.45032781 0
-0.59092855 -0.46997857 -0.45247507 0
-0.70760155 -0.39013851 -0.4515183 0
-0.62147164 -0.40118718 -0.45399034 0
-0.7868638 -0.3216784 -0.46616724 0
-0.72318506 -0.31069672 -0.45410261 0
-0.80009794 -0.19897592 -0.45944589 0
0.20406532 -0.039201856 0.0092405379 0
0.27435303 -0.032861829 0.044947863 0
0.16211748 0.032181382 0.0063389242 0
0.19987011 0.046370983 0.032559782 0
0.27176857 -0.013594866 0.075899303 0
0.43703222 -0.0079231262 0.16533157 0
0.52141714 -0.0050719976 0.2113927 0
0.26519203 0.013987541 0.084087759 0
0.28606749 0.037569642 0.10863823 0
0.24112749 -0.13611305 0.21087921 0
0.80380678 -0.042478681 0.37915409 0
0.86099195 -0.040076971 0.4040544 0
0.22078419 -0.072328091 0.22835964 0
0.25974226 -0.054071546 0.22863871 0
0.52717686 0.0049791336 0.27110612 0
0.56834841 0.0032603741 0.26522154 0
0.72253752 0.0087268353 0.3526642 0
0.77407503 0.042333245 0.37638223 0
0.85142088 0.068435311 0.40831658 0
0.95496082 0.094111562 0.43711799 0
0.21196938 7.7843666e-05 0.24644575 0
0.25645399 0.02008903 0.24924549 0
0.41921282 0.074766755 0.27359524 0
0.48641396 0.069669366 0.32526404 0
0.52116299 0.042955041 0.34069914 0
0.7143054 0.069990993 0.36938241 0
0.78142071 0.087384701 0.40260762 0
0.85506344 0.11222255 0.42551431 0
0.94027948 0.13351631 0.44991791 0
0.25856638 0.14003253 0.27195182 0
0.3733716 0.14767587 0.2916621 0
0.43957901 0.16177905 0.33743298 0
0.85911274 0.20811176 0.46159604 0
0.88374138 0.18804693 0.46320245 0
0.254035 0.19364846 0.2764881 0
0.38215256 0.20303917 0.31814763 0
0.41574907 0.23627627 0.34890801 0
0.79125929 -0.046032786 0.410395 0
0.8643856 -0.03307271 0.42236897 0
0.19169044 -0.075441003 0.26013753 0
0.55772114 0.013164639 0.3582817 0
0.76781607 -0.0019979477 0.42316449 0
0.8525629 0.0039101839 0.42904752 0
0.19812536 -0.0012931824 0.2756722 0
0.23566437 0.027261615 0.32615384 0
0.30724573 0.051841378 0.39213189 0
0.50074625 0.090612173 0.35047925 0
0.54503012 0.076316595 0.36991006 0
0.77772284 0.10340905 0.44554365 0
0.83099222 0.13810945 0.46402305 0
0.92671537 0.1619364 0.4939411 0
0.19581699 0.065867066 0.27980033 0
0.25416374 0.10288537 0.35235304 0
0.32385635 0.13252521 0.39965972 0
0.42795467 0.16438806 0.40109351 0
0.52206564 0.16546309 0.38952166 0
0.64787579 0.19961071 0.43356201 0
0.69790125 0.20051289 0.46284282 0
0.83017445 0.18858027 0.49883378 0
0.90201139 0.20416892 0.51341069 0
0.26176596 0.17771912 0.36025754 0
0.32816982 0.21668458 0.39560041 0
0.40547657 0.2348274 0.42725307 0
0.48521137 0.25447881 0.41575879 0
0.65675879 0.24701369 0.44628593 0
0.69694519 0.2577945 0.47333032 0
0.31592369 0.34013522 0.42799592 0
0.37194061 0.35196877 0.44870013 0
0.43989277 0.35896754 0.4699201 0
0.30513859 0.37973726 0.41925967 0
0.36316586 0.3887378 0.45926911 0
0.42517948 0.40053141 0.49049506 0
0.34665346 0.053677797 0.41331097 0
0.41195297 0.072710037 0.45055661 0
0.22879744 0.10785699 0.44109467 0
0.34902382 0.090937376 0.41956365 0
0.42287588 0.13696587 0.46192017 0
0.47356653 0.17326832 0.49213547 0
0.17915249 0.14094806 0.47277075 0
0.43335676 0.2051512 0.46665141 0
0.48723507 0.23292422 0.49708936 0
0.36198568 0.35242152 0.51304156 0
0.43155432 0.37006295 0.52619898 0
0.36702538 0.38991165 0.53115547 0
0.42566824 0.3976301 0.54145849 0
0.35568047 0.48719418 0.52078122 0
-0.67558098 -0.43573678 -0.43467855 0
-0.58221292 -0.40507424 -0.43794408 0
-0.52966499 -0.42390287 -0.44312543 0
-0.71090841 -0.34372783 -0.4405311 0
-0.61827898 -0.32739782 -0.4408249 0
-0.73178887 -0.25428522 -0.4408707 0
0.23475218 -0.16565561 0.23227394 0
0.8330822 -0.051696181 0.37178808 0
0.89688063 -0.059188366 0.41934502 0
0.242033 -0.094930768 0.26919043 0
0.29602766 -0.062273502 0.24955705 0
0.55443621 -0.004345417 0.35629472 0
0.59189415 0.001273036 0.38162056 0
0.76065874 -0.0084937811 0.37156615 0
0.82815504 0.017623425 0.38541859 0
0.91181517 0.045145392 0.40911537 0
0.24043941 -0.018814445 0.29631913 0
0.27910805 0.0056481361 0.29647815 0
0.54078054 0.036457896 0.35847753 0
0.58022976 0.065459609 0.39197066 0
0.8194232 0.077170372 0.4278335 0
0.90024757 0.0995152 0.44603381 0
0.26807594 0.081087112 0.33009225 0
0.58538437 0.11522758 0.4137632 0
0.75781155 -0.073197722 0.48769727 0
0.80544615 -0.073628187 0.49551842 0
0.89861536 -0.049010515 0.45993185 0
0.3854928 -0.06772697 0.42132688 0
0.75031137 -0.038267732 0.48723403 0
0.80086613 -0.012170911 0.48981953 0
0.87746239 0.01924932 0.51258743 0
0.29004908 0.0052224398 0.38180926 0
0.38131762 0.04034996 0.43638444 0
0.46631956 0.06088233 0.48409179 0
0.80566931 0.0838027 0.50346273 0
0.87511015 0.11575663 0.51286209 0
0.97760201 0.14686465 0.51143682 0
0.29232073 0.077270508 0.39841062 0
0.37546253 0.11396444 0.43151262 0
0.4552865 0.12303638 0.48029104 0
0.60876226 0.13577807 0.426112 0
0.63858557 0.13914168 0.43176752 0
0.79865742 0.14973044 0.51234925 0
0.87217569 0.1825707 0.53395629 0
0.96086645 0.20023167 0.53782296 0
0.29909229 0.16172731 0.38513076 0
0.36881208 0.18746591 0.42124534 0
0.42874432 0.1920923 0.46228772 0
0.83416319 0.31686795 0.58775449 0
0.89196777 0.3223331 0.59029317 0
0.82448816 0.35833645 0.59736609 0
0.89441824 0.37435484 0.60725009 0
0.24349451 0.0047354698 0.45540693 0
0.18036938 0.070486903 0.48214293 0
0.24697638 0.050669789 0.4636732 0
0.82903528 0.22010195 0.58354652 0
0.76476526 0.30628252 0.59958911 0
0.79920197 0.28375077 0.60133153 0
0.78818846 0.36315167 0.62016261 0
0.89000702 0.45140564 0.63523829 0
0.99971676 0.43751764 0.66312361 0
0.43104982 -0.49204874 -0.42848608 0
0.51537657 -0.4696337 -0.39278609 0
0.39765263 -0.40318108 -0.4109678 0
0.4857707 -0.38080871 -0.3755421 0
0.32520628 -0.28538394 -0.40954992 0
0.39318275 -0.29997587 -0.39034325 0
0.45525408 -0.29520071 -0.37414214 0
0.29965878 -0.20441699 -0.40631127 0
0.37059879 -0.19976032 -0.39128193 0
0.43460178 -0.22561336 -0.37633941 0
0.27008581 -0.10706604 -0.40709138 0
0.34771013 -0.087510943 -0.38963026 0
0.26477671 -0.015387654 -0.40118292 0
0.32455635 -0.019984722 -0.39081857 0
0.37496567 -0.48638666 -0.43783224 0
0.21690273 -0.43310022 -0.43303886 0
0.29274797 -0.41557658 -0.42887479 0
0.35092783 -0.39494145 -0.42282954 0
0.18877888 -0.34388566 -0.41656262 0
0.2638917 -0.3207078 -0.41334784 0
0.33836365 -0.3295207 -0.40670201 0
0.16719627 -0.22795701 -0.40652514 0
0.23125315 -0.2276001 -0.41167372 0
0.14706182 -0.14298344 -0.41322291 0
0.21163893 -0.13135874 -0.41670704 0
0.13246775 -0.064930439 -0.41667777 0
0.052059174 0.02175796 -0.41621327 0
0.92586088 0.28761709 0.5277642 0
0.9730835 0.30310822 0.56773245 0
0.91951942 0.32884252 0.53673065 0
0.96283579 0.33461547 0.5743953 0
0.077623844 -0.47292542 -0.44029754 0
0.15361834 -0.44823539 -0.43579069 0
0.052501202 -0.37316394 -0.42185777 0
0.12577581 -0.35239732 -0.41811392 0
0.026046753 -0.26430857 -0.40348092 0
0.096010685 -0.25738204 -0.40414569 0
0.92697048 -0.19443429 0.45219928 0
0.0086174011 -0.16717994 -0.40176865 0
0.080095291 -0.16648531 -0.40456012 0
0.61668158 -0.10580003 0.14288989 0
0.63679838 -0.08846724 0.15906897 0
0.72739363 -0.097273827 0.26902026 0
0.77613592 -0.10504949 0.360897 0
0.92495441 -0.12303257 0.4856911 0
-0.016693115 -0.10744476 -0.39955288 0
0.064552307 -0.09326303 -0.40431336 0
0.59367323 -0.047986865 0.15309778 0
0.64057589 -0.057777166 0.16738826 0
0.72116518 -0.041294575 0.30155718 0
0.75826216 -0.028381944 0.34801787 0
0.79362535 -0.032188177 0.41269422 0
0.92695141 -0.053391695 0.51518822 0
0.94778681 0.00092661381 0.53607035 0
0.56447029 0.0024785995 0.16232845 0
0.70717716 0.0099271536 0.33251947 0
0.75530624 0.045231104 0.37929469 0
0.80716658 0.083779573 0.42927998 0
0.88546896 0.066242695 0.52233702 0
0.93690729 0.058090448 0.54861271 0
0.75158787 0.10943007 0.42363372 0
0.80583572 0.1325556 0.46201393 0
0.88226032 0.15642941 0.51371515 0
0.9205575 0.1485306 0.55819005 0
0.87807322 0.28286624 0.53229201 0
0.93184185 0.2862736 0.574242 0
0.85402298 0.34519517 0.55730832 0
0.91412067 0.35684407 0.5918299 0
0.80674648 0.42557621 0.60146737 0
0.87912464 0.44190466 0.63315785 0
0.013141155 -0.48444176 -0.44297358 0
-0.086666107 -0.4020772 -0.42972085 0
-0.009991169 -0.38585794 -0.4242042 0
-0.10305023 -0.31995547 -0.41242838 0
-0.035462379 -0.28577447 -0.40581369 0
0.91371775 -0.19311857 0.46691582 0
-0.12988806 -0.21209574 -0.39441341 0
-0.061385632 -0.19782281 -0.39608163 0
0.76248455 -0.1092099 0.37478873 0
0.91036987 -0.12435544 0.49468023 0
-0.14849758 -0.12496936 -0.39357895 0
-0.079577446 -0.095480561 -0.39540541 0
0.70284891 -0.034519672 0.33861774 0
0.75497246 -0.065145016 0.39631173 0
0.79624939 -0.037895203 0.44068924 0
0.90836048 -0.055918336 0.52564383 0
0.9260602 -0.0024676323 0.55180895 0
0.69835281 0.0045378208 0.34865838 0
0.71850824 0.054230928 0.40476319 0
0.80277586 0.044768453 0.48931855 0
0.87895489 0.047733426 0.56961799 0
0.9094162 0.055272818 0.56829441 0
0.63077116 0.14036036 0.4007512 0
0.72233963 0.10866702 0.447496 0
0.76087189 0.12596893 0.48331469 0
0.84238672 0.12709749 0.57532364 0
0.89613485 0.11503887 0.57855701 0
0.54864597 0.20772791 0.38606301 0
0.73556089 0.20692623 0.56687617 0
0.77472067 0.19883788 0.5938679 0
0.85899115 0.25747371 0.62246227 0
0.41340399 0.29708767 0.32127938 0
0.87059355 0.30114841 0.63842142 0
0.7670145 0.45008957 0.61545634 0
0.85176754 0.43631804 0.68727499 0
-0.22889376 -0.43231976 -0.44891059 0
-0.14902878 -0.41404033 -0.43646029 0
-0.32153654 -0.35208929 -0.45943752 0
-0.2468977 -0.33090961 -0.43258804 0
-0.1691494 -0.30783725 -0.4138796 0
-0.35547996 -0.25446475 -0.4554567 0
-0.28196359 -0.23729146 -0.42888203 0
-0.19446373 -0.23055506 -0.40139574 0
-0.39146376 -0.14981496 -0.45081699 0
-0.286098 -0.14499497 -0.41781241 0
-0.21086335 -0.14656615 -0.3955968 0
-0.40574789 -0.10503995 -0.44982395 0
0.70250225 0.21906698 0.58741498 0
-0.43641615 -0.46943557 -0.50458443 0
-0.34059405 -0.44590759 -0.48005378 0
-0.47405577 -0.3840003 -0.50319541 0
-0.37808442 -0.36124909 -0.47887796 0
-0.55234241 -0.28453386 -0.50123668 0
-0.48663068 -0.28762829 -0.49956822 0
-0.40150499 -0.26941836 -0.47288638 0
-0.57713342 -0.18866134 -0.50394452 0
-0.48910141 -0.1904465 -0.48809174 0
-0.60554194 -0.11034441 -0.50394571 0
-0.5001018 -0.10264039 -0.47851613 0
-0.50356078 -0.4975729 -0.49978414 0
-0.59385991 -0.40128791 -0.49730515 0
-0.52310133 -0.39991951 -0.49906307 0
-0.62280416 -0.30917227 -0.49920028 0
-0.7114234 -0.20475185 -0.49482989 0
-0.65207624 -0.21152353 -0.49767214 0
-0.7279036 -0.11143291 -0.50206566 0
-0.66388512 -0.12701845 -0.50145251 0
-0.80042982 -0.064799547 -0.50739002 0
-0.72963428 -0.45781648 -0.48598352 0
-0.66703534 -0.4263618 -0.48748344 0
-0.74102902 -0.34631801 -0.488318 0
-0.85319161 -0.25784636 -0.49894118 0
-0.78238821 -0.24496114 -0.49473038 0
-0.86919475 -0.14639401 -0.50607502 0
-0.79416561 -0.15350199 -0.50439465 0
-0.95786285 -0.07165134 -0.51754224 0
-0.89765978 -0.087770581 -0.50962389 0
-0.99535918 -0.0076044798 -0.51122451 0
-0.83167958 -0.4574765 -0.48332119 0
-0.79625988 -0.45744216 -0.48217928 0
-0.94420862 -0.40738189 -0.52352095 0
-0.85747075 -0.36123109 -0.48930514 0
-0.91182876 -0.26850975 -0.50007463 0
-0.98545122 -0.1962775 -0.52524275 0
-0.95114946 -0.1901902 -0.50329006 0
-0.99566841 -0.10078537 -0.51393139 0
0.25285387 -0.0071456432 0.067567229 0
0.29650879 0.0049879551 0.10448071 0
0.52683735 -0.046818852 0.2060478 0
0.58573723 -0.024706364 0.27759647 0
0.52914095 0.024931192 0.24481264 0
0.85026932 -0.053760409 0.38040048 0
0.8993659 -0.048244238 0.40580219 0
0.24404049 -0.13171709 0.24702051 0
0.74622536 -0.010848284 0.37043574 0
0.81681442 0.0064543486 0.37455747 0
0.90233803 0.038476229 0.39811596 0
0.99339008 0.072589397 0.43442079 0
0.23343658 -0.081991792 0.27105343 0
0.27371168 -0.031805158 0.27685812 0
0.51928663 0.04127419 0.34778702 0
0.57119179 0.038537979 0.37586838 0
0.80639505 0.065761209 0.42032659 0
0.87763643 0.090391755 0.4395723 0
0.96865368 0.1157279 0.4624899 0
0.22286892 -0.0066686869 0.27970424 0
0.25818634 0.043416739 0.30626875 0
0.49947834 0.087146878 0.34979931 0
0.56020021 0.11505711 0.39645439 0
0.80613422 -0.081874132 0.49119127 0
0.89175558 -0.053961277 0.44415137 0
0.33261442 -0.11781347 0.36835748 0
0.37842512 -0.11269379 0.40448099 0
0.74522734 -0.074117303 0.4750106 0
0.78591156 -0.024610519 0.49634388 0
0.87887812 0.013279915 0.51295447 0
0.94422483 0.067235589 0.52512366 0
0.26079082 -0.11526728 0.31601411 0
0.30158806 -0.065731406 0.36281982 0
0.36629295 -0.050457001 0.41262475 0
0.78936005 0.067943215 0.50120687 0
0.85616159 0.1071074 0.50558287 0
0.94258833 0.13551879 0.51579773 0
0.27862883 0.046816945 0.3786566 0
0.34678936 0.076133728 0.41416046 0
0.44214296 0.10146368 0.4693948 0
0.48533487 0.12753606 0.49605402 0
0.63493586 0.1222775 0.42729586 0
0.7076683 0.16971266 0.46297964 0
0.84839344 0.17273164 0.52590132 0
0.9145546 0.18939078 0.53851122 0
0.27880239 0.10203576 0.40175107 0
0.33152819 0.14934635 0.39997503 0
0.41912079 0.17833793 0.44901699 0
0.47776127 0.19399822 0.48790079 0
0.81053925 0.28762913 0.5806666 0
0.86711168 0.31699085 0.58413649 0
0.33787775 0.26307285 0.41521811 0
0.41077518 0.25781524 0.4437606 0
0.45290899 0.24709237 0.46548751 0
0.80141592 0.35237503 0.59460843 0
0.84551048 0.35919917 0.59751141 0
0.93313789 0.40657628 0.6216768 0
0.33633566 0.32343781 0.44835719 0
0.85967779 0.4851886 0.6345973 0
0.79884052 -0.094164014 0.51342511 0
0.78798914 -0.056536794 0.51954186 0
0.24101353 0.016791821 0.45023251 0
0.81986856 0.19356155 0.58785379 0
0.86410332 0.20428443 0.59522545 0
0.16351128 0.058684468 0.47968704 0
0.19013023 0.0869174 0.49005935 0
0.7975235 0.28665352 0.61979514 0
0.82669115 0.28807545 0.62744415 0
0.58055019 0.3177048 0.65743721 0
0.77275276 0.35553467 0.64273095 0
0.79933357 0.38329077 0.67010587 0
0.95715332 0.45779145 0.66363907 0
0.54445219 0.32969165 0.67055249 0
0.56937695 0.35729551 0.67461228 0
-0.5417881 0.063551068 -0.45386776 0
-0.56337047 0.15228987 -0.44137478 0
-0.58538294 0.24918151 -0.42713028 0
-0.63198853 0.35215342 -0.41290852 0
-0.57301426 0.34605241 -0.41167694 0
-0.6156075 0.42012107 -0.40134421 0
-0.26937294 -0.4871428 -0.45180848 0
-0.4286294 -0.44721305 -0.45073435 0
-0.36036372 -0.42828262 -0.4543314 0
-0.48068595 -0.3601203 -0.45124099 0
-0.38512158 -0.34520626 -0.45808005 0
-0.59995198 -0.26113451 -0.44416264 0
-0.51628017 -0.27305412 -0.45078942 0
-0.43644619 -0.24187601 -0.4573476 0
-0.63611698 -0.19881117 -0.44744641 0
-0.55210686 -0.18909872 -0.45229042 0
-0.48143268 -0.13739562 -0.45877045 0
-0.78015757 -0.14044511 -0.46381563 0
-0.69237447 -0.13006783 -0.45364666 0
-0.58309484 -0.090757608 -0.45763326 0
-0.52611446 -0.041777134 -0.45880064 0
-0.8146255 -0.066215038 -0.46418414 0
-0.72544837 -0.021405697 -0.46223339 0
-0.61595058 0.010011673 -0.46163386 0
-0.52979398 0.0069308281 -0.45946649 0
-0.91824079 -0.0077904463 -0.47360608 0
-0.83642197 0.019610047 -0.4740364 0
-0.75400329 0.067062974 -0.4685469 0
-0.656564 0.091842651 -0.45956025 0
-0.59200478 0.1355927 -0.44529691 0
-0.93765187 0.10005617 -0.47574204 0
-0.88783264 0.12409317 -0.47838822 0
-0.8227706 0.11665332 -0.47479129 0
-0.68256903 0.20672083 -0.44095811 0
-0.64129186 0.22402596 -0.43362033 0
-0.92802215 0.18875182 -0.47296745 0
-0.72864413 0.27544558 -0.43245327 0
-0.67787147 0.31384325 -0.4209097 0
-0.99462056 0.30836254 -0.45710734 0
-0.72907591 0.34646976 -0.41877484 0
-0.69296098 0.40197098 -0.40743923 0
-0.54429245 -0.49486578 -0.44005764 0
-0.47857189 -0.46978939 -0.44502735 0
-0.67940402 -0.45149529 -0.43461862 0
-0.58938837 -0.4042244 -0.44112071 0
-0.51326466 -0.40643907 -0.44272622 0
-0.71175766 -0.35464978 -0.439666 0
-0.62553596 -0.3287586 -0.44454864 0
-0.82297754 -0.29052424 -0.45516005 0
-0.75070357 -0.26366639 -0.44557625 0
-0.66903353 -0.24097383 -0.44163066 0
-0.84098554 -0.17564321 -0.45354542 0
-0.78691649 -0.18273401 -0.45011637 0
-0.87136745 -0.11404896 -0.46184036 0
-0.83635473 -0.1097126 -0.45553312 0
0.22110844 -0.01845932 0.040246844 0
0.12371111 0.058689952 0.019445747 0
0.14657784 0.074688435 0.0414505 0
0.071265697 0.15401077 -0.0089309812 0
0.11789703 0.16989875 0.0139817 0
0.052890778 0.21505117 0.011884153 0
0.12717724 0.26261628 0.028100431 0
0.19937563 0.31295884 0.057758689 0
0.014933586 0.33104265 0.032782257 0
0.072721004 0.35043216 0.04968223 0
0.15659904 0.35440159 0.067867905 0
-0.0044784546 0.40769958 0.052756518 0
0.053775787 0.41611576 0.066859931 0
0.50187635 -0.0092898607 0.21636644 0
0.28786707 0.0043591261 0.11112887 0
0.38051462 0.036963224 0.18756711 0
0.46134615 0.039654016 0.22738606 0
0.16094732 0.082047462 0.068362713 0
0.28602648 0.053603292 0.14697996 0
0.32377195 0.09456265 0.17465785 0
0.21360445 0.27878714 0.15548578 0
0.84254551 -0.093377829 0.40316904 0
0.87065935 -0.084198475 0.4086189 0
0.72330093 -0.021790028 0.36378434 0
0.79609442 -0.01786232 0.36761317 0
0.86275768 -0.023747444 0.410007 0
0.9609642 0.058135867 0.4279207 0
0.23615694 -0.12861943 0.23583949 0
0.26034784 -0.10367596 0.2378279 0
0.51320028 5.364418e-05 0.28222769 0
0.57464886 0.004679203 0.28693935 0
0.62007856 0.034273148 0.30640134 0
0.77404356 0.021366358 0.3767693 0
0.84649467 0.066626906 0.41647419 0
0.93232441 0.10055768 0.44798741 0
0.2338295 -0.099678397 0.24390417 0
0.25688124 -0.040193558 0.25552082 0
0.47062111 0.054644108 0.29240599 0
0.54059744 0.061901689 0.30104366 0
0.61073446 0.061420202 0.31013134 0
0.82119417 0.1260426 0.45037058 0
0.89203262 0.15177739 0.47690174 0
0.97576523 0.18658185 0.50728261 0
0.2486639 0.049293041 0.27924061 0
0.30494499 0.12077308 0.29496899 0
0.42456675 0.1318748 0.31940573 0
0.47168922 0.14168119 0.33898568 0
0.23791647 0.13210118 0.29218933 0
0.26602364 0.14393353 0.29573482 0
0.38238525 0.18637836 0.32891294 0
0.43634748 0.19241726 0.33738071 0
0.86842346 -0.088796496 0.43383005 0
0.8085494 -0.044777632 0.43293577 0
0.85910559 -0.022643924 0.45796835 0
0.89870119 0.016563296 0.49579805 0
0.20498943 -0.13380301 0.25396773 0
0.27272415 -0.10965478 0.34019616 0
0.54774332 -0.0086443424 0.36476514 0
0.74832678 0.020342946 0.49097121 0
0.82524347 0.074097872 0.47503984 0
0.90405512 0.1103152 0.52597606 0
0.19538307 -0.072179198 0.27182052 0
0.24199343 -0.048265338 0.32845935 0
0.28798819 -0.034423709 0.37861004 0
0.54038334 0.051803112 0.37634164 0
0.58407736 0.056189895 0.40209314 0
0.81972122 0.13794661 0.49760777 0
0.87990665 0.16534162 0.52112794 0
0.97287989 0.19360852 0.55595565 0
0.18555832 -0.0084044933 0.26666886 0
0.22164679 0.044294357 0.31727004 0
0.27839136 0.07126987 0.38728693 0
0.36246824 0.12649679 0.43397048 0
0.48570156 0.12359464 0.39290226 0
0.69810867 0.22397506 0.47620705 0
0.71506548 0.23366606 0.49029732 0
0.21525049 0.12661409 0.3183409 0
0.26719999 0.14191997 0.37075147 0
0.34359074 0.18486798 0.42162782 0
0.40936565 0.19068348 0.4619427 0
0.98128176 0.42356825 0.65181404 0
0.94856405 0.48439586 0.67830849 0
0.98839164 0.494362 0.69236732 0
0.34213066 -0.10083377 0.39980477 0
0.9769702 0.15488291 0.61598617 0
0.32701063 -0.039317727 0.40771613 0
0.36306 0.0064891577 0.43221083 0
0.47527266 0.059823513 0.50358361 0
0.96846056 0.21676135 0.6402387 0
0.98000908 0.26325226 0.64300191 0
0.2126956 0.02248013 0.45490739 0
0.26915455 0.056578636 0.43684798 0
0.38023996 0.092975974 0.44979849 0
0.45733404 0.12870181 0.49851918 0
0.50890827 0.16561866 0.53156137 0
0.94420815 0.28435874 0.66429937 0
0.96335125 0.29736233 0.67596889 0
0.16780996 0.075051069 0.47526348 0
0.22118139 0.13037825 0.48130521 0
0.44885397 0.19096458 0.49195698 0
0.5009408 0.20972621 0.52705181 0
0.96252728 0.41375959 0.7152549 0
0.2376194 0.20350122 0.4825674 0
0.14989424 0.026347041 0.49871245 0
0.16712713 0.083910108 0.50193977 0
0.20842505 0.12731826 0.52305579 0
0.26348257 0.16139197 0.53823012 0
0.18986893 0.16821134 0.55376387 0
-0.62530136 -0.46305084 -0.43709448 0
-0.55768204 -0.41695857 -0.44433886 0
-0.69604588 -0.38531518 -0.44260335 0
-0.61837149 -0.34361982 -0.44404072 0
-0.57485032 -0.29694557 -0.44063997 0
-0.73183751 -0.30841017 -0.45125183 0
-0.66394591 -0.25568032 -0.44791481 0
-0.78139305 -0.21138191 -0.4598482 0
-0.70135498 -0.19712746 -0.45505255 0
-0.2946713 0.071347475 -0.39255512 0
-0.24275994 0.11605883 -0.37124977 0
-0.40894485 0.13362467 -0.41945487 0
-0.33856153 0.15919602 -0.39648268 0
-0.26359296 0.18613172 -0.37146655 0
-0.49879122 0.13787293 -0.44821453 0
-0.48167038 0.17880273 -0.43667236 0
-0.395504 0.24970829 -0.40539953 0
-0.32724118 0.25950134 -0.3827695 0
-0.5121665 0.27050018 -0.42918402 0
-0.45445561 0.32503474 -0.41527906 0
-0.56402278 0.35606551 -0.418042 0
-0.51322961 0.39108598 -0.41055277 0
-0.59150553 0.41768157 -0.40958369 0
-0.55357838 0.47425139 -0.3990885 0
-0.060781002 -0.49049497 -0.42257443 0
-0.14641476 -0.46371365 -0.42225283 0
-0.096292973 -0.40265596 -0.40515167 0
-0.36443567 -0.47139454 -0.46815318 0
-0.30222893 -0.42676961 -0.45729142 0
-0.20760155 -0.37189233 -0.41862956 0
-0.14073181 -0.3303436 -0.39476404 0
-0.10794878 -0.26356304 -0.3742249 0
-0.41802907 -0.39734328 -0.46980605 0
-0.36492372 -0.34181535 -0.46370441 0
-0.2740519 -0.29770458 -0.42891991 0
-0.18365431 -0.22810709 -0.38884926 0
-0.13344955 -0.20008457 -0.3686575 0
-0.47509074 -0.32180536 -0.46355674 0
-0.42046213 -0.25718951 -0.46442097 0
-0.31672382 -0.2094146 -0.42905891 0
-0.24374199 -0.14579999 -0.3955048 0
-0.18163919 -0.10599148 -0.37199885 0
-0.53438902 -0.24052989 -0.46452245 0
-0.46677113 -0.18425763 -0.46673548 0
-0.39045191 -0.11644363 -0.43851238 0
-0.3007195 -0.066271186 -0.40469596 0
-0.22846079 -0.0034389496 -0.37799907 0
0.094108582 0.15540397 -0.12401587 0
-0.5956912 -0.15442884 -0.46461853 0
-0.52878046 -0.092131972 -0.46868053 0
-0.44114375 -0.047950983 -0.44489437 0
-0.35773468 0.010041833 -0.41373155 0
-0.3036387 0.048016191 -0.39409205 0
-0.72542429 -0.092369556 -0.48499665 0
-0.6563158 -0.075271368 -0.470256 0
-0.58831596 -0.01508975 -0.47047958 0
-0.49862862 0.042695642 -0.45106864 0
-0.43777943 0.088127732 -0.42979535 0
-0.76854682 -0.02576983 -0.47556019 0
-0.70307255 0.018835425 -0.4763599 0
-0.63116932 0.070001841 -0.46768558 0
-0.55696511 0.12824702 -0.45327702 0
-0.84832716 0.055362701 -0.48657829 0
-0.77218866 0.084479332 -0.47796401 0
-0.69985127 0.15708554 -0.45931724 0
-0.59743524 0.20012915 -0.44380733 0
-0.57958412 0.26560748 -0.43309158 0
-0.88986015 0.13810027 -0.48516345 0
-0.8400135 0.17590463 -0.47183254 0
-0.78948879 0.2204355 -0.45712075 0
-0.66708755 0.28232837 -0.43402871 0
-0.60352516 0.32813704 -0.42406857 0
-0.96466494 0.22570729 -0.47651884 0
-0.89860034 0.24947953 -0.46398672 0
-0.84669781 0.30235195 -0.44739047 0
-0.71965456 0.37642491 -0.42084813 0
-0.65584993 0.42567158 -0.41060093 0
-0.95932436 0.32810962 -0.45539066 0
-0.93080401 0.39199734 -0.43961367 0
-0.74222326 0.42247164 -0.41511759 0
-0.70528507 0.49068725 -0.40181956 0
-0.98273039 0.41308969 -0.44070867 0
-0.41970229 -0.49942744 -0.4602859 0
0.34481096 0.034204721 0.030351371 0
0.37050295 0.045418501 0.049794197 0
-0.53451133 -0.4744122 -0.45493552 0
-0.46334553 -0.43120039 -0.45980355 0
0.22900343 0.048383832 -0.032511532 0
0.28423262 0.094019651 0.017972648 0
0.35110617 0.11975193 0.060672075 0
-0.66101718 -0.44508052 -0.44961095 0
-0.58793116 -0.38440681 -0.45422429 0
-0.53089404 -0.32778096 -0.45949301 0
0.088454723 0.12352788 -0.087411404 0
0.11362457 0.14444911 -0.036351204 0
0.23812866 0.1716001 0.021800041 0
0.28838825 0.21643853 0.05643627 0
-0.71856236 -0.35783577 -0.45180494 0
-0.64731002 -0.30636489 -0.45342427 0
-0.59733772 -0.24369133 -0.45660573 0
0.064761162 0.15497863 -0.031523734 0
0.10996675 0.20145392 -0.016604125 0
0.1583643 0.27179098 0.018812835 0
0.2409091 0.31350672 0.048237354 0
0.30511761 0.36500359 0.10297862 0
-0.79297423 -0.28262877 -0.4584457 0
-0.69995832 -0.2250973 -0.45897752 0
-0.63287354 -0.19198084 -0.45923817 0
0.14349937 0.32927382 0.043329865 0
0.21809053 0.4009881 0.065516591 0
0.26481676 0.439569 0.10161918 0
-0.82965899 -0.20457709 -0.46596339 0
-0.75468206 -0.138641 -0.46831405 0
-0.67819047 -0.12492144 -0.45607352 0
-0.87121534 -0.11852598 -0.47849086 0
-0.80260491 -0.057979703 -0.47290874 0
-0.94174051 -0.016269803 -0.48617503 0
-0.87346745 0.0042760372 -0.48287213 0
-0.95817471 0.070883274 -0.48833624 0
-0.94287062 0.1048913 -0.49335033 0
0.63340187 0.023642063 0.21881795 0
0.60073519 0.067126513 0.21151486 0
0.64388371 0.10098243 0.24181008 0
0.26660252 -0.066621661 0.060950369 0
0.28221226 -0.010637045 0.10155514 0
0.41402102 0.083216429 0.088434339 0
0.45962715 0.10229993 0.12387213 0
0.54751253 0.13188827 0.19935462 0
0.59766245 0.15389359 0.22725162 0
0.16877699 -0.049567699 0.0016964078 0
0.25142813 0.015793681 0.10569221 0
0.35763597 0.15720201 0.082501799 0
0.42138386 0.17173052 0.12503356 0
0.50161409 0.24669099 0.19639432 0
0.51853132 0.2950747 0.22315523 0
-0.74777818 -0.47076154 -0.44914058 0
-0.70593095 -0.48563814 -0.44268307 0
0.079311848 0.064400673 -0.008366257 0
0.1198082 0.11008942 0.049436718 0
0.14449883 0.15235066 0.085770637 0
0.36474752 0.22153068 0.10467443 0
0.45282316 0.3158462 0.19631916 0
0.47686243 0.35864747 0.22568274 0
-0.74363112 -0.39423573 -0.44437015 0
0.0247612 0.14333236 -0.028843015 0
0.081614494 0.20219648 0.017992973 0
0.11841011 0.25504518 0.0332385 0
0.23508835 0.32364583 0.097191006 0
0.2833333 0.35638213 0.15113983 0
0.43499422 0.42832279 0.23044285 0
-0.060573101 0.18967712 0.037072629 0
0.036946774 0.28273273 0.022608519 0
0.10206318 0.33810043 0.04897809 0
0.1848402 0.37368226 0.11259928 0
0.25859928 0.42484951 0.1585595 0
0.30525494 0.47603428 0.18248796 0
-0.0045418739 0.34919024 0.030603856 0
0.044231415 0.39232278 0.057508558 0
0.099778175 0.43458796 0.10856068 0
0.22639418 0.48364139 0.19784868 0
0.021452427 0.46333492 0.07510224 0
0.85492563 -0.08373189 0.39517507 0
0.97328568 -0.0089052916 0.38903591 0
0.77479315 -0.037639022 0.33740827 0
0.83467293 -0.011909962 0.3665638 0
0.91159964 0.040170908 0.40163195 0
0.98581409 0.086612582 0.44343424 0
0.55689096 -0.05466938 0.26533878 0
0.58678007 -0.022495389 0.27869111 0
0.73324776 0.0016431808 0.34537873 0
0.78446817 0.027083755 0.38195843 0
0.86311054 0.084766388 0.42966464 0
0.93146515 0.12712729 0.4723174 0
0.99597073 0.17498398 0.51120001 0
0.45190096 -0.028762698 0.18710449 0
0.50851679 0.00039768219 0.25104341 0
0.56894207 0.042366266 0.29178944 0
0.6342721 0.088258386 0.30550963 0
0.2849021 0.017160058 0.13670057 0
0.39066553 0.039412141 0.19121212 0
0.44493198 0.067578435 0.27757987 0
0.51315022 0.11544025 0.31256166 0
0.57261944 0.14448643 0.32702777 0
0.26727247 0.057171941 0.14750534 0
0.30310583 0.096661448 0.17550737 0
0.4072752 0.14238083 0.30557019 0
0.46792126 0.17774451 0.33348542 0
0.48918581 0.23577642 0.35337234 0
0.24803448 0.13180423 0.17422947 0
0.4495554 0.32328272 0.36525199 0
0.017278194 0.18943012 0.10042611 0
0.42637682 0.38769412 0.37602854 0
-0.079508781 0.21400797 0.063663274 0
-0.003182888 0.23576725 0.11885405 0
0.034366608 0.26869953 0.15361252 0
-0.0039920807 0.31906259 0.20394719 0
0.80513287 -0.10887849 0.4016968 0
0.85411501 -0.07997489 0.42054352 0
0.77280617 -0.071862459 0.41201806 0
0.82115555 -0.042860031 0.44006979 0
0.86894131 -0.00076234341 0.49710599 0
0.92997789 0.068335772 0.54420996 0
0.72862864 -0.010993123 0.42270303 0
0.75431252 0.010438681 0.47517413 0
0.84690952 0.10430253 0.47914091 0
0.90225792 0.13969588 0.51806188 0
0.98666859 0.18473756 0.58233356 0
0.23731661 -0.15688252 0.21949872 0
0.49722528 0.010978341 0.33639431 0
0.53646851 0.033765793 0.36926693 0
0.58552456 0.063285708 0.40234527 0
0.85934305 0.1829052 0.51901674 0
0.96501064 0.25520277 0.62226617 0
0.18948793 -0.097580671 0.24883696 0
0.22902346 -0.056104064 0.25396699 0
0.42565346 0.071880817 0.31815752 0
0.49094725 0.10503685 0.36829928 0
0.54379129 0.13247144 0.40710872 0
0.61407185 0.20426488 0.41896293 0
0.97285461 0.40804923 0.63878119 0
0.98773575 0.45597255 0.6733737 0
0.17254543 -0.031839252 0.25510421 0
0.20422029 0.023685336 0.28441542 0
0.24089003 0.088399768 0.30269039 0
0.37390852 0.14063692 0.30998617 0
0.43057156 0.19484127 0.35392281 0
0.49278116 0.24272561 0.41336897 0
0.19153833 0.093460798 0.28762507 0
0.2259984 0.14706802 0.31641957 0
0.28719616 0.18636727 0.37578541 0
0.38551378 0.24797344 0.39533055 0
0.45973206 0.31228316 0.396162 0
0.50442076 0.36864913 0.4185971 0
0.3374176 0.32899106 0.43339914 0
0.38612127 0.37551141 0.44201937 0
-0.042459011 0.28363383 0.19525188 0
-0.067366123 0.32315743 0.20666581 0
-0.12460566 0.39352429 0.21477473 0
0.99765825 0.0034422874 0.59026897 0
0.96209335 0.06743145 0.60117608 0
0.97123146 0.095661998 0.61144829 0
0.91417456 0.14140952 0.60748976 0
0.94743443 0.15035665 0.61846435 0
0.23011589 -0.16712892 0.29563683 0
0.27586365 -0.12808704 0.34256876 0
0.33145666 -0.099556327 0.39379478 0
0.94262075 0.24795604 0.6508888 0
0.95352316 0.3029542 0.66989905 0
0.20531797 -0.1222719 0.28555581 0
0.23532963 -0.064851999 0.32771289 0
0.30066013 -0.029779673 0.39269805 0
0.35977268 0.039956808 0.43081254 0
0.43561983 0.096376419 0.48040026 0
0.51044655 0.15101874 0.52253902 0
0.5476656 0.19492459 0.54037344 0
0.96193886 0.46224749 0.73480207 0
0.2241106 -0.0046340227 0.3247315 0
0.2580781 0.056132674 0.37593874 0
0.33149862 0.11070275 0.41369212 0
0.40702677 0.15758097 0.45781136 0
0.47230816 0.19888997 0.49939469 0
0.5407095 0.21801698 0.54042614 0
0.90512753 0.45451891 0.72606111 0
0.24335384 0.11989379 0.39151323 0
0.28799582 0.16552913 0.41903746 0
0.37273979 0.22870624 0.43572116 0
0.40972853 0.3215903 0.51424873 0
0.45815229 0.34508026 0.56896979 0
0.3344183 0.30541205 0.45342577 0
0.38206196 0.35247719 0.50166368 0
0.43412161 0.36874676 0.5705539 0
0.21272039 -0.027700543 0.42823288 0
0.216856 0.045321584 0.44573537 0
0.19292402 0.11894393 0.47333944 0
0.22161007 0.16189003 0.4859874 0
0.43769932 0.31706989 0.58657002 0
-0.052172661 -0.47646224 -0.43093038 0
-0.062905788 -0.39330482 -0.41331235 0
-0.068011284 -0.33350074 -0.40082839 0
-0.10080767 -0.16522455 -0.37626925 0
-0.10389519 -0.10291171 -0.371461 0
-0.13187265 -0.07619524 -0.37481213 0
-0.13633966 -0.038785577 -0.37640929 0
-0.18989491 -0.0017119646 -0.38006487 0
-0.17519188 0.049346685 -0.38156322 0
-0.27534699 0.11382854 -0.39126068 0
-0.2110064 0.13629472 -0.38727161 0
-0.035634518 0.24569952 -0.26396808 0
-0.024021149 0.29646456 -0.24157721 0
-0.33220291 0.19835746 -0.40126118 0
-0.25843835 0.21692312 -0.39247206 0
-0.18836427 0.22809768 -0.38764518 0
-0.018850803 0.35014153 -0.22386265 0
-0.37395597 0.25874984 -0.40919915 0
-0.30364227 0.30756676 -0.39900169 0
-0.48377228 0.29965401 -0.43831062 0
-0.43935943 0.32346201 -0.42303982 0
-0.36882973 0.39190233 -0.40388703 0
-0.48426795 0.42484045 -0.41863194 0
-0.42813158 0.48993504 -0.40422416 0
-0.079974174 -0.45953023 -0.42910355 0
-0.26476669 -0.48048997 -0.46332049 0
-0.17074728 -0.44847631 -0.43425846 0
-0.10988903 -0.38002801 -0.41376981 0
-0.071011543 -0.32712972 -0.39836463 0
-0.38765979 -0.45063853 -0.48519883 0
-0.31476951 -0.40594089 -0.46802628 0
-0.235744 -0.3542043 -0.43445811 0
-0.14961338 -0.30713987 -0.40301394 0
-0.092325687 -0.24583089 -0.3823041 0
0.20330763 -0.0014140606 -0.087936044 0
-0.43761015 -0.36285365 -0.48298138 0
-0.37778878 -0.32572389 -0.47546199 0
-0.29590416 -0.26289225 -0.43959486 0
-0.20822048 -0.2189281 -0.40484104 0
-0.13632774 -0.16753769 -0.37617001 0
0.089638233 0.041039944 -0.1697326 0
0.21423006 0.03676033 -0.073027015 0
-0.48863554 -0.28362274 -0.48294511 0
-0.42320538 -0.24677789 -0.47616386 0
-0.35158062 -0.18965805 -0.44610262 0
-0.26698685 -0.14618027 -0.41274107 0
-0.18509007 -0.081917882 -0.38170642 0
0.09856081 0.067365289 -0.15744182 0
0.33443832 0.32592976 0.037424356 0
-0.53307867 -0.1962688 -0.48470649 0
-0.48269486 -0.15989089 -0.48074508 0
-0.40293217 -0.10317481 -0.44959766 0
-0.32652736 -0.0535537 -0.42001498 0
-0.25229335 -0.0060479641 -0.39437711 0
0.32177687 0.38193464 0.017557889 0
-0.59007955 -0.11804414 -0.48254064 0
-0.54505801 -0.075694442 -0.48252046 0
-0.44158268 -0.020557404 -0.45141897 0
-0.37513852 0.029609323 -0.42748329 0
-0.30881786 0.08220005 -0.40324259 0
0.25432158 0.4119643 0.039009959 0
-0.63883781 -0.039682508 -0.4901408 0
-0.60640478 -0.0016884804 -0.48709142 0
-0.5054276 0.073133945 -0.46254942 0
-0.41559601 0.11566007 -0.43263292 0
-0.36643362 0.14675415 -0.41522935 0
-0.7005794 0.040576816 -0.49271548 0
-0.65186715 0.091647744 -0.47961399 0
-0.570755 0.12637234 -0.4682489 0
-0.49678516 0.21743035 -0.44672158 0
-0.41966081 0.21169293 -0.42518377 0
-0.70552588 0.1759634 -0.46878922 0
-0.61574006 0.22330964 -0.45504665 0
-0.54073858 0.30017722 -0.43963757 0
-0.51112103 0.35489011 -0.43028694 0
-0.75188327 0.28324807 -0.45333987 0
-0.68162584 0.32022226 -0.44238994 0
-0.60560894 0.35339665 -0.43422484 0
-0.53077912 0.40589261 -0.42336556 0
-0.7459209 0.38415051 -0.43504733 0
-0.69131231 0.45285702 -0.42124808 0
-0.76456642 0.46861613 -0.42280588 0
-0.74172974 0.49719346 -0.41692975 0
0.88159466 -0.026243806 0.33326414 0
0.94942284 -0.018999338 0.3628529 0
