# .PCD v0.7 - Point Cloud Data file format
VERSION 0.7
FIELDS x y z intensity
SIZE 4 4 4 4
TYPE F F F F
COUNT 1 1 1 1
WIDTH 1298
HEIGHT 1
VIEWPOINT 0 0 0 1 0 0 0
POINTS 1298
DATA ascii
-0.11252562 0.11358719 -0.37529761 0
-0.054459918 0.068357736 -0.37477773 0
-0.0016634203 0.024446368 -0.37400606 0
-0.041844793 0.20034394 -0.37314463 0
0.0047529563 0.15224868 -0.37449828 0
0.078333199 0.099605739 -0.37444168 0
0.02385417 0.27139211 -0.37643737 0
0.076239027 0.23379357 -0.37486354 0
0.15083365 0.15237525 -0.3739554 0
0.13288617 0.29889038 -0.37266734 0
0.22299382 0.22592604 -0.37414458 0
0.26989385 0.19161853 -0.37283233 0
0.2043075 0.38002685 -0.37230092 0
0.2835854 0.30488807 -0.37309006 0
0.35113388 0.27589023 -0.36911213 0
0.26799324 0.44823658 -0.37151542 0
0.34654328 0.38328612 -0.37167355 0
0.38759533 0.32816574 -0.36922333 0
0.41185561 0.45744976 -0.37168911 0
0.46402702 0.41009447 -0.3714959 0
0.53568375 0.4884811 -0.36967087 0
-0.93564302 -0.47844005 -0.35746071 0
-0.88113153 -0.4022865 -0.35933056 0
-0.80876005 -0.46482155 -0.36030567 0
-0.81586426 -0.33683869 -0.36029711 0
-0.74282283 -0.3876045 -0.36218378 0
-0.68151009 -0.44100478 -0.36283979 0
-0.74865878 -0.25705621 -0.36391196 0
-0.68077427 -0.31059629 -0.36499277 0
-0.61564171 -0.35567141 -0.36582193 0
-0.68784916 -0.19094576 -0.36478552 0
-0.61099982 -0.234669 -0.3673653 0
-0.55334646 -0.29020542 -0.36712036 0
-0.61699265 -0.11111723 -0.36710131 0
-0.54888463 -0.16364916 -0.36816216 0
-0.47891331 -0.21651287 -0.37061623 0
-0.54730064 -0.025218606 -0.36967638 0
-0.48524612 -0.088512689 -0.37056643 0
-0.41394496 -0.14798103 -0.37035584 0
-0.49190184 0.038977426 -0.37016404 0
-0.42084891 -0.0082136914 -0.37153623 0
-0.34612259 -0.07327567 -0.37129939 0
-0.41360074 0.12500025 -0.37118635 0
-0.35051969 0.067539126 -0.37147045 0
-0.2860814 0.004326582 -0.3717134 0
-0.34221292 0.2050522 -0.37359959 0
-0.2894983 0.13714537 -0.37203208 0
-0.21201921 0.08149001 -0.37260294 0
-0.29615641 0.26168513 -0.37308171 0
-0.21942838 0.22270721 -0.3741487 0
-0.15705642 0.15804416 -0.37295505 0
-0.22439335 0.33369836 -0.37389562 0
-0.1541529 0.29679778 -0.3746644 0
-0.080859758 0.23067252 -0.37399238 0
-0.159898 0.41557151 -0.37140834 0
-0.098517761 0.37456617 -0.37317434 0
-0.018003641 0.30642703 -0.37358913 0
-0.083365835 0.49690452 -0.37117162 0
-0.03609816 0.44927192 -0.36870223 0
0.045564592 0.37321708 -0.37155172 0
0.11502305 0.45108402 -0.37027147 0
0.24601403 0.49527079 -0.366781 0
-0.99301982 -0.45078367 -0.35604703 0
-0.98165458 -0.31517118 -0.35897622 0
-0.92236161 -0.36622339 -0.35837913 0
-0.97737509 -0.16674823 -0.35988384 0
-0.91705561 -0.2343031 -0.36035535 0
-0.85659659 -0.29886335 -0.35953918 0
-0.92862791 -0.11122606 -0.36073336 0
-0.83940268 -0.168369 -0.36228278 0
-0.79121208 -0.21736538 -0.36228704 0
-0.85932225 -0.024856903 -0.3635571 0
-0.78588462 -0.093823172 -0.36384162 0
-0.7143482 -0.14375247 -0.36298367 0
-0.79002118 0.051116414 -0.36360192 0
-0.71567816 -0.017902192 -0.36494595 0
-0.6482088 -0.064486898 -0.3664704 0
-0.71253163 0.13470846 -0.36751348 0
-0.64198309 0.06610623 -0.36708564 0
-0.58782077 0.012902562 -0.36801761 0
-0.65023524 0.20067802 -0.36829555 0
-0.58329004 0.14239752 -0.36852008 0
-0.52025998 0.084737152 -0.36811751 0
-0.58683485 0.27101845 -0.36905375 0
-0.51176089 0.21476007 -0.37097996 0
-0.45238289 0.16388607 -0.36962473 0
-0.51780987 0.33984584 -0.36482844 0
-0.45270157 0.29317024 -0.3690609 0
-0.39412636 0.22791412 -0.36994135 0
-0.44358277 0.42463458 -0.36603484 0
-0.39554736 0.37321168 -0.36638218 0
-0.31732219 0.31563663 -0.37160748 0
-0.38886505 0.4907586 -0.3615917 0
-0.32769561 0.43394011 -0.36494204 0
-0.25903198 0.38161975 -0.36977884 0
-0.19020051 0.44955736 -0.36832175 0
-0.95969766 -0.064011261 -0.3594889 0
-0.9398486 0.062374681 -0.36473614 0
-0.88324934 0.026708927 -0.35923108 0
-0.9527263 0.18515743 -0.36191884 0
-0.8735894 0.12546597 -0.36473072 0
-0.81973559 0.091561444 -0.36239377 0
-0.89458591 0.27125084 -0.36164507 0
-0.81199133 0.20637979 -0.36526626 0
-0.77644658 0.1397931 -0.3631728 0
-0.8242079 0.33671415 -0.35989565 0
-0.75861126 0.29025787 -0.36347544 0
-0.69781816 0.23577814 -0.36523503 0
-0.75771713 0.41513813 -0.36046615 0
-0.68017668 0.35253304 -0.36410645 0
-0.61404485 0.31164399 -0.36393511 0
-0.69011903 0.48275012 -0.35950229 0
-0.61730373 0.43554729 -0.36180592 0
-0.55795038 0.37324762 -0.36258888 0
-0.48023829 0.45396775 -0.36122301 0
-0.99144006 0.23641784 -0.35812858 0
-0.98137087 0.36105561 -0.35790235 0
-0.93399769 0.31309614 -0.36032996 0
-0.9191587 0.43639088 -0.35608271 0
-0.87944221 0.37008443 -0.35797513 0
-0.86185968 0.4999429 -0.35463274 0
-0.78881073 0.4575344 -0.35865021 0
0.85121024 0.027661324 -0.4142625 0
0.90835643 0.069238514 -0.41300204 0
0.98332912 0.13545141 -0.41232622 0
0.13351581 -0.44307816 -0.40754831 0
0.20145805 -0.3820065 -0.4070479 0
0.27183124 -0.31086108 -0.40740186 0
0.29387107 -0.31450784 -0.40698296 0
0.33570966 -0.24365008 -0.40905336 0
0.35625303 -0.25348264 -0.40775195 0
0.39666808 -0.18337631 -0.40788099 0
0.43615758 -0.18693486 -0.40874249 0
0.51238072 -0.12102902 -0.4093132 0
0.59640557 -0.064388603 -0.41045994 0
0.6632635 0.0035455525 -0.41110522 0
0.72028804 -0.029973477 -0.41117063 0
0.72583818 0.079868227 -0.41146192 0
0.79528213 0.033278793 -0.41219544 0
0.80380452 0.15041578 -0.41246858 0
0.86845702 0.10082465 -0.41243398 0
0.87279636 0.21793297 -0.41227955 0
0.92610383 0.17340255 -0.41267303 0
0.92733157 0.29021993 -0.41152111 0
0.99335909 0.25179002 -0.41339788 0
0.99951744 0.36532539 -0.41019896 0
-0.037074536 -0.43650168 -0.40588427 0
0.022187859 -0.48578721 -0.40554604 0
0.031606242 -0.35912699 -0.40824535 0
0.089542255 -0.41865706 -0.40676266 0
0.096319005 -0.29229105 -0.40804875 0
0.16295093 -0.3423703 -0.40753481 0
0.16590455 -0.22078776 -0.40871909 0
0.22767667 -0.27075556 -0.40699658 0
0.23571911 -0.1437946 -0.40870041 0
0.29929042 -0.20339417 -0.4075323 0
0.29174307 -0.081687897 -0.40893897 0
0.36245233 -0.12689814 -0.40778726 0
0.36953381 -0.0037305057 -0.40967327 0
0.42787564 -0.056931436 -0.40811014 0
0.48733369 -0.092751116 -0.40572906 0
0.44936839 0.086769789 -0.41132805 0
0.49240255 0.019515961 -0.40870085 0
0.53595454 -0.036414146 -0.40620154 0
0.49392641 0.13590035 -0.40992633 0
0.55885726 0.097542405 -0.40946239 0
0.61836159 0.051344097 -0.40932816 0
0.62773132 0.17851347 -0.40893245 0
0.68357337 0.1281139 -0.40907693 0
0.70139641 0.24425295 -0.411167 0
0.75215095 0.19239852 -0.41075584 0
0.76111388 0.31819689 -0.40972459 0
0.81988937 0.26189423 -0.41087544 0
0.82185435 0.39105305 -0.40887707 0
0.88761306 0.33930236 -0.41095328 0
0.909778 0.46630746 -0.40851489 0
0.96768361 0.41908652 -0.40790361 0
-0.34050709 -0.44681478 -0.40369844 0
-0.27307886 -0.48855281 -0.40332603 0
-0.25182155 -0.34463269 -0.41351238 0
-0.20984057 -0.40938562 -0.40497893 0
-0.14712001 -0.45459288 -0.40419453 0
-0.14260752 -0.34187934 -0.40646669 0
-0.081382513 -0.38899946 -0.40531912 0
-0.07377772 -0.26738733 -0.40780419 0
-0.019197762 -0.32169217 -0.40686756 0
-0.0013972223 -0.19019049 -0.40976268 0
0.047765374 -0.24992366 -0.40806204 0
0.067123495 -0.11140014 -0.41041017 0
0.12401468 -0.17300116 -0.40840575 0
0.13040835 -0.047122598 -0.41051096 0
0.18706381 -0.10673395 -0.40869674 0
0.20256826 0.026105732 -0.40926141 0
0.26262474 -0.025968999 -0.40962592 0
0.26570949 0.10482618 -0.4085539 0
0.33439952 0.051130354 -0.40863848 0
0.3409062 0.17704034 -0.40949827 0
0.39561605 0.12094145 -0.40968633 0
0.39951119 0.24616142 -0.40767172 0
0.46251971 0.18678561 -0.40700507 0
0.4655908 0.3140806 -0.40561828 0
0.53103274 0.26886082 -0.40679297 0
0.57999116 0.21725234 -0.40644708 0
0.56714469 0.42454007 -0.40880403 0
0.59051079 0.34066865 -0.40726855 0
0.65275031 0.30277073 -0.40612093 0
0.65859514 0.41150731 -0.40695545 0
0.70780331 0.35827452 -0.40517819 0
0.73339504 0.49128807 -0.40662995 0
0.79487318 0.43704009 -0.40575731 0
-0.57333612 -0.48359525 -0.40286165 0
-0.5005247 -0.41094488 -0.40329471 0
-0.43911463 -0.4662818 -0.40266848 0
-0.42670649 -0.33683997 -0.405922 0
-0.37399912 -0.39622313 -0.40330023 0
-0.36816332 -0.27089816 -0.40684646 0
-0.30635655 -0.32170895 -0.40519878 0
-0.22631304 -0.3316631 -0.40136686 0
-0.30141753 -0.20296659 -0.40762931 0
-0.24047531 -0.24807356 -0.40776959 0
-0.18229763 -0.28575075 -0.40528274 0
-0.22594839 -0.12096742 -0.40939578 0
-0.16956323 -0.17579673 -0.40883815 0
-0.11776772 -0.21630754 -0.40675065 0
-0.17311713 -0.06199567 -0.40934378 0
-0.10958043 -0.099500611 -0.40939435 0
-0.054326802 -0.14506312 -0.40850464 0
-0.12078278 1.5050173e-05 -0.41230315 0
-0.040783755 -0.026384205 -0.41095898 0
0.01169575 -0.076400742 -0.408822 0
0.024855107 0.042513207 -0.40962026 0
0.08433605 0.0014242828 -0.40897653 0
0.088633604 0.12516089 -0.41001293 0
0.15902849 0.076805145 -0.40894616 0
0.15764454 0.1881744 -0.40916577 0
0.22451663 0.15407676 -0.40848434 0
0.23117505 0.27282679 -0.40849257 0
0.29001933 0.21396637 -0.40828902 0
0.31273916 0.34967357 -0.40847376 0
0.36107635 0.28865623 -0.40881354 0
0.36486053 0.41997924 -0.40715331 0
0.42521909 0.36292481 -0.40686953 0
0.43702689 0.4916532 -0.40663406 0
0.50843376 0.43528068 -0.40589508 0
-0.73238212 -0.45962328 -0.3980968 0
-0.67486715 -0.38408673 -0.40132961 0
-0.61536729 -0.43835568 -0.39993197 0
-0.60144043 -0.3221907 -0.40411067 0
-0.55521232 -0.36740971 -0.40338728 0
-0.54498965 -0.24350853 -0.40478146 0
-0.4833658 -0.30067495 -0.4047634 0
-0.47558922 -0.1765839 -0.40619329 0
-0.41250396 -0.22276621 -0.40567973 0
-0.40751368 -0.10442239 -0.40690538 0
-0.3432464 -0.15633871 -0.40668383 0
-0.33153 -0.022792622 -0.4087722 0
-0.28052968 -0.074969381 -0.40806746 0
-0.2634722 0.042832874 -0.40878814 0
-0.2014107 -0.0057327747 -0.40885067 0
-0.13043964 -0.017061904 -0.40389508 0
-0.19842184 0.12244598 -0.41027132 0
-0.1354367 0.066077471 -0.41030014 0
-0.083286941 0.028579652 -0.40518922 0
-0.13319801 0.19446382 -0.41001478 0
-0.077457242 0.14074308 -0.4093329 0
-0.0064104013 0.10715073 -0.40676883 0
-0.06490355 0.26628047 -0.41078284 0
-0.001215308 0.2204579 -0.4107112 0
0.048946649 0.17209631 -0.40820214 0
-0.014567684 0.31638554 -0.41237074 0
0.065581799 0.29196009 -0.40817502 0
0.11765268 0.24327344 -0.40588894 0
0.12543215 0.3752189 -0.40730342 0
0.18489635 0.31681368 -0.40801379 0
0.19255102 0.43891937 -0.40750805 0
0.25479731 0.38159841 -0.40791997 0
0.31603807 0.46300784 -0.40762568 0
-0.91556501 -0.4343425 -0.39365709 0
-0.85117555 -0.47842568 -0.39749208 0
-0.83971912 -0.36307532 -0.39565983 0
-0.79695815 -0.42651266 -0.39659172 0
-0.78334445 -0.28623766 -0.3981244 0
-0.73447841 -0.35364956 -0.39769566 0
-0.70323926 -0.22600356 -0.39970663 0
-0.66146618 -0.28050664 -0.40096217 0
-0.65155792 -0.14057656 -0.40192619 0
-0.58632153 -0.20066044 -0.40255994 0
-0.57459563 -0.078773692 -0.40343067 0
-0.52171993 -0.12236142 -0.40605766 0
-0.50818849 0.0054433942 -0.40637261 0
-0.45029917 -0.053125709 -0.40664044 0
-0.43191758 0.067339897 -0.40572205 0
-0.3809033 0.0089389384 -0.40695658 0
-0.37942183 0.15098345 -0.40546221 0
-0.31614268 0.087552577 -0.40805078 0
-0.30028832 0.22233936 -0.40717223 0
-0.23779806 0.15941934 -0.40814498 0
-0.23966363 0.29109088 -0.40880394 0
-0.17992283 0.24167261 -0.40774691 0
-0.16491255 0.35780889 -0.40986264 0
-0.10038494 0.31712449 -0.40949267 0
-0.10483576 0.43103153 -0.4084729 0
-0.04472287 0.37472627 -0.4060263 0
0.018118475 0.46594948 -0.40598306 0
0.090004139 0.41510397 -0.4063428 0
-0.93969619 -0.27182555 -0.39357364 0
-0.93805575 -0.14790733 -0.39612365 0
-0.86828732 -0.20743972 -0.39589068 0
-0.80913824 -0.12796731 -0.39890212 0
-0.76629984 -0.17951117 -0.39746934 0
-0.74953789 -0.056053363 -0.40031913 0
-0.70148915 -0.11078443 -0.39882746 0
-0.68354172 0.02086243 -0.40237558 0
-0.63922322 -0.043524824 -0.40187821 0
-0.62083387 0.089472219 -0.40432036 0
-0.54706204 0.049369734 -0.40399122 0
-0.54869467 0.16088474 -0.40605557 0
-0.49776515 0.11041375 -0.40241662 0
-0.4750376 0.23615222 -0.40674359 0
-0.41109845 0.18786493 -0.40762201 0
-0.40648526 0.31288815 -0.40538144 0
-0.34853965 0.27123269 -0.40799519 0
-0.3405202 0.39335686 -0.40286028 0
-0.28206584 0.33947802 -0.40770641 0
-0.27361453 0.46005601 -0.40198979 0
-0.21202663 0.41342121 -0.40504435 0
-0.12989593 0.48981929 -0.40223452 0
-0.9866727 -0.10796852 -0.39630195 0
-0.95466781 0.023298554 -0.3997485 0
-0.90257269 -0.045769386 -0.39658728 0
-0.83990306 0.046877362 -0.40125236 0
-0.77707642 0.11043513 -0.40204683 0
-0.69109511 0.18515572 -0.40435612 0
-0.64597625 0.16009511 -0.40241137 0
-0.63190693 0.25448829 -0.40395138 0
-0.58131039 0.21699128 -0.40461692 0
-0.55016851 0.31705356 -0.40298393 0
-0.5362758 0.26330048 -0.40235347 0
-0.49482942 0.39421263 -0.4011718 0
-0.46315849 0.35208011 -0.40269595 0
-0.42392924 0.46944574 -0.39873254 0
-0.39631516 0.42121941 -0.40086761 0
-0.98959088 0.37203902 -0.3384009 0
-0.91166675 0.42992705 -0.34143996 0
-0.8525877 0.39371884 -0.34150511 0
-0.86373371 0.46910846 -0.3402701 0
-0.77451944 0.43328372 -0.34404212 0
-0.72952938 0.41184044 -0.3449823 0
-0.76298487 0.48086464 -0.33927867 0
-0.6667909 0.43190831 -0.34663424 0
-0.62850565 0.40907282 -0.34328932 0
-0.64691597 0.4842279 -0.33990481 0
-0.53543854 0.45429698 -0.34610653 0
-0.44443148 0.42949772 -0.34872097 0
-0.41185835 0.48336327 -0.34568283 0
-0.32637912 0.44646269 -0.34692907 0
-0.25083601 0.43466628 -0.35001805 0
-0.27092054 0.47119391 -0.34946394 0
-0.19786103 0.42650288 -0.35003173 0
-0.16590457 0.47828841 -0.35019502 0
-0.098584205 0.43113574 -0.35336253 0
-0.046118088 0.49503478 -0.35192987 0
0.032737937 0.45212215 -0.3547484 0
0.13232778 0.41405356 -0.35754484 0
0.20445338 0.38755369 -0.35639605 0
0.17965825 0.48067418 -0.35463625 0
0.26975015 0.42825755 -0.35737005 0
0.36055067 0.388262 -0.35686532 0
0.44764835 0.34745377 -0.35587165 0
0.51692683 0.30701026 -0.35418722 0
0.31621778 0.47793272 -0.36042985 0
0.39484286 0.42232737 -0.3577559 0
0.47480682 0.38478115 -0.35727105 0
0.56367564 0.32259989 -0.35785121 0
0.6461463 0.27776241 -0.35494757 0
0.41728204 0.47427854 -0.35674804 0
0.50244582 0.41926041 -0.35586241 0
0.58106798 0.36019024 -0.35691416 0
0.67165065 0.32316965 -0.35698783 0
0.75408316 0.26618707 -0.3574298 0
0.84175128 0.21595073 -0.3587752 0
0.92833674 0.17436889 -0.36127076 0
0.62882066 0.43950346 -0.35759673 0
0.71710414 0.3874307 -0.35613492 0
0.80161142 0.33526662 -0.35736772 0
0.8845793 0.27713427 -0.35934421 0
0.97261995 0.2289362 -0.36191031 0
0.77674603 0.48525497 -0.35707167 0
0.85793179 0.42290759 -0.35600758 0
0.93203408 0.37017375 -0.35861108 0
-0.98483849 -0.43212384 -0.34667283 0
-0.90773964 -0.44963068 -0.34717739 0
-0.86153346 -0.37285119 -0.3497293 0
-0.78592736 -0.41096735 -0.34971073 0
-0.72900319 -0.44845536 -0.35098615 0
-0.80641848 -0.31348729 -0.35228518 0
-0.7320165 -0.3187938 -0.35216334 0
-0.67188841 -0.35647303 -0.35359406 0
-0.68331581 -0.23988599 -0.35367501 0
-0.61130303 -0.27022931 -0.35572237 0
-0.61350751 -0.15648785 -0.35602644 0
-0.55315399 -0.18615414 -0.3577739 0
-0.56957507 -0.085665196 -0.35801414 0
-0.5037542 -0.11038841 -0.35903627 0
-0.42747912 -0.093841672 -0.36080116 0
-0.43854669 -0.025299475 -0.36054194 0
-0.38333786 -0.044424191 -0.36066821 0
-0.38886344 0.036341101 -0.35989264 0
-0.32763708 0.03145808 -0.36178163 0
-0.25895199 0.099716097 -0.3625935 0
-0.19464658 0.10200972 -0.36187258 0
-0.20475169 0.16765596 -0.36210614 0
-0.14991602 0.15840541 -0.36287531 0
-0.15579481 0.22777058 -0.3632797 0
-0.078245401 0.22840889 -0.3628155 0
-0.0054194625 0.2219028 -0.36395591 0
-0.014047956 0.31019175 -0.36375809 0
0.05634366 0.28483936 -0.36380154 0
0.097892821 0.3540712 -0.36262199 0
0.17240171 0.32115307 -0.36120316 0
0.16548626 0.42313448 -0.36182573 0
0.23661682 0.39613786 -0.36237422 0
0.31116632 0.37302071 -0.36042941 0
0.28850985 0.46882126 -0.3612394 0
0.37668443 0.43530273 -0.36089799 0
0.45856732 0.42388418 -0.36313021 0
0.51819319 0.47717419 -0.36006567 0
0.59929955 0.4471269 -0.35988683 0
0.64508337 0.49698192 -0.35970441 0
0.73663229 0.48856595 -0.36020115 0
-0.9631871 -0.29785383 -0.34950632 0
-0.8982392 -0.3311151 -0.34851435 0
-0.9228186 -0.21765062 -0.3496443 0
-0.83030093 -0.25603813 -0.34893253 0
-0.95564079 -0.073617674 -0.35100645 0
-0.86027104 -0.11923397 -0.35069531 0
-0.76715142 -0.17624462 -0.35176435 0
-0.72541153 -0.2070867 -0.35179064 0
-0.96936095 0.035031781 -0.35409561 0
-0.90330005 0.0072183684 -0.35283071 0
-0.81142944 -0.038378589 -0.35358256 0
-0.72457862 -0.093583584 -0.35308081 0
-0.66566253 -0.13106439 -0.35350454 0
-0.84913605 0.084544681 -0.35425213 0
-0.76992255 0.040535383 -0.35437965 0
-0.68499601 -0.0019954331 -0.35419828 0
-0.5932833 -0.04920847 -0.35609788 0
-0.52645141 -0.061834604 -0.35384992 0
-0.78797126 0.15339361 -0.3580935 0
-0.72340894 0.12979218 -0.35636395 0
-0.63592792 0.093987331 -0.35638654 0
-0.54546261 0.033174351 -0.35829008 0
-0.48110461 0.010888629 -0.35712463 0
-0.6665687 0.20818751 -0.35496622 0
-0.58327013 0.17632097 -0.35777572 0
-0.49271521 0.11994582 -0.3587974 0
-0.40435678 0.077888191 -0.36003241 0
-0.33926356 0.077129334 -0.35288614 0
-0.61266595 0.28511313 -0.35805026 0
-0.53235233 0.26412106 -0.35507298 0
-0.4466309 0.21375388 -0.35906565 0
-0.36627954 0.15574689 -0.36042076 0
-0.28831843 0.14889449 -0.36029467 0
-0.48356771 0.34417224 -0.35410699 0
-0.39772129 0.31409293 -0.35732192 0
-0.31045058 0.24444765 -0.36077827 0
-0.23712951 0.21135859 -0.36208925 0
-0.41795161 0.39907312 -0.35366413 0
-0.34231108 0.39494479 -0.3559989 0
-0.26281688 0.33414453 -0.35911924 0
-0.17336698 0.28347802 -0.3618615 0
-0.12337121 0.24916492 -0.36176232 0
-0.37557006 0.46259218 -0.35648254 0
-0.29067346 0.46505758 -0.35338283 0
-0.21385071 0.4326933 -0.3560684 0
-0.12022419 0.37738746 -0.36173984 0
-0.04237799 0.34183532 -0.3635647 0
-0.079287767 0.46314377 -0.35616955 0
0.015171044 0.41405141 -0.36079907 0
0.058331572 0.49848115 -0.35483029 0
0.14013618 0.45872781 -0.35922632 0
-0.94811785 0.15687816 -0.35148981 0
-0.88360178 0.12649541 -0.35306537 0
-0.98254412 0.28942251 -0.3481251 0
-0.91264725 0.24224198 -0.34957898 0
-0.8222425 0.21065672 -0.35160801 0
-0.74865443 0.19627754 -0.34960139 0
-0.94917333 0.37266833 -0.34576043 0
-0.86017323 0.32877922 -0.34746033 0
-0.75738293 0.28604472 -0.35287926 0
-0.70093423 0.26348725 -0.35210413 0
-0.89407754 0.45262724 -0.34705719 0
-0.80762237 0.42448047 -0.34545746 0
-0.70949233 0.36405358 -0.35015947 0
-0.62406451 0.32515115 -0.35277444 0
-0.66432458 0.46167633 -0.34849492 0
-0.57884359 0.40284944 -0.35123685 0
-0.50345838 0.38474521 -0.35280436 0
-0.53647876 0.49386537 -0.34870604 0
-0.45475274 0.45087934 -0.34893605 0
-0.97834802 0.43380827 -0.34880164 0
-0.90832365 0.49952173 -0.34570947 0
0.98867345 0.40354252 -0.34287873 0
0.96703625 -0.4831062 -0.35138443 0
0.92776763 -0.36815363 -0.3485797 0
0.99431044 -0.39840886 -0.35518888 0
0.98363066 -0.27639335 -0.35825226 0
0.95422465 -0.13944334 -0.35324699 0
0.99107289 -0.19997185 -0.3534247 0
0.98263621 -0.022928119 -0.35979944 0
0.89427853 0.26972091 -0.35231611 0
0.97227055 0.18250442 -0.35970479 0
0.87366146 0.3646149 -0.3522028 0
0.93208969 0.31095976 -0.35424507 0
0.87392628 0.4360429 -0.35238877 0
0.97404826 0.42343155 -0.35275346 0
0.74403548 -0.488336 -0.35562494 0
0.7770108 -0.40150535 -0.35934588 0
0.84302092 -0.45582384 -0.35553282 0
0.77068323 -0.24395227 -0.35489413 0
0.81711018 -0.3089031 -0.36158133 0
0.88798261 -0.369369 -0.35973132 0
0.98828423 -0.42098996 -0.3596988 0
0.78530037 -0.18390101 -0.35700902 0
0.8548615 -0.2338376 -0.36106721 0
0.9543488 -0.26701203 -0.36049521 0
0.80432212 -0.092253357 -0.36013612 0
0.89804143 -0.1313684 -0.36109912 0
0.97160935 -0.16490695 -0.36093366 0
0.78418893 0.061818987 -0.35746762 0
0.85047704 0.0025759339 -0.36165756 0
0.92421055 -0.049016058 -0.36268601 0
0.75447774 0.18575123 -0.35380971 0
0.80352396 0.14298809 -0.35598677 0
0.89170003 0.095737547 -0.3613131 0
0.9915542 0.056616157 -0.36331499 0
0.71414965 0.34110886 -0.35081169 0
0.77780926 0.27741802 -0.35594419 0
0.87255973 0.21900707 -0.35964829 0
0.95893008 0.15800294 -0.36018145 0
0.67118615 0.46118706 -0.34898785 0
0.7357288 0.41351593 -0.35148042 0
0.81519061 0.37121525 -0.35734203 0
0.91362518 0.30683202 -0.35725939 0
0.99843067 0.25681916 -0.35969281 0
0.7711038 0.49497345 -0.35493845 0
0.85932416 0.45100814 -0.3535502 0
0.91720015 0.39621386 -0.35646966 0
0.98259145 0.48823705 -0.35394084 0
0.53609729 -0.42802685 -0.35516998 0
0.60632575 -0.46172285 -0.3541297 0
0.55937552 -0.32788056 -0.35330784 0
0.65107512 -0.386944 -0.35455513 0
0.73898184 -0.44071847 -0.35628054 0
0.81630766 -0.47132769 -0.35467613 0
0.56950301 -0.16845441 -0.35395995 0
0.6046195 -0.23397809 -0.35581985 0
0.67937112 -0.28497761 -0.3569456 0
0.77565932 -0.32158875 -0.35608238 0
0.86869049 -0.3733488 -0.35591468 0
0.95232236 -0.42076588 -0.35613108 0
0.57675421 -0.08696416 -0.35439292 0
0.66730011 -0.15797776 -0.35721385 0
0.73487866 -0.19478625 -0.35835913 0
0.8246423 -0.2475999 -0.35730276 0
0.89089322 -0.29531869 -0.3517229 0
0.99263394 -0.33287579 -0.35589826 0
0.56765872 0.020084053 -0.35199207 0
0.62508786 -0.0069160461 -0.35403872 0
0.69300586 -0.073528171 -0.35811567 0
0.79014075 -0.12396562 -0.35842076 0
0.87913018 -0.15434214 -0.35782585 0
0.97008109 -0.20372987 -0.35566241 0
0.57269454 0.091333479 -0.35025108 0
0.65976125 0.078269035 -0.35149482 0
0.75930297 0.015271068 -0.35926738 0
0.84331566 -0.03034085 -0.3584201 0
0.93381643 -0.056885988 -0.36037305 0
0.56311607 0.24646308 -0.35350576 0
0.61883736 0.20952256 -0.35270748 0
0.71180522 0.16828567 -0.35551506 0
0.77825052 0.10261625 -0.35849759 0
0.8427043 0.054872602 -0.35529053 0
0.97260118 0.031712204 -0.35682932 0
0.52148676 0.39690673 -0.35053483 0
0.58287436 0.34099874 -0.35456705 0
0.66227114 0.30431205 -0.35186857 0
0.76818693 0.24594177 -0.35485432 0
0.85623986 0.19747376 -0.35834566 0
0.92043042 0.15093622 -0.3589488 0
0.99907696 0.10832587 -0.35820013 0
0.53591985 0.46128529 -0.35124105 0
0.62253249 0.42461675 -0.35326603 0
0.70503485 0.3906613 -0.35164118 0
0.79810846 0.32885081 -0.35284448 0
0.88526309 0.29355252 -0.3576636 0
0.96158296 0.25411904 -0.3586984 0
0.75307006 0.46904662 -0.35062721 0
0.85171574 0.42478907 -0.35227776 0
0.93782192 0.37892127 -0.35656607 0
0.97264665 0.45611683 -0.35454193 0
0.31085512 -0.40953773 -0.36136836 0
0.36644149 -0.44017416 -0.36091849 0
0.46321413 -0.46716723 -0.36432058 0
0.33844537 -0.31861049 -0.36203229 0
0.41917044 -0.3547273 -0.36133513 0
0.51757014 -0.41404289 -0.36282945 0
0.59071249 -0.41800675 -0.36413977 0
0.65379703 -0.48091733 -0.36384267 0
0.36928269 -0.21557423 -0.36116761 0
0.45957327 -0.26924321 -0.36196834 0
0.54256022 -0.31069422 -0.36265877 0
0.63652539 -0.34420496 -0.36415046 0
0.71715999 -0.41999733 -0.36175686 0
0.80947155 -0.44869816 -0.36425769 0
0.38276061 -0.07508713 -0.36240509 0
0.4321121 -0.12314153 -0.36216453 0
0.5224297 -0.17572474 -0.36140615 0
0.59705967 -0.23974034 -0.36393085 0
0.68929523 -0.26494423 -0.36466339 0
0.77350485 -0.31477326 -0.36712676 0
0.84711683 -0.36500907 -0.36171123 0
0.95310128 -0.41011685 -0.36046752 0
0.40976179 0.0082802773 -0.36272591 0
0.47836429 -0.038216233 -0.35970125 0
0.57773542 -0.093563586 -0.36228773 0
0.6486851 -0.15006381 -0.36468196 0
0.70777488 -0.17784163 -0.36134437 0
0.80411172 -0.22051105 -0.36550683 0
0.90330321 -0.2749629 -0.36379489 0
0.99940228 -0.33212286 -0.36294505 0
0.40885696 0.084880859 -0.36151281 0
0.52798218 0.056502163 -0.36252534 0
0.60671425 -0.016037554 -0.36112732 0
0.71041757 -0.042363465 -0.3663514 0
0.7602517 -0.12689203 -0.36221573 0
0.8793689 -0.15544444 -0.36685786 0
0.94937921 -0.20456052 -0.36504743 0
0.40449962 0.22002131 -0.36031926 0
0.46878278 0.16942033 -0.36300686 0
0.56396896 0.12994763 -0.36234516 0
0.66269189 0.10361817 -0.36247069 0
0.74586958 0.057263047 -0.36399168 0
0.81078327 -0.019805372 -0.36590794 0
0.90509802 -0.05544582 -0.36824986 0
0.99337614 -0.093456984 -0.36540887 0
0.38235903 0.37203217 -0.36082363 0
0.4354125 0.31163558 -0.36230654 0
0.52773553 0.26367044 -0.3595151 0
0.61717331 0.21304803 -0.36077818 0
0.74950945 0.1988849 -0.36325604 0
0.78653258 0.1504212 -0.36295822 0
0.87320429 0.10189199 -0.3667706 0
0.95750308 0.022950053 -0.36483055 0
0.39404333 0.4517194 -0.35811734 0
0.47517478 0.39651218 -0.35999721 0
0.5657227 0.3442941 -0.36128134 0
0.67015773 0.31050825 -0.35981655 0
0.75948405 0.27975744 -0.36493635 0
0.82018083 0.22846955 -0.36139524 0
0.91448945 0.18458822 -0.36319414 0
0.51984775 0.49594265 -0.36031997 0
0.59548944 0.4284758 -0.35788068 0
0.70699948 0.39531559 -0.36121008 0
0.80186409 0.31614721 -0.35817492 0
0.93255568 0.32715529 -0.36629102 0
0.94928682 0.27276671 -0.36159664 0
0.80883598 0.42808852 -0.36024836 0
0.90800416 0.3968024 -0.36236405 0
0.99860519 0.35559189 -0.3629989 0
0.95341015 0.47022575 -0.35593066 0
0.023927733 -0.45065239 -0.36544511 0
0.040991694 -0.39172027 -0.36287925 0
0.14130604 -0.43008536 -0.36382008 0
0.23555751 -0.47048542 -0.36257225 0
0.086504877 -0.29173717 -0.36388108 0
0.1834022 -0.3416518 -0.3621785 0
0.25561982 -0.38290501 -0.36304936 0
0.33582377 -0.40462172 -0.36292523 0
0.093680695 -0.15692857 -0.36526528 0
0.13604505 -0.19838771 -0.36603731 0
0.22470321 -0.24127096 -0.36488965 0
0.29192752 -0.27851403 -0.36128941 0
0.38881725 -0.32339853 -0.36349848 0
0.50636911 -0.44271028 -0.36930624 0
0.11022825 -0.082155496 -0.36511344 0
0.18535952 -0.12469956 -0.36506227 0
0.30012614 -0.1614393 -0.36235192 0
0.37200797 -0.21062446 -0.36290187 0
0.43797067 -0.2671079 -0.36539412 0
0.15379836 0.015570819 -0.36501375 0
0.23183767 -0.037065715 -0.36349681 0
0.32661933 -0.079152316 -0.36695659 0
0.4149605 -0.10263032 -0.36334133 0
0.48244295 -0.18141264 -0.36514956 0
0.12480576 0.18226057 -0.36049581 0
0.19137031 0.12313102 -0.36667997 0
0.27535063 0.075626627 -0.36381197 0
0.34218642 0.01274398 -0.36348668 0
0.45558566 -0.021409601 -0.36363059 0
0.53701031 -0.067948759 -0.36380026 0
0.16182299 0.26954404 -0.36429855 0
0.23060559 0.19404773 -0.3652381 0
0.33034182 0.16073494 -0.36319324 0
0.42076176 0.083480775 -0.36584824 0
0.53156173 0.040712476 -0.36699519 0
0.6029833 0.063565612 -0.36513326 0
0.080676988 0.44434795 -0.34934932 0
0.12480043 0.38660955 -0.35868177 0
0.22614282 0.32842121 -0.36420351 0
0.28848624 0.29103509 -0.36300603 0
0.36377385 0.22713444 -0.36219451 0
0.4716551 0.20764686 -0.36337814 0
0.52836609 0.14697661 -0.36383718 0
0.65204114 0.13091436 -0.36595193 0
0.16756441 0.47296411 -0.35671884 0
0.22176422 0.41333598 -0.36101195 0
0.35313392 0.37366232 -0.36222172 0
0.40850276 0.31718853 -0.36238447 0
0.49569294 0.27418643 -0.36059552 0
0.61387086 0.20272134 -0.36428651 0
0.69347882 0.19659008 -0.36557445 0
0.37065735 0.46112111 -0.36110428 0
0.47664881 0.40710592 -0.36236078 0
0.57041556 0.3722297 -0.36204118 0
0.65582526 0.32901382 -0.36380735 0
0.61720389 0.47389302 -0.36345938 0
0.68146384 0.43013179 -0.36134711 0
0.81494319 0.33066857 -0.36922038 0
0.80512959 0.45406011 -0.36655721 0
0.3568688 -0.42633587 -0.36070001 0
0.41381428 -0.38643691 -0.3621639 0
0.48655862 -0.41103894 -0.36249748 0
0.54877186 -0.4167262 -0.35994798 0
0.65344024 -0.47026694 -0.36570972 0
0.53100991 -0.29395694 -0.3648833 0
0.60985178 -0.32628328 -0.36767316 0
0.69730371 -0.36446548 -0.3683179 0
0.77906954 -0.39825645 -0.36645576 0
0.89209497 -0.48710215 -0.36305904 0
0.45234972 -0.13889134 -0.35699585 0
0.54661608 -0.15728348 -0.36133447 0
0.60624748 -0.2105462 -0.36460707 0
0.71637714 -0.26742524 -0.36694837 0
0.79874265 -0.31923836 -0.36612365 0
0.89146662 -0.34154484 -0.36509737 0
0.92906159 -0.40328592 -0.36577076 0
0.55657762 -0.10272723 -0.36120474 0
0.65544051 -0.10971069 -0.36662915 0
0.74598676 -0.14405054 -0.36746699 0
0.81800652 -0.23772573 -0.36610663 0
0.90773529 -0.25940889 -0.36435023 0
0.99452865 -0.32711095 -0.36466032 0
0.57385767 -0.0065839589 -0.36147729 0
0.65317786 -0.039384037 -0.36371452 0
0.75182867 -0.050682962 -0.36523306 0
0.85663915 -0.12074611 -0.36917061 0
0.91986531 -0.18005264 -0.36341059 0
0.57202631 0.081913203 -0.35852295 0
0.65809023 0.049946398 -0.36202624 0
0.71753907 0.037433892 -0.36505559 0
0.82663345 0.032243013 -0.36799914 0
0.90353686 -0.01595065 -0.3682225 0
0.59239268 0.2439858 -0.35967454 0
0.68379074 0.19183666 -0.3637498 0
0.77198023 0.13453165 -0.3642633 0
0.89246476 0.093576401 -0.36984786 0
0.99582648 0.068076909 -0.37088269 0
0.66092718 0.3724758 -0.35766521 0
0.70692146 0.25066525 -0.35848677 0
0.774948 0.22510567 -0.36307994 0
0.89650446 0.18495268 -0.3686415 0
0.98835146 0.14872068 -0.3676511 0
0.65697473 0.4553512 -0.35699189 0
0.76714832 0.36332715 -0.36004424 0
0.88575906 0.31016201 -0.36469889 0
0.98323387 0.26157176 -0.36453915 0
0.7670306 0.47242814 -0.35971063 0
0.87239927 0.47610769 -0.36117318 0
0.91118556 0.42122817 -0.36215097 0
0.99822879 0.35883278 -0.36615154 0
0.95035803 0.49659944 -0.35646144 0
-0.1064949 0.41199139 -0.35992578 0
-0.042299908 0.32415593 -0.36577448 0
-0.38368621 -0.49932557 -0.35177308 0
-0.34144074 -0.42209893 -0.35024711 0
-0.27104694 -0.46923015 -0.35229722 0
-0.17137808 -0.47665334 -0.35534313 0
-0.29097199 -0.33725286 -0.35358098 0
-0.20554857 -0.36081511 -0.35656002 0
-0.1461879 -0.39869577 -0.35440645 0
-0.039754346 -0.44523415 -0.35398114 0
0.045223191 -0.48860055 -0.35384008 0
-0.23861425 -0.23594032 -0.3567006 0
-0.17711805 -0.28748679 -0.35650897 0
-0.063933104 -0.30431706 -0.35818681 0
0.0092480183 -0.3605254 -0.3560628 0
0.10040513 -0.3968907 -0.35424346 0
0.17401356 -0.46206442 -0.35608456 0
-0.22451919 -0.14534955 -0.35447147 0
-0.11261663 -0.19390093 -0.35766312 0
-0.053966716 -0.23298635 -0.35851482 0
0.05120346 -0.26651615 -0.35963666 0
0.13150506 -0.34101784 -0.35284549 0
0.22560659 -0.38245457 -0.35612205 0
0.3139953 -0.41977745 -0.35514528 0
0.38016933 -0.46934015 -0.35445443 0
0.4798345 -0.48002595 -0.35862336 0
-0.22802934 -0.059724644 -0.35258576 0
-0.15478149 -0.056983054 -0.35694459 0
-0.071356244 -0.10594885 -0.35882443 0
0.017245807 -0.15175977 -0.35758954 0
0.11203203 -0.19297072 -0.35684416 0
0.19335301 -0.24805599 -0.35988149 0
0.29643679 -0.2875042 -0.36005846 0
0.33609122 -0.33517671 -0.35330775 0
0.4599095 -0.38247815 -0.35572377 0
0.60157871 -0.42540777 -0.35767585 0
0.64228797 -0.46369973 -0.36166742 0
-0.18947428 0.058839157 -0.35491225 0
-0.11397444 0.019647509 -0.35976687 0
-0.029045373 -0.023038298 -0.35785332 0
0.052959502 -0.065863699 -0.35876897 0
0.16004476 -0.11303681 -0.36005887 0
0.25649929 -0.1491861 -0.36010608 0
0.3177259 -0.19009516 -0.35817361 0
0.41135061 -0.2663072 -0.3555378 0
0.52985466 -0.29265913 -0.35526833 0
0.62621933 -0.34239942 -0.35695925 0
0.64648545 -0.36447787 -0.36322594 0
0.78371054 -0.40721276 -0.3588545 0
0.83506167 -0.4783811 -0.35394326 0
-0.14194356 0.18268138 -0.35718983 0
-0.069465339 0.12195881 -0.35841432 0
0.0069188513 0.075634971 -0.35913894 0
0.10970851 0.022116706 -0.35824004 0
0.2053552 -0.013051271 -0.36030307 0
0.26254815 -0.052423716 -0.35592297 0
0.38216996 -0.10763294 -0.35812694 0
0.46801102 -0.18561071 -0.35962629 0
0.57548606 -0.19928694 -0.35928333 0
0.64166558 -0.26381621 -0.35508782 0
0.75027865 -0.30824733 -0.35753196 0
0.81221789 -0.35259861 -0.36128354 0
0.94762993 -0.40176427 -0.3564983 0
-0.14880611 0.31100798 -0.35489857 0
-0.10150645 0.25829464 -0.35929948 0
-0.023218259 0.21860269 -0.35657892 0
0.080093764 0.17480329 -0.35813516 0
0.14683807 0.10651381 -0.35756579 0
0.23896602 0.099122941 -0.35752815 0
0.32861018 0.038067639 -0.35693872 0
0.4176141 -0.035520911 -0.35743237 0
0.51627976 -0.088423759 -0.35832039 0
0.59226555 -0.12095374 -0.35836601 0
0.69100672 -0.14689997 -0.35879818 0
0.77729869 -0.21808356 -0.35774055 0
0.89497483 -0.25944021 -0.36033142 0
0.97731751 -0.30445403 -0.35638806 0
-0.14472273 0.39756864 -0.35020325 0
-0.056926306 0.32423207 -0.35380089 0
0.037526213 0.28850028 -0.35507652 0
0.12800083 0.25059015 -0.35374492 0
0.18618774 0.19265491 -0.35388249 0
0.30694687 0.16170079 -0.35924768 0
0.38557661 0.12794696 -0.35674265 0
0.45649761 0.07842049 -0.35603741 0
0.53272688 0.0060167015 -0.35711813 0
0.64166909 -0.014115006 -0.35801598 0
0.71030241 -0.059892505 -0.35836154 0
0.80914837 -0.12477499 -0.35933468 0
0.91503781 -0.15727383 -0.3586126 0
-0.10741255 0.47303385 -0.34759927 0
-0.024528787 0.42626876 -0.35213652 0
0.056796316 0.40106642 -0.35521919 0
0.15991347 0.34788552 -0.35579658 0
0.25279266 0.27410591 -0.35475284 0
0.32389072 0.23400736 -0.35708174 0
0.41771191 0.21042049 -0.35480762 0
0.51779336 0.15491974 -0.3568556 0
0.60171145 0.094674498 -0.35892469 0
0.73018575 0.048857898 -0.35754031 0
0.85152078 -0.022798568 -0.36321065 0
0.95466053 -0.070746601 -0.36251995 0
0.12442482 0.48353991 -0.34766552 0
0.21709138 0.42673796 -0.35396445 0
0.28851587 0.38767469 -0.35301161 0
0.36940143 0.33637989 -0.35713816 0
0.47285563 0.28184831 -0.35682699 0
0.5577122 0.24524078 -0.35343009 0
0.63953465 0.19232681 -0.35447463 0
0.74226332 0.13399193 -0.35663524 0
0.87800199 0.095804691 -0.36355552 0
0.86491466 0.041897207 -0.36310312 0
0.97797275 0.0059241652 -0.36381841 0
0.3374089 0.49308503 -0.34816647 0
0.41492599 0.4395543 -0.3544634 0
0.50153297 0.37831163 -0.35612789 0
0.60703868 0.35207382 -0.35207856 0
0.67744237 0.31228948 -0.35850772 0
0.75897378 0.24850117 -0.35606167 0
0.86502391 0.17246005 -0.35801089 0
0.98459464 0.1363129 -0.35983109 0
0.55798459 0.45541766 -0.35452256 0
0.64668137 0.43820727 -0.35400003 0
0.76515532 0.34103692 -0.35467508 0
0.88554913 0.29571271 -0.35814708 0
0.74232221 0.47924411 -0.34741512 0
0.78294748 0.44229963 -0.35584784 0
0.88768601 0.38910657 -0.35611296 0
0.99875921 0.36206895 -0.35535786 0
0.90260899 0.49084345 -0.35682699 0
0.99906695 0.43378466 -0.35363635 0
-0.51142472 -0.35074371 -0.35629371 0
-0.48022431 -0.29965419 -0.35719579 0
-0.42720544 -0.24627912 -0.35886967 0
-0.3126955 -0.23772827 -0.36205703 0
-0.39645618 -0.12139906 -0.35734519 0
-0.35745263 -0.15110023 -0.35942361 0
-0.2535727 -0.18846492 -0.36372915 0
-0.35728118 -0.023139685 -0.35777071 0
-0.28678823 -0.044564933 -0.35941505 0
-0.19245157 -0.087848023 -0.36154729 0
-0.32550338 0.074457727 -0.35776734 0
-0.24754684 0.039975926 -0.35994315 0
-0.17429598 -0.0050741732 -0.3623701 0
-0.29721162 0.17707922 -0.35793078 0
-0.21878335 0.11701269 -0.35883659 0
-0.1081226 0.093202762 -0.36081973 0
-0.28764138 0.29117119 -0.35411161 0
-0.23115462 0.26044855 -0.359018 0
-0.16141769 0.21587223 -0.36103216 0
-0.071228817 0.17259301 -0.36218783 0
-0.24919868 0.40011603 -0.35654646 0
-0.20465536 0.35451764 -0.35683671 0
-0.10809819 0.3027069 -0.361211 0
-0.02329739 0.27206096 -0.36050761 0
0.030468317 0.19070262 -0.36407045 0
-0.24323109 0.47198021 -0.35017988 0
-0.16451269 0.42578781 -0.35505646 0
-0.074659653 0.39596945 -0.3562955 0
0.047351487 0.34386185 -0.36054447 0
-0.033751696 0.46541178 -0.3518267 0
0.0282939 0.43552062 -0.35684586 0
0.11636967 0.38808227 -0.35857657 0
-0.59874845 -0.46407217 -0.35124952 0
-0.51741767 -0.49274814 -0.35295644 0
-0.54967648 -0.38336283 -0.35097098 0
-0.47688174 -0.40203255 -0.35301012 0
-0.40056837 -0.45294464 -0.35501933 0
-0.30598414 -0.48736462 -0.35488707 0
-0.48734778 -0.28736132 -0.35364839 0
-0.42680606 -0.32680967 -0.35410303 0
-0.3522678 -0.35413903 -0.35735622 0
-0.27764186 -0.4146322 -0.35538641 0
-0.168597 -0.45581853 -0.35927576 0
-0.093003467 -0.49814942 -0.35512573 0
-0.46859822 -0.22290125 -0.35045925 0
-0.38544065 -0.25201091 -0.35516706 0
-0.28636906 -0.29251224 -0.35628137 0
-0.20494649 -0.32690388 -0.35772353 0
-0.1268218 -0.37139454 -0.35859138 0
-0.046954304 -0.41663551 -0.35790604 0
0.066284448 -0.45770359 -0.35777444 0
-0.33968103 -0.15438294 -0.3534455 0
-0.24624445 -0.20373699 -0.35512793 0
-0.1608135 -0.21666189 -0.36210164 0
-0.090929762 -0.26451045 -0.35877484 0
0.010497138 -0.32911444 -0.35998762 0
0.12590931 -0.36370209 -0.36129567 0
0.18750617 -0.41633064 -0.35946181 0
0.29053256 -0.44171599 -0.35616353 0
0.33315527 -0.49668282 -0.35767162 0
-0.27463412 -0.088112712 -0.35595375 0
-0.20493346 -0.097164333 -0.35950595 0
-0.12978205 -0.14332707 -0.35954309 0
-0.018946558 -0.15963998 -0.36231405 0
0.055568472 -0.22950433 -0.36049375 0
0.15011054 -0.29594958 -0.35974964 0
0.23634376 -0.30675742 -0.35924554 0
0.30883962 -0.35401046 -0.35860708 0
0.39325699 -0.37654036 -0.35863993 0
0.46814764 -0.46354395 -0.35800195 0
-0.25357422 0.020290941 -0.35238883 0
-0.10517105 0.00038516521 -0.36129951 0
-0.079348803 -0.056379303 -0.36221784 0
-0.0018429086 -0.098857477 -0.36099225 0
0.1102238 -0.13117339 -0.36266825 0
0.2018861 -0.19820771 -0.36257425 0
0.26148432 -0.22137317 -0.35683402 0
0.33147949 -0.28444275 -0.35684535 0
0.43087697 -0.29608554 -0.3594014 0
0.51875335 -0.37190825 -0.360324 0
0.62548792 -0.41744936 -0.3609055 0
0.73948526 -0.47101757 -0.36248142 0
-0.10460743 0.0237564 -0.35976619 0
-0.033821691 0.036493853 -0.35949904 0
0.064419366 -0.0077056885 -0.36218286 0
0.13228279 -0.05919522 -0.36339635 0
0.23614806 -0.10720038 -0.36263987 0
0.33115023 -0.14104581 -0.35870081 0
0.41576612 -0.20911655 -0.35867876 0
0.54978836 -0.29135874 -0.35963789 0
0.67497671 -0.31883228 -0.36273682 0
0.81107718 -0.34548771 -0.36649173 0
0.87020576 -0.43386361 -0.35942054 0
0.023959603 0.13066538 -0.36100167 0
0.097794458 0.0792557 -0.36034292 0
0.19902988 0.034807742 -0.36362562 0
0.2794317 -0.013398856 -0.36004335 0
0.37472335 -0.06921196 -0.35937932 0
0.49622297 -0.13037986 -0.35982493 0
0.60417116 -0.13868099 -0.35883954 0
0.59484613 -0.19690239 -0.36160851 0
0.70840287 -0.23243374 -0.36250812 0
0.82284784 -0.26716876 -0.36163315 0
0.92390788 -0.33307579 -0.36203682 0
-0.0093441987 0.195384 -0.35537854 0
0.082409114 0.20067003 -0.35963294 0
0.17222968 0.16947362 -0.3596693 0
0.24910587 0.11046052 -0.35999078 0
0.33375156 0.060124218 -0.35858873 0
0.45399576 0.028042734 -0.35963127 0
0.52729213 -0.043358356 -0.36019629 0
0.62829489 -0.058148563 -0.35819179 0
0.73570019 -0.1248728 -0.35972226 0
0.73267055 -0.16650268 -0.36243075 0
0.84164947 -0.18627849 -0.3588596 0
0.96187782 -0.23494482 -0.36181346 0
0.098517433 0.30746707 -0.35809603 0
0.20435023 0.25194696 -0.35985181 0
0.3084445 0.19656734 -0.35845864 0
0.36291823 0.14642777 -0.35973066 0
0.47935367 0.13026451 -0.35876495 0
0.54908276 0.060265303 -0.35797855 0
0.66092128 0.023501456 -0.35983631 0
0.78731865 -0.014570683 -0.3631866 0
0.77270955 -0.064897895 -0.36356476 0
0.92294127 -0.080226898 -0.36902252 0
0.99728274 -0.14022273 -0.36191288 0
0.098345816 0.43178645 -0.3525936 0
0.20075077 0.40662843 -0.36000457 0
0.23867829 0.35028216 -0.35910517 0
0.34082562 0.29839239 -0.35563818 0
0.42697158 0.25155884 -0.35635427 0
0.49358943 0.21106218 -0.35739106 0
0.59566551 0.18156935 -0.36087766 0
0.71262759 0.14897326 -0.36324584 0
0.80302465 0.064631104 -0.36139771 0
0.90012217 -0.019294739 -0.35926726 0
0.90694106 -0.055071115 -0.36343145 0
0.20039231 0.4676064 -0.35237038 0
0.24011566 0.41040349 -0.35366133 0
0.39203751 0.41639966 -0.35992151 0
0.4828696 0.37174347 -0.35779399 0
0.57595104 0.31282163 -0.36002564 0
0.6008786 0.24235928 -0.35877013 0
0.70754832 0.2078362 -0.35887378 0
0.81767356 0.16023108 -0.35881385 0
0.93909532 0.090366989 -0.36066216 0
0.4279221 0.45050508 -0.35354453 0
0.53770554 0.43654928 -0.35685816 0
0.62195814 0.37808535 -0.35709974 0
0.72391355 0.320862 -0.35677844 0
0.85179442 0.24276555 -0.36168808 0
0.99505043 0.18859631 -0.3670634 0
0.63239384 0.48672742 -0.35525379 0
0.76527971 0.45541453 -0.35970715 0
0.86670095 0.36330807 -0.35903633 0
0.85921639 0.31830692 -0.35951886 0
0.88014191 0.44412524 -0.35847139 0
-0.32493836 -0.45748639 -0.36415252 0
-0.24658747 -0.33232528 -0.36585134 0
-0.22467637 -0.41311741 -0.36657885 0
-0.17831996 -0.22317238 -0.36946753 0
-0.17268643 -0.31089729 -0.36844942 0
-0.13318393 -0.39164969 -0.36734006 0
-0.10760008 -0.44449252 -0.36821336 0
-0.10522687 -0.065684363 -0.37148458 0
-0.11871321 -0.16263507 -0.36903772 0
-0.099345595 -0.25333199 -0.36799085 0
-0.051107183 -0.35000372 -0.369726 0
-0.07074213 0.046394631 -0.36875442 0
-0.02604565 -0.036675632 -0.37355471 0
-0.0013657734 -0.1336295 -0.37062663 0
0.016644776 -0.23696068 -0.37065569 0
0.033753514 -0.30969441 -0.36999238 0
-0.052465856 0.48675504 -0.35336706 0
-0.019381598 0.27196392 -0.37011153 0
0.0069057569 0.17172214 -0.37066561 0
0.023742661 0.054606318 -0.3713108 0
0.063916534 -0.018698111 -0.37080204 0
0.098055474 -0.10789543 -0.37118801 0
0.12017156 -0.20912601 -0.37110186 0
0.1336444 -0.27869904 -0.3726185 0
0.017696217 0.48598433 -0.36038712 0
0.025369108 0.39821297 -0.36722192 0
0.079396285 0.30814588 -0.37024197 0
0.10542408 0.20868848 -0.37136787 0
0.13551582 0.11427963 -0.37185544 0
0.16032705 0.024476781 -0.36941624 0
0.17880684 -0.065402567 -0.37212899 0
0.1680463 -0.16413486 -0.36932209 0
0.23691529 -0.23025906 -0.37399194 0
0.14298369 0.4181073 -0.36611408 0
0.16595799 0.32668594 -0.36836994 0
0.19989485 0.24061118 -0.36917913 0
0.22753124 0.14451903 -0.37131396 0
0.23354164 0.042188823 -0.36811006 0
0.28908339 -0.05447042 -0.37071431 0
0.2448431 0.45120859 -0.36697596 0
0.24736953 0.34337074 -0.36795291 0
0.29910767 0.25231743 -0.36681893 0
0.31557852 0.16766284 -0.37035722 0
0.34742942 0.077174127 -0.37005913 0
0.40586591 0.0010108352 -0.37499806 0
0.31865939 0.47180986 -0.36259419 0
0.36392748 0.39498758 -0.36942819 0
0.39597201 0.29565269 -0.36517474 0
0.41192296 0.20041798 -0.36999336 0
0.42160612 0.10041633 -0.37196004 0
0.48940757 0.029513687 -0.37482876 0
0.46347028 0.41547877 -0.36665079 0
0.48706928 0.32743269 -0.36417696 0
0.48608023 0.23416016 -0.37049356 0
0.56330287 0.46020856 -0.37006524 0
0.59959066 0.34441647 -0.36831543 0
0.62513173 0.24925862 -0.37106764 0
0.64279741 0.49238342 -0.36575177 0
0.65302712 0.42072895 -0.36997074 0
0.76073885 0.45902839 -0.37020105 0
-0.28311688 -0.48499212 -0.36226001 0
-0.10459512 -0.39236733 -0.36114144 0
-0.049288049 -0.28251943 -0.3617523 0
-0.033668414 -0.36896926 -0.36551028 0
-0.021692693 -0.44377232 -0.36865988 0
0.09176603 -0.33685619 -0.36886337 0
0.081841305 -0.41328579 -0.36824033 0
0.14669167 -0.30372804 -0.36920485 0
0.18006447 -0.42106932 -0.36862475 0
0.21503781 -0.49657375 -0.36763719 0
0.17289001 -0.10638019 -0.36534056 0
0.23236065 -0.1859639 -0.36854991 0
0.25181091 -0.27232146 -0.37039655 0
0.2768912 -0.36138552 -0.36915055 0
0.31006229 -0.45188195 -0.36686993 0
0.25971907 -0.074106067 -0.36536261 0
0.32878891 -0.1359435 -0.36809352 0
0.35321301 -0.23978257 -0.36997056 0
0.34899962 -0.30540258 -0.37117916 0
0.37796834 -0.42077553 -0.36793947 0
0.35825545 -0.032422781 -0.36670476 0
0.40607363 -0.13992968 -0.36880484 0
0.46553543 -0.21834803 -0.36739299 0
0.43757457 -0.30612528 -0.36953604 0
0.47489721 -0.42511129 -0.36736873 0
0.48350763 0.10714781 -0.36858752 0
0.46560574 -0.0076808631 -0.36502233 0
0.49960244 -0.078678101 -0.36897367 0
0.50197762 -0.1588057 -0.37059534 0
0.54981226 -0.28479767 -0.37033206 0
0.60707617 -0.37910244 -0.36898535 0
0.61464727 -0.47323185 -0.36898559 0
0.48916006 0.23244996 -0.36326239 0
0.49140596 0.16714437 -0.3669349 0
0.56483895 0.055506945 -0.36880505 0
0.62420869 -0.086458206 -0.37003827 0
0.59038949 -0.17100793 -0.36916137 0
0.65770483 -0.26098132 -0.3690066 0
0.72736716 -0.34380177 -0.36942711 0
0.69757569 -0.42088711 -0.37060729 0
0.59738052 0.27162087 -0.36424211 0
0.6134094 0.15368754 -0.36822015 0
0.66153175 0.06862241 -0.36758596 0
0.67543113 -0.022554457 -0.36917722 0
0.72580576 -0.12448367 -0.3728973 0
0.76409262 -0.23926297 -0.36789969 0
0.76243424 -0.27394927 -0.37082216 0
0.82551169 -0.41650036 -0.37049732 0
0.7148487 0.35427406 -0.36453509 0
0.70753831 0.28957108 -0.36569735 0
0.70985329 0.21206567 -0.36989889 0
0.78905725 0.10553968 -0.37090558 0
0.75930583 0.013725489 -0.37015942 0
0.84268731 -0.1099332 -0.37519544 0
0.85852277 -0.20491743 -0.37227637 0
0.87625468 -0.30746114 -0.37128526 0
0.95621169 -0.39360422 -0.36713186 0
0.92049873 -0.46426499 -0.36632895 0
0.7303614 0.39873621 -0.36606377 0
0.82752877 0.30689329 -0.3686406 0
0.80918455 0.21676102 -0.36910793 0
0.87855804 0.035299003 -0.37267891 0
0.91096073 -0.063720256 -0.37274292 0
0.93860984 -0.14982599 -0.3714841 0
0.9629066 -0.35503584 -0.36460787 0
0.85346264 0.43226966 -0.36899722 0
0.88443148 0.3314544 -0.36886868 0
0.93747842 0.25078505 -0.37306955 0
0.93165916 0.16397342 -0.37644288 0
0.99357337 -0.024159312 -0.37424931 0
0.95825601 0.46317917 -0.36837563 0
-0.0080847293 -0.39999485 -0.3679451 0
-0.0047387481 -0.49391663 -0.36754307 0
0.043598667 -0.20125899 -0.37009907 0
0.033656746 -0.28287494 -0.36946216 0
0.071731687 -0.375175 -0.36876759 0
0.10928975 -0.46258175 -0.36987749 0
0.092634819 0.051160023 -0.37059096 0
0.080704525 -0.06327261 -0.36745638 0
0.11024895 -0.14442796 -0.37330988 0
0.13201861 -0.24898754 -0.36971334 0
0.16992801 -0.34928167 -0.37056583 0
0.20615371 -0.42521375 -0.37160656 0
0.049359486 0.48900789 -0.35749543 0
0.093773626 0.33414596 -0.36792904 0
0.10521941 0.26642835 -0.36711797 0
0.092051119 0.15896063 -0.36852378 0
0.14211856 0.072817162 -0.37230405 0
0.18457767 -0.026890695 -0.37086454 0
0.19403085 -0.13564354 -0.36819687 0
0.25291795 -0.2264508 -0.36855146 0
0.252303 -0.30536819 -0.36979711 0
0.28092754 -0.40599886 -0.36794391 0
0.11798366 0.46607774 -0.36367384 0
0.1477327 0.37676656 -0.36772731 0
0.1682974 0.27716044 -0.36591813 0
0.19456112 0.18474743 -0.37061167 0
0.24301434 0.093062565 -0.36900806 0
0.26272225 -0.0029288828 -0.37073714 0
0.30049405 -0.089383125 -0.37003466 0
0.33310118 -0.1782847 -0.3665981 0
0.35600603 -0.28459838 -0.36819628 0
0.38608506 -0.38550878 -0.36907172 0
0.41437662 -0.46611625 -0.36870229 0
0.23232563 0.41880402 -0.36551294 0
0.26649073 0.30955118 -0.36871257 0
0.31075856 0.22528484 -0.37043497 0
0.32780898 0.12449412 -0.3687728 0
0.37302685 0.044736147 -0.37122443 0
0.41482532 -0.061409205 -0.37098238 0
0.43268114 -0.14912471 -0.36676466 0
0.43674245 -0.25323319 -0.36660111 0
0.4882732 -0.34438312 -0.37064406 0
0.47541964 -0.44561604 -0.36817411 0
0.32735682 0.43962577 -0.36893678 0
0.37608114 0.33568567 -0.36825147 0
0.39839011 0.19848855 -0.36953613 0
0.42769024 0.13713886 -0.36856583 0
0.45691392 0.04152599 -0.36845315 0
0.49206552 -0.021536797 -0.36916697 0
0.50771666 -0.12883854 -0.36737478 0
0.53059536 -0.23621604 -0.36797667 0
0.58069563 -0.31292367 -0.36968997 0
0.60240316 -0.42633289 -0.37126806 0
0.43080336 0.46767783 -0.36744416 0
0.4518801 0.36196971 -0.36639681 0
0.48722449 0.28412238 -0.36908814 0
0.53410381 0.1731209 -0.36899769 0
0.58054143 0.084302515 -0.36734447 0
0.57747412 -0.014486969 -0.36929429 0
0.61155188 -0.084880114 -0.36875212 0
0.62542957 -0.19653592 -0.36928135 0
0.70680165 -0.30261999 -0.36994082 0
0.68562591 -0.36850706 -0.36900362 0
0.75925708 -0.49538037 -0.36932516 0
0.57677948 0.41503382 -0.36774382 0
0.60608542 0.29781523 -0.36937958 0
0.62908864 0.21133228 -0.36683285 0
0.65868342 0.12772274 -0.3662293 0
0.65245634 0.027246058 -0.36731446 0
0.74828303 -0.054184914 -0.36855838 0
0.74832749 -0.1850104 -0.37321529 0
0.73955393 -0.24941462 -0.37425146 0
0.80188543 -0.36737019 -0.37074718 0
0.81224382 -0.43151939 -0.37684596 0
0.68242264 0.45918357 -0.36831871 0
0.65647149 0.33780676 -0.36355856 0
0.68085384 0.27116632 -0.36835381 0
0.76376307 0.14332327 -0.3668904 0
0.79113507 0.055999577 -0.37412268 0
0.79736674 -0.057411402 -0.37847695 0
0.82634175 -0.12375563 -0.3722609 0
0.82940167 -0.24071223 -0.37026319 0
0.94078183 -0.33437437 -0.37461182 0
0.90308595 -0.4124468 -0.37090057 0
0.7652697 0.45918545 -0.36462536 0
0.747684 0.3576991 -0.36146122 0
0.79641902 0.26987785 -0.37124047 0
0.89292014 0.16955477 -0.37093052 0
0.90229279 0.087429672 -0.37440467 0
0.89454538 -0.023504525 -0.37562415 0
0.94046378 -0.23429585 -0.36975205 0
0.98306859 -0.30101442 -0.37010592 0
0.99518955 -0.48203152 -0.37113282 0
0.88837308 0.4032976 -0.36773843 0
0.88880754 0.28355986 -0.36860484 0
0.91200757 0.22795519 -0.37364781 0
