# .PCD v0.7 - Point Cloud Data file format
VERSION 0.7
FIELDS x y z intensity
SIZE 4 4 4 4
TYPE F F F F
COUNT 1 1 1 1
WIDTH 1300
HEIGHT 1
VIEWPOINT 0 0 0 1 0 0 0
POINTS 1300
DATA ascii
0.416152 0.22774696 -0.34894848 0
0.52989769 0.24670744 -0.3484087 0
0.61972618 0.27554369 -0.34509945 0
0.70729351 0.27323246 -0.34268427 0
0.81670761 0.30873966 -0.33972931 0
0.91309643 0.34204006 -0.33741665 0
0.41778755 0.28876352 -0.34952879 0
0.49954891 0.34476423 -0.34851217 0
0.60459614 0.36377573 -0.34562492 0
0.70748138 0.3996911 -0.34322548 0
0.78466511 0.43800879 -0.34095955 0
0.9007225 0.40615416 -0.33751965 0
0.97358227 0.47236156 -0.33584118 0
0.51442242 0.44017792 -0.34800148 0
0.57039261 0.43547821 -0.34661865 0
0.66798592 0.47795773 -0.3441968 0
0.19975185 0.48198414 -0.35815096 0
0.9473114 -0.46902847 -0.36254692 0
0.61198711 -0.4939971 -0.36377907 0
0.70741844 -0.42284155 -0.36109877 0
0.79628372 -0.40527868 -0.36246014 0
0.89606667 -0.39360809 -0.36111641 0
0.95014763 -0.36669493 -0.35790443 0
0.2803278 -0.49497604 -0.36002636 0
0.38371944 -0.46730518 -0.36032057 0
0.48935223 -0.42761803 -0.36172247 0
0.57729053 -0.40690041 -0.35972166 0
0.66682816 -0.38149118 -0.3587923 0
0.77134418 -0.32625151 -0.35832119 0
0.87989616 -0.30000496 -0.35744953 0
0.95180511 -0.24765491 -0.35464573 0
0.17527294 -0.43669701 -0.35846949 0
0.26287746 -0.39313173 -0.35713863 0
0.35666561 -0.36257601 -0.35756254 0
0.44768524 -0.32425404 -0.35802364 0
0.55346775 -0.31333065 -0.35821152 0
0.63925076 -0.25604343 -0.35660791 0
0.75200844 -0.2513299 -0.35661793 0
0.8357029 -0.212008 -0.35689259 0
0.92119884 -0.15098238 -0.35271835 0
0.17168999 -0.33289814 -0.35736895 0
0.23121738 -0.30049181 -0.35537624 0
0.32001305 -0.25920582 -0.35468483 0
0.41305923 -0.2464447 -0.35436487 0
0.51856613 -0.22948265 -0.35521603 0
0.59660912 -0.16915226 -0.35573244 0
0.69855213 -0.13010836 -0.35730791 0
0.79806519 -0.094624519 -0.35569096 0
0.88627148 -0.051233768 -0.35120964 0
0.95959854 -0.07240963 -0.34934139 0
0.20482063 -0.21664715 -0.35424328 0
0.28481293 -0.17409515 -0.35285282 0
0.38429832 -0.13329983 -0.35320187 0
0.48014832 -0.12047052 -0.35435295 0
0.58917141 -0.086438179 -0.35597563 0
0.67181015 -0.019436836 -0.35664511 0
0.75771427 0.0067105293 -0.35516787 0
0.84349155 0.045104027 -0.35048676 0
0.95784569 0.032069683 -0.346982 0
0.20795345 -0.10826635 -0.3529129 0
0.25514412 -0.075736523 -0.35332155 0
0.33124161 -0.03693819 -0.35376692 0
0.43097591 -0.0084824562 -0.35429621 0
0.54619217 0.0081477165 -0.35591316 0
0.63754463 0.03840065 -0.35686445 0
0.72959518 0.080420017 -0.35304403 0
0.81797981 0.15549135 -0.3490057 0
0.91875362 0.1473403 -0.34508514 0
0.22730064 0.0034213066 -0.35387611 0
0.29804993 0.056452751 -0.35459423 0
0.39644432 0.07105732 -0.35481071 0
0.50625324 0.12455606 -0.35601568 0
0.60850716 0.14378786 -0.35553312 0
0.7100029 0.17052078 -0.35308933 0
0.79021549 0.21898937 -0.34846354 0
0.87515068 0.27574015 -0.34589767 0
0.95824718 0.26201105 -0.34302521 0
0.22066498 0.12023926 -0.35501432 0
0.29075813 0.14474916 -0.35507154 0
0.38881111 0.16317511 -0.35538149 0
0.46858215 0.18337774 -0.3556304 0
0.54966831 0.25115871 -0.35548496 0
0.66171932 0.26295376 -0.35185146 0
0.75142002 0.30721092 -0.34895897 0
0.8465519 0.3312254 -0.34652519 0
0.95679951 0.37545967 -0.34332561 0
0.23358727 0.24183464 -0.35604477 0
0.33933544 0.25607538 -0.3561182 0
0.43780804 0.30327034 -0.35642338 0
0.54462337 0.33540249 -0.35475874 0
0.62291241 0.36545086 -0.35273361 0
0.71035862 0.40165424 -0.35016251 0
0.82717991 0.42731953 -0.34730768 0
0.90990925 0.48843098 -0.34529877 0
0.23462677 0.33802938 -0.35681725 0
0.2994709 0.36431456 -0.35698652 0
0.38160038 0.42287207 -0.35766792 0
0.4888258 0.43490934 -0.35613632 0
0.59892082 0.46661186 -0.35331678 0
0.20314598 0.45048904 -0.35802174 0
0.27593803 0.46840286 -0.35789967 0
0.36791515 0.47645521 -0.35765457 0
0.93250561 -0.45089483 -0.36284924 0
0.72007847 -0.45151854 -0.36400509 0
0.81332397 -0.42145681 -0.36208916 0
0.90048504 -0.34941816 -0.3587389 0
0.98143005 -0.32389832 -0.35614872 0
0.48702717 -0.48315048 -0.36253262 0
0.57347584 -0.42750168 -0.36306715 0
0.6440115 -0.36650467 -0.36025715 0
0.74909592 -0.3328948 -0.35949326 0
0.85654926 -0.27251482 -0.35716915 0
0.92243099 -0.21475267 -0.35497952 0
0.3532362 -0.43646431 -0.35998869 0
0.44189739 -0.38416338 -0.35921955 0
0.53522015 -0.34138441 -0.35895634 0
0.60853958 -0.28381395 -0.35635233 0
0.70612431 -0.23403168 -0.35581017 0
0.78376389 -0.19973803 -0.35631943 0
0.8839922 -0.14760065 -0.35456562 0
0.95930195 -0.09117794 -0.3500948 0
0.36039257 -0.35626459 -0.35712337 0
0.40404797 -0.3227067 -0.35666752 0
0.47657013 -0.2476778 -0.35541534 0
0.56016922 -0.18539381 -0.35402966 0
0.63926411 -0.16629696 -0.35514784 0
0.72245026 -0.086838245 -0.35648203 0
0.84378529 -0.070712566 -0.35332489 0
0.91626167 -0.014127731 -0.34874725 0
0.37219906 -0.22541237 -0.35467529 0
0.42968464 -0.15523481 -0.35347319 0
0.50752544 -0.12435627 -0.35399532 0
0.60384178 -0.072705269 -0.35497856 0
0.68276405 -0.036263943 -0.35574961 0
0.78294659 0.03489399 -0.35320282 0
0.86601639 0.074649334 -0.34866619 0
0.95733833 0.11300087 -0.34446239 0
0.39962387 -0.073238373 -0.35291529 0
0.46346951 -0.023972511 -0.35355425 0
0.56019974 0.011807919 -0.35464478 0
0.66245556 0.077643394 -0.35570478 0
0.7243042 0.10496473 -0.35301208 0
0.82976151 0.17473316 -0.34772015 0
0.90698433 0.22127056 -0.34424877 0
0.43235683 0.065572739 -0.35376215 0
0.52398777 0.076642513 -0.35462189 0
0.57759762 0.15046787 -0.3553462 0
0.68941975 0.19376612 -0.3521204 0
0.77514935 0.25581646 -0.34796047 0
0.87171173 0.3000679 -0.34466743 0
0.94106102 0.35084248 -0.3425703 0
0.40848351 0.15389347 -0.35408688 0
0.476264 0.17401171 -0.35459805 0
0.54960155 0.23356104 -0.35481739 0
0.63898182 0.28458881 -0.3518877 0
0.73368073 0.33321524 -0.34864426 0
0.8227005 0.37908792 -0.34597254 0
0.89872169 0.44814587 -0.34378815 0
0.98095512 0.47031212 -0.34124565 0
0.43112183 0.27503347 -0.35498238 0
0.50828838 0.32774067 -0.35482359 0
0.59854221 0.36744642 -0.35244608 0
0.6856184 0.40830421 -0.3497839 0
0.76309013 0.47489977 -0.3475728 0
0.39816761 0.35304451 -0.35557938 0
0.4593029 0.41854477 -0.35567427 0
0.54415894 0.46699715 -0.35389185 0
0.63519096 0.49848032 -0.35151577 0
0.20033455 0.49332666 -0.36060047 0
0.93480778 -0.44925833 -0.3645916 0
0.97519779 -0.42166138 -0.36216164 0
0.70199966 -0.48220158 -0.36650181 0
0.79536438 -0.42024136 -0.36414719 0
0.88445663 -0.3773036 -0.36188602 0
0.97500515 -0.34505749 -0.35817432 0
0.47752476 -0.45165634 -0.36414051 0
0.58648205 -0.44041491 -0.36501694 0
0.65750217 -0.39020681 -0.36308002 0
0.74689484 -0.31553888 -0.36036396 0
0.8550396 -0.30095816 -0.35999966 0
0.92280769 -0.22408915 -0.35660076 0
0.97539997 -0.20178652 -0.35482311 0
0.251091 -0.48481846 -0.3610878 0
0.3479948 -0.44640207 -0.36161232 0
0.43974209 -0.37349319 -0.36114979 0
0.53752613 -0.35647488 -0.36160278 0
0.6119566 -0.28541851 -0.35904741 0
0.69869614 -0.26198292 -0.3594594 0
0.79558945 -0.22596693 -0.35923386 0
0.87648392 -0.14246178 -0.35586643 0
0.97553825 -0.13802099 -0.35333347 0
0.19223595 -0.47318697 -0.36174822 0
0.22701263 -0.40382767 -0.35928011 0
0.30887508 -0.34467316 -0.35818005 0
0.3878727 -0.31406307 -0.35881662 0
0.49123669 -0.27307701 -0.35844231 0
0.55857944 -0.19923878 -0.35704422 0
0.65572929 -0.14638376 -0.35861921 0
0.74838829 -0.11053228 -0.35920334 0
0.84269238 -0.050357819 -0.35539055 0
0.89982986 -0.006547451 -0.35296154 0
0.97335148 0.025956154 -0.34921265 0
0.21977806 -0.32130051 -0.3581233 0
0.2523737 -0.26487017 -0.35699081 0
0.35559654 -0.22482824 -0.35631895 0
0.43078327 -0.17312002 -0.35640526 0
0.49616051 -0.11394787 -0.35690212 0
0.61009789 -0.060048103 -0.3586998 0
0.70378113 0.0014791489 -0.35857344 0
0.79017067 0.012866974 -0.35516024 0
0.87263203 0.089547157 -0.35125637 0
0.9673748 0.14874315 -0.34630585 0
0.22953606 -0.17052126 -0.35551929 0
0.28885937 -0.13980341 -0.35514212 0
0.37700558 -0.092134953 -0.35573339 0
0.47259808 -0.03299284 -0.3568449 0
0.56655121 0.0058073997 -0.35812759 0
0.64328384 0.070148468 -0.35861301 0
0.72627068 0.12892151 -0.35471535 0
0.81286812 0.15848637 -0.35088921 0
0.89291 0.17273092 -0.34803486 0
0.96635056 0.24156761 -0.34519863 0
0.25256348 -0.042288303 -0.3557682 0
0.33798027 -3.862381e-05 -0.35621548 0
0.42128372 0.051431656 -0.35681725 0
0.51301098 0.11670351 -0.35823488 0
0.60905933 0.15388536 -0.35777235 0
0.68076897 0.22692871 -0.35445881 0
0.79791641 0.2250843 -0.34993458 0
0.85830021 0.30144215 -0.34827423 0
0.9649868 0.3457222 -0.34540653 0
0.29349899 0.084209919 -0.3568697 0
0.38875198 0.14272022 -0.35739517 0
0.46464729 0.17975044 -0.35801029 0
0.54017162 0.20777893 -0.35877228 0
0.61707401 0.27002716 -0.35531044 0
0.73380661 0.32491446 -0.35193777 0
0.82337952 0.41744709 -0.34921932 0
0.88557148 0.40091133 -0.34776497 0
0.95897007 0.4446497 -0.34599304 0
0.25363064 0.17186403 -0.35774517 0
0.33105469 0.22447681 -0.35803556 0
0.40273571 0.27565765 -0.35850143 0
0.50516033 0.32534981 -0.35821962 0
0.59967709 0.36388302 -0.3556447 0
0.671525 0.42241287 -0.35404348 0
0.75178814 0.46229458 -0.35153913 0
0.23139191 0.26739073 -0.35861111 0
0.2597456 0.31473541 -0.35888004 0
0.34977055 0.35383749 -0.35911989 0
0.44257259 0.4080081 -0.35910892 0
0.54120541 0.46746969 -0.35747051 0
0.64087868 0.49119902 -0.35453892 0
0.23633194 0.39903784 -0.35951376 0
0.30871296 0.44191217 -0.35999918 0
0.38567162 0.49603891 -0.35989475 0
0.20545101 0.46507025 -0.35990191 0
0.98128796 -0.092547894 -0.35057735 0
0.10362625 -0.45567703 -0.36200476 0
0.11719799 -0.41286755 -0.3605423 0
0.13059139 -0.34863377 -0.35890579 0
0.1424818 -0.25159454 -0.35698986 0
0.16686821 -0.12894487 -0.35505486 0
0.23773956 -0.04874897 -0.35579872 0
0.31615734 0.014667988 -0.35633802 0
0.15792561 -0.027256966 -0.35610771 0
0.18645859 0.024452209 -0.35630417 0
0.29568958 0.053026199 -0.3565402 0
0.36181831 0.12565851 -0.35703373 0
0.18128681 0.1104207 -0.35705471 0
0.24182034 0.14722061 -0.35726595 0
0.32004166 0.19890499 -0.35771751 0
0.42610359 0.24677896 -0.35822248 0
0.50606251 0.32224751 -0.35788298 0
0.17632198 0.25049973 -0.35833693 0
0.27251625 0.30644989 -0.35862064 0
0.36009216 0.33633757 -0.35901356 0
0.45208454 0.37756729 -0.35904503 0
0.53822994 0.44875622 -0.35722685 0
0.15808868 0.37246037 -0.35932302 0
0.22729492 0.36416531 -0.35892916 0
0.31093788 0.42488003 -0.35945177 0
0.40252781 0.47372293 -0.35958767 0
0.17996788 0.48489046 -0.36020374 0
0.80396843 -0.46076536 -0.36447811 0
0.88756752 -0.41700125 -0.36284828 0
0.95199203 -0.35885048 -0.35865021 0
0.49414539 -0.49082184 -0.36371803 0
0.56720448 -0.46309233 -0.36516953 0
0.66497517 -0.41163778 -0.36231375 0
0.78547096 -0.34176207 -0.36174774 0
0.83699608 -0.30779505 -0.35974598 0
0.95937347 -0.26344204 -0.35599709 0
0.35776329 -0.48278236 -0.36096668 0
0.42127991 -0.41888237 -0.36137199 0
0.53746891 -0.3685317 -0.36075592 0
0.64583588 -0.32683754 -0.35891008 0
0.70986843 -0.27445936 -0.35885143 0
0.79480839 -0.20130014 -0.35918808 0
0.88380432 -0.18713856 -0.35703659 0
0.96541405 -0.16217375 -0.3537674 0
0.13188171 -0.47334576 -0.36127472 0
0.19817448 -0.42531538 -0.36015511 0
0.29429722 -0.380404 -0.35826111 0
0.41846275 -0.34260464 -0.3591485 0
0.48057175 -0.26580334 -0.35706425 0
0.56218338 -0.21975422 -0.3571887 0
0.66675377 -0.17656755 -0.35836172 0
0.75730038 -0.1075592 -0.35855913 0
0.8261795 -0.10425615 -0.35652256 0
0.92913628 -0.062183857 -0.35308647 0
0.12745953 -0.41004324 -0.35932875 0
0.19372082 -0.35123539 -0.35816383 0
0.25676727 -0.28566647 -0.35665131 0
0.35416889 -0.25775433 -0.35603714 0
0.42082977 -0.19281006 -0.35524368 0
0.50581074 -0.13178968 -0.35661697 0
0.6033268 -0.097446918 -0.35803986 0
0.70612049 -0.073266983 -0.35925388 0
0.77954578 0.011428356 -0.35521317 0
0.87504959 0.034615993 -0.35174942 0
0.98145294 0.0747509 -0.34691143 0
0.15436649 -0.26548576 -0.35532188 0
0.20870113 -0.21431971 -0.35584021 0
0.29506683 -0.15603065 -0.35491467 0
0.37494659 -0.095362186 -0.3555336 0
0.45682144 -0.027917385 -0.35689592 0
0.55312824 -0.015693665 -0.35783768 0
0.64646721 0.024552345 -0.35905886 0
0.72796059 0.083840847 -0.35544729 0
0.81030083 0.1366415 -0.35106754 0
0.90564346 0.1560483 -0.34697056 0
0.9865551 0.22400999 -0.34494495 0
0.3373518 -0.026716232 -0.35599279 0
0.41210365 0.041092873 -0.35649824 0
0.51370335 0.072384834 -0.35777044 0
0.60502148 0.12087631 -0.35781574 0
0.69138622 0.17099619 -0.35481453 0
0.7875843 0.19865417 -0.35024118 0
0.86352825 0.27260923 -0.34797382 0
0.95686531 0.30195904 -0.34537983 0
0.37798405 0.074014187 -0.35650635 0
0.47092915 0.16115236 -0.3577919 0
0.53710175 0.22615433 -0.35813951 0
0.64683151 0.23697376 -0.35439491 0
0.74136543 0.30137014 -0.35156965 0
0.81432629 0.35104227 -0.3497591 0
0.90138626 0.40099764 -0.34697056 0
0.58863258 0.33917856 -0.35596895 0
0.6761055 0.40005112 -0.35355091 0
0.7661047 0.46522856 -0.35133362 0
0.86320782 0.49442244 -0.34843111 0
0.62229538 0.46939325 -0.35500193 0
0.043618202 -0.46322918 -0.35111332 0
0.13028812 -0.40998936 -0.35072136 0
-0.042132378 -0.44364357 -0.34886694 0
0.03150177 -0.38765764 -0.35037756 0
0.10025597 -0.33980417 -0.34918737 0
0.18127918 -0.30728149 -0.34770966 0
-0.010778427 -0.33376074 -0.34887218 0
0.055865288 -0.23903084 -0.3475728 0
0.16328812 -0.21118021 -0.3463316 0
0.23894882 -0.16434336 -0.34522295 0
0.33303165 -0.10513496 -0.34527922 0
-0.01658535 -0.23200512 -0.34816551 0
0.010614395 -0.17697382 -0.3467741 0
0.10938358 -0.15215302 -0.34560919 0
0.19165611 -0.073211193 -0.34546757 0
0.30110455 -0.050401688 -0.3456974 0
0.37711048 0.033671379 -0.34668493 0
0.46089649 0.059961796 -0.34752989 0
0.50125885 0.11243773 -0.3483696 0
0.58911896 0.16176128 -0.3481946 0
-5.7220459e-05 -0.06348896 -0.34553146 0
0.068145752 -0.059780598 -0.34568357 0
0.14392853 0.020446301 -0.34626818 0
0.24205112 0.054746628 -0.34661818 0
0.3319912 0.11100721 -0.34719324 0
0.42397118 0.14522791 -0.34753132 0
0.50186825 0.19663334 -0.34808683 0
0.59340477 0.26732731 -0.34566498 0
0.66327477 0.29546881 -0.34412289 0
0.018075943 0.074430466 -0.34681606 0
0.090034485 0.10050058 -0.34695625 0
0.1674366 0.1349864 -0.34728432 0
0.27350044 0.17711782 -0.34769011 0
0.3631382 0.25368023 -0.34838343 0
0.45636272 0.28266954 -0.34852076 0
0.52100182 0.30767775 -0.34720135 0
0.6278801 0.37935066 -0.3444953 0
0.68754673 0.43984842 -0.34283781 0
0.041769028 0.20502758 -0.3479867 0
0.15060902 0.23568201 -0.34826517 0
0.22813702 0.2828536 -0.34849548 0
0.31200123 0.32227468 -0.34916019 0
0.40280914 0.39194345 -0.34965038 0
0.49131966 0.41842842 -0.34811687 0
0.5773201 0.48299408 -0.34623671 0
0.016468048 0.2799058 -0.34832335 0
0.090560913 0.3163352 -0.34890795 0
0.17695808 0.37272263 -0.34913111 0
0.27497101 0.4154458 -0.34979773 0
0.35321903 0.48082161 -0.35000038 0
0.046185493 0.40859365 -0.34946251 0
0.11403942 0.47071886 -0.35006809 0
0.90335655 -0.48752165 -0.35582066 0
0.72426605 -0.48537779 -0.35455227 0
0.82296181 -0.42089224 -0.35383701 0
0.92424393 -0.37248039 -0.35103607 0
0.5155468 -0.46675968 -0.35536146 0
0.62706566 -0.40701342 -0.35369492 0
0.73132133 -0.38303471 -0.35276604 0
0.79460621 -0.30832243 -0.34998322 0
0.85071754 -0.24013948 -0.34990597 0
0.96791077 -0.24663448 -0.34533882 0
0.30056953 -0.47395229 -0.35141325 0
0.40876293 -0.45191383 -0.35203743 0
0.47476292 -0.37049437 -0.35111237 0
0.56262875 -0.32036018 -0.35022163 0
0.66853237 -0.27229404 -0.34964228 0
0.73117733 -0.24364901 -0.34993649 0
0.82300377 -0.19196844 -0.3486681 0
0.91401291 -0.12071705 -0.34469032 0
0.97612381 -0.13258839 -0.34047222 0
0.19338799 -0.44883156 -0.3508153 0
0.25784683 -0.3865118 -0.34868813 0
0.3448925 -0.33276606 -0.34917498 0
0.43206024 -0.29994106 -0.34861422 0
0.51705265 -0.24752569 -0.34744835 0
0.60020351 -0.21435404 -0.34791756 0
0.71039295 -0.14582729 -0.34938908 0
0.77338409 -0.094433308 -0.3481369 0
0.88007927 -0.069546223 -0.3439846 0
0.9780426 -0.018658638 -0.33921432 0
0.1683321 -0.37173653 -0.34920025 0
0.23875999 -0.30268574 -0.34758902 0
0.28642941 -0.24353695 -0.34589863 0
0.37930393 -0.20971203 -0.34621334 0
0.4520998 -0.16415358 -0.3462019 0
0.55866718 -0.11047745 -0.3481431 0
0.63691807 -0.066645145 -0.34913826 0
0.72715664 0.010342598 -0.34758854 0
0.80535984 0.042924881 -0.34362221 0
0.89217567 0.061275959 -0.3405962 0
0.99510956 0.12340736 -0.33478069 0
0.34550953 -0.14709187 -0.34516382 0
0.42787457 -0.083655834 -0.34595299 0
0.5059433 -0.0078058243 -0.34796524 0
0.6045742 0.0066275597 -0.34858608 0
0.683568 0.085435867 -0.34713697 0
0.74083424 0.12260437 -0.34345531 0
0.87241077 0.16977644 -0.33869171 0
0.58337879 0.09707737 -0.34931517 0
0.6643734 0.1777401 -0.34529018 0
0.74232674 0.24505329 -0.34174728 0
0.82257652 0.27035904 -0.33934021 0
0.92285538 0.29245043 -0.33632278 0
0.9871273 0.36751461 -0.33447933 0
0.67931366 0.3101058 -0.34274769 0
0.75446796 0.32302761 -0.3410387 0
0.84176064 0.40778303 -0.33878756 0
0.94242191 0.49697971 -0.33643532 0
0.76648235 0.41390848 -0.340693 0
-0.098286629 -0.4634037 -0.36196995 0
-0.022223473 -0.40561819 -0.36427879 0
-0.22171879 -0.4275713 -0.35957623 0
-0.13147449 -0.38692904 -0.36183119 0
-0.049210548 -0.33567572 -0.36407471 0
0.037683487 -0.30039501 -0.36476803 0
-0.2337513 -0.38149691 -0.35900593 0
-0.19790459 -0.30571938 -0.3603344 0
-0.08703804 -0.25313282 -0.36307859 0
-0.008980751 -0.20555162 -0.36294603 0
0.088082314 -0.1761899 -0.36186314 0
0.16774368 -0.11445045 -0.36082745 0
0.2128582 -0.058686256 -0.36100817 0
-0.20499516 -0.22043419 -0.35964727 0
-0.15250111 -0.19856453 -0.36145687 0
-0.066180229 -0.11519098 -0.36176968 0
0.037483215 -0.085754871 -0.3607626 0
0.12209702 -0.035669804 -0.3612566 0
0.19183159 0.04420805 -0.36193132 0
0.27362061 0.050021172 -0.36200333 0
0.3802557 0.13879919 -0.36282158 0
0.47487164 0.20111227 -0.36342144 0
0.55556488 0.2556386 -0.36439848 0
-0.18962955 -0.0791502 -0.36074162 0
-0.10867977 -0.022396088 -0.36140823 0
-0.0069713593 -0.011965275 -0.36134243 0
0.06867218 0.06357336 -0.36207867 0
0.14632702 0.13815641 -0.36265755 0
0.25740528 0.14553547 -0.36284161 0
0.32500172 0.20216846 -0.36341381 0
0.42467403 0.24518967 -0.36360455 0
0.48484898 0.33656168 -0.36435699 0
0.5687151 0.3137517 -0.36184406 0
-0.19290447 -0.0021209717 -0.36002493 0
-0.13798237 0.053953648 -0.36208677 0
-0.057456017 0.093128204 -0.36234522 0
0.0061845779 0.16256237 -0.36299944 0
0.084863663 0.20713711 -0.36312962 0
0.20248985 0.24532509 -0.36363935 0
0.27632427 0.29814911 -0.36379147 0
0.36312771 0.35236645 -0.36448479 0
0.45236778 0.39306736 -0.36423683 0
0.55341339 0.43957901 -0.36260986 0
0.65790844 0.45975876 -0.35973167 0
-0.20047855 0.15191174 -0.36042833 0
-0.11954117 0.1855669 -0.36250782 0
-0.037084579 0.22802973 -0.3633461 0
0.054976463 0.27966166 -0.36395264 0
0.14473057 0.33505249 -0.36427975 0
0.25438213 0.41341639 -0.36497498 0
0.32382679 0.44197702 -0.36530018 0
-0.20349884 0.24020052 -0.35966158 0
-0.18015099 0.32284784 -0.36105919 0
-0.066799164 0.32398605 -0.36429071 0
0.002664566 0.37867975 -0.36468315 0
0.089385033 0.44144201 -0.36527395 0
0.17778683 0.47314692 -0.36564207 0
-0.21731853 0.35933924 -0.35918379 0
-0.1270895 0.39505577 -0.36257696 0
-0.028535843 0.48088789 -0.36570835 0
-0.23421669 0.46940804 -0.35776854 0
-0.16665745 0.48402119 -0.36087513 0
0.71767426 -0.47145176 -0.37028694 0
0.82011604 -0.47193241 -0.37056732 0
0.91661263 -0.40637636 -0.36944103 0
0.93966961 -0.34160089 -0.36397552 0
0.57157898 -0.45037222 -0.37019205 0
0.6345644 -0.41366529 -0.3672328 0
0.73629189 -0.34441233 -0.36623478 0
0.84177589 -0.34665489 -0.36617565 0
0.9509201 -0.26105118 -0.36174774 0
0.35725498 -0.47443724 -0.36761856 0
0.45571327 -0.38616991 -0.3673811 0
0.53850555 -0.3586359 -0.36695719 0
0.64317036 -0.3256979 -0.36489773 0
0.70476246 -0.24409819 -0.36407757 0
0.81117916 -0.23163223 -0.36528111 0
0.90184498 -0.20607328 -0.3619976 0
0.96893692 -0.1148448 -0.35803223 0
0.14899158 -0.48767567 -0.36675167 0
0.22896385 -0.44455338 -0.36547852 0
0.29857063 -0.38450766 -0.36380482 0
0.38420391 -0.36575365 -0.36447334 0
0.47195625 -0.28001881 -0.36399889 0
0.56136799 -0.23611498 -0.36273384 0
0.6557169 -0.20432806 -0.3642683 0
0.78342247 -0.14381313 -0.36480093 0
0.84093285 -0.099180698 -0.36138439 0
0.93305397 -0.037199974 -0.35761642 0
0.98423767 0.038143635 -0.35435677 0
0.0098419189 -0.44517803 -0.36507607 0
0.086465836 -0.38558197 -0.36613798 0
0.18634892 -0.34630108 -0.36412716 0
0.26473331 -0.28713846 -0.36235476 0
0.35637856 -0.24786186 -0.36214447 0
0.43702507 -0.21475792 -0.36060095 0
0.50126362 -0.13147402 -0.36211586 0
0.58691692 -0.10677004 -0.36341095 0
0.69696808 -0.077796936 -0.36467123 0
0.8027668 0.0051550865 -0.36050415 0
0.8966465 0.025979996 -0.35718822 0
0.99498558 0.10744429 -0.35188293 0
0.13597393 -0.27832985 -0.36305046 0
0.21967316 -0.20042086 -0.36134958 0
0.30996895 -0.14845181 -0.36027193 0
0.39642429 -0.089267731 -0.36130142 0
0.52087593 -0.08713007 -0.36214828 0
0.58244991 -0.020320415 -0.36362171 0
0.67017365 0.028530598 -0.36376619 0
0.71854401 0.098067284 -0.36124945 0
0.81420326 0.09382534 -0.35741806 0
0.91517925 0.18531942 -0.3531208 0
0.2031889 -0.12419701 -0.36042452 0
0.27086735 -0.070107937 -0.36101055 0
0.35798645 -0.025481701 -0.36133623 0
0.4244175 0.037298679 -0.36239862 0
0.54445171 0.0728302 -0.36359978 0
0.63491154 0.11566019 -0.36305904 0
0.68396664 0.15715218 -0.35990715 0
0.75993061 0.21956635 -0.35676956 0
0.83049774 0.26183844 -0.35452175 0
0.94294834 0.2920537 -0.35119534 0
0.46194935 0.14725637 -0.36330318 0
0.55524254 0.2064867 -0.36501503 0
0.6432972 0.26171827 -0.35966587 0
0.74111462 0.32266045 -0.35711288 0
0.84409809 0.37847948 -0.35447264 0
0.94614601 0.37102604 -0.35163498 0
0.95942497 0.46410275 -0.35143471 0
0.56192398 0.27711725 -0.36241341 0
0.65100384 0.34141445 -0.35952854 0
0.65334225 0.4153676 -0.35983276 0
0.7480402 0.42032576 -0.35729647 0
0.8599453 0.48602867 -0.35408735 0
-0.26814365 -0.45928526 -0.35010386 0
-0.16170406 -0.4096303 -0.35251284 0
-0.083978653 -0.34932709 -0.35454512 0
-0.4634409 -0.48305464 -0.34291649 0
-0.38667011 -0.44104052 -0.34524441 0
-0.31729603 -0.3740015 -0.34809589 0
-0.22783566 -0.33616543 -0.35131025 0
-0.14179707 -0.28519726 -0.35346794 0
-0.05376339 -0.2343998 -0.35493612 0
0.0045385361 -0.19746447 -0.35309982 0
0.064724922 -0.1311698 -0.35232353 0
-0.43899632 -0.34863615 -0.34227228 0
-0.36594677 -0.28484535 -0.34510946 0
-0.27772236 -0.26008797 -0.34922171 0
-0.19757271 -0.21128845 -0.352355 0
-0.090725899 -0.14623117 -0.35353661 0
-0.012988091 -0.089343548 -0.3524313 0
0.05479908 -0.043045998 -0.35286236 0
0.16632843 0.014752865 -0.35323477 0
0.25909901 0.079882145 -0.35377121 0
-0.43338966 -0.27714062 -0.34102774 0
-0.41551971 -0.19872379 -0.34191418 0
-0.34450912 -0.14471149 -0.34551382 0
-0.22016716 -0.13182163 -0.35120964 0
-0.14659977 -0.066809654 -0.35255432 0
-0.061893463 -0.0012230873 -0.35308218 0
0.042801857 0.04651022 -0.35350943 0
0.096917152 0.053245068 -0.35336828 0
0.18055344 0.10411978 -0.35394526 0
0.29675388 0.15990639 -0.35454702 0
0.37171745 0.24141216 -0.35501289 0
0.46699429 0.30089569 -0.35518837 0
-0.42675304 -0.11011028 -0.34092236 0
-0.34799194 -0.072435856 -0.34539843 0
-0.27736282 -0.028825283 -0.34857845 0
-0.20005322 0.025777817 -0.35166359 0
-0.10976887 0.072639465 -0.35396671 0
-0.033864021 0.13035154 -0.35421228 0
0.058423042 0.16987324 -0.35441351 0
0.15633583 0.22237253 -0.35515976 0
0.27877712 0.27573204 -0.35571384 0
0.297019 0.28896856 -0.35511017 0
0.39131451 0.31552696 -0.35524702 0
0.47763157 0.37036228 -0.3547368 0
0.58806324 0.48809719 -0.35226917 0
-0.40254974 0.016717911 -0.34215927 0
-0.32713223 0.056709766 -0.34606409 0
-0.23544407 0.14207697 -0.35109425 0
-0.14749813 0.15305853 -0.35361528 0
-0.074032784 0.22059774 -0.35498571 0
0.01507473 0.24988604 -0.35491657 0
0.11838627 0.28710938 -0.35539389 0
0.20438766 0.35720968 -0.35619688 0
0.30037498 0.40041542 -0.35638618 0
0.38973522 0.45193911 -0.35681629 0
-0.42605305 0.090013981 -0.34114075 0
-0.37968731 0.17014742 -0.3445549 0
-0.29980373 0.19884205 -0.3482976 0
-0.21280384 0.23705339 -0.35125446 0
-0.13271236 0.30454874 -0.35404301 0
-0.021931648 0.34307241 -0.35590029 0
0.067904472 0.38222218 -0.35638762 0
0.13097477 0.43342018 -0.35630512 0
0.2148962 0.47227097 -0.35700989 0
-0.41834068 0.22513294 -0.34249926 0
-0.33838844 0.30662918 -0.34618711 0
-0.25553131 0.35312891 -0.34930325 0
-0.17832088 0.40201473 -0.35242271 0
-0.081561089 0.42165947 -0.35526466 0
0.017902374 0.48983431 -0.35702658 0
-0.44689178 0.35669947 -0.34193993 0
-0.38219833 0.38595533 -0.34438753 0
-0.32207966 0.44528389 -0.34738731 0
-0.20300102 0.48695374 -0.35110474 0
-0.42771339 0.45194292 -0.34277725 0
0.77887726 -0.48516035 -0.36077309 0
0.84896088 -0.42370367 -0.35911751 0
0.51416492 -0.47988367 -0.36117649 0
0.61464119 -0.46106958 -0.36154032 0
0.7381115 -0.4316082 -0.35731411 0
0.8786087 -0.28305721 -0.35505104 0
0.31437302 -0.46922112 -0.35804176 0
0.40857315 -0.49513245 -0.35991812 0
0.5241766 -0.38287497 -0.35913658 0
0.59939289 -0.35884953 -0.35779715 0
0.68139648 -0.28813124 -0.35566521 0
0.77059174 -0.22535229 -0.35613346 0
0.86829758 -0.22287273 -0.35628986 0
0.94561005 -0.16389418 -0.35100746 0
0.16970539 -0.44806337 -0.35721922 0
0.25550652 -0.40320635 -0.35555887 0
0.35915184 -0.36277533 -0.35617399 0
0.44392395 -0.30911541 -0.35531998 0
0.54634666 -0.27423906 -0.35452652 0
0.56441975 -0.20572281 -0.35405397 0
0.68665314 -0.16644192 -0.35570478 0
0.80017567 -0.10195446 -0.35323238 0
0.90630913 -0.050443649 -0.34969616 0
-0.034446716 -0.48882294 -0.3555727 0
0.046751976 -0.4289217 -0.35699701 0
0.143116 -0.36645555 -0.35638475 0
0.21892071 -0.32517624 -0.35435486 0
0.31283569 -0.26978874 -0.35352039 0
0.36260033 -0.23509359 -0.35198879 0
0.46781921 -0.19361353 -0.35278797 0
0.58529949 -0.11364174 -0.35496807 0
0.71230888 -0.04137373 -0.35571766 0
0.81204414 -0.018425941 -0.35071373 0
0.92687988 0.049024582 -0.34579659 0
-0.17590427 -0.45657778 -0.35229111 0
-0.077968597 -0.41309309 -0.35474205 0
-0.0014591217 -0.32160139 -0.35608578 0
0.078012466 -0.28025913 -0.35488653 0
0.16028404 -0.20743513 -0.35318089 0
0.28826523 -0.19310713 -0.35210323 0
0.37113571 -0.11553144 -0.35271978 0
0.43842793 -0.089544773 -0.35319185 0
0.4923296 -0.031813622 -0.354599 0
0.61131859 0.00037765503 -0.35602951 0
0.7274828 0.047801018 -0.35235977 0
0.81701756 0.10483074 -0.34885979 0
0.88704777 0.14508533 -0.34422302 0
0.96177864 0.19474697 -0.34150219 0
0.065112114 -0.19162798 -0.35256147 0
0.1383028 -0.10321808 -0.3525219 0
0.20508575 -0.09738636 -0.35235357 0
0.31667233 -0.043364048 -0.35282898 0
0.40980434 -0.003475666 -0.35315657 0
0.48480797 0.038645267 -0.35438156 0
0.58003139 0.097534657 -0.35566425 0
0.64209366 0.12995005 -0.35286713 0
0.73662281 0.17481995 -0.3494463 0
0.84146309 0.2250948 -0.34519291 0
0.9769392 0.33958435 -0.34189796 0
0.24752426 0.0001950264 -0.35303545 0
0.34451962 0.058037758 -0.35339832 0
0.44136715 0.14258146 -0.3541398 0
0.5458889 0.1508379 -0.35556316 0
0.59393597 0.24153614 -0.3533144 0
0.69974232 0.28501892 -0.34947014 0
0.76732635 0.33360577 -0.34732294 0
0.86300373 0.36468792 -0.3450098 0
0.98687744 0.41802311 -0.34197903 0
0.45651627 0.21430874 -0.35463524 0
0.5600605 0.31699562 -0.35320663 0
0.67044926 0.35728455 -0.34992409 0
0.68141365 0.44019413 -0.34976625 0
0.77642536 0.45335531 -0.34769011 0
0.89117622 0.45803928 -0.3439002 0
0.57983494 0.39332342 -0.35225868 0
0.96439934 -0.40938807 -0.35666561 0
0.98495007 -0.29426098 -0.35207558 0
-0.6373291 -0.4349184 -0.33876038 0
-0.55078125 -0.41585827 -0.34130716 0
-0.48011303 -0.33540487 -0.34252453 0
-0.37986755 -0.2601738 -0.34550571 0
-0.30608463 -0.20000505 -0.34919119 0
-0.24662971 -0.19314051 -0.35349035 0
-0.67219543 -0.34929943 -0.33586454 0
-0.61030769 -0.30276632 -0.33726549 0
-0.51843357 -0.24789333 -0.33892059 0
-0.42229843 -0.22107601 -0.34399986 0
-0.34702778 -0.15621948 -0.34697771 0
-0.25930595 -0.11110401 -0.35114574 0
-0.17093468 -0.057948589 -0.35485411 0
-0.62728786 -0.2154603 -0.33499956 0
-0.56811142 -0.14905739 -0.33647585 0
-0.47075558 -0.10906363 -0.34069347 0
-0.39405155 -0.078802109 -0.34370279 0
-0.3123455 -0.004629612 -0.3484621 0
-0.20614433 0.025142193 -0.35361195 0
-0.13805199 0.068693638 -0.35587788 0
-0.028027534 0.1051836 -0.35609484 0
0.036928177 0.12514353 -0.35590935 0
0.12386894 0.24010897 -0.35732222 0
0.20829105 0.2891283 -0.35785723 0
-0.66909122 -0.11137199 -0.33346176 0
-0.62207222 -0.064025879 -0.33362389 0
-0.53574753 -0.031872749 -0.33708715 0
-0.4422493 0.039219856 -0.34164762 0
-0.35087109 0.033602715 -0.34597969 0
-0.27444553 0.12133265 -0.35094452 0
-0.17690659 0.1509304 -0.35437965 0
-0.068039894 0.19985962 -0.35675049 0
0.015169144 0.25591421 -0.35748053 0
0.13934803 0.29336214 -0.35745811 0
0.22097683 0.31952095 -0.35781908 0
0.22626686 0.39367151 -0.35866404 0
0.32720661 0.46489286 -0.35965061 0
-0.6592617 0.020185471 -0.33104992 0
-0.57307148 0.06143713 -0.33452177 0
-0.49012661 0.11539459 -0.33995914 0
-0.39810467 0.14394045 -0.34485149 0
-0.32568264 0.20667219 -0.3488245 0
-0.22667122 0.27056742 -0.35212517 0
-0.1166029 0.26385021 -0.35654402 0
-0.023975372 0.3383894 -0.35782623 0
0.058943748 0.3941102 -0.35859966 0
0.14746761 0.43836927 -0.35908985 0
0.21353531 0.48384619 -0.35926723 0
-0.68047714 0.14093971 -0.33000469 0
-0.61346531 0.15645838 -0.3331418 0
-0.53645897 0.18843842 -0.33746576 0
-0.45541763 0.2567873 -0.34292936 0
-0.36869812 0.29888916 -0.34696054 0
-0.26576424 0.36128759 -0.35040379 0
-0.16970444 0.37930632 -0.35444307 0
-0.11370087 0.42952776 -0.35675669 0
-0.01973629 0.45785666 -0.35905743 0
-0.67180061 0.22956944 -0.33040047 0
-0.58934879 0.30614281 -0.33580446 0
-0.49168873 0.339252 -0.34178019 0
-0.42043877 0.35080242 -0.344841 0
-0.32841682 0.42293692 -0.34835529 0
-0.22998905 0.48530769 -0.35180378 0
-0.70363617 0.35545683 -0.32836533 0
-0.63194084 0.3820219 -0.33379364 0
-0.54081249 0.41079712 -0.33935738 0
-0.44866562 0.47122383 -0.34407854 0
-0.71349525 0.39842129 -0.32600403 0
-0.6498251 0.4851594 -0.33274555 0
-0.57282448 0.48380566 -0.33818293 0
0.30591679 -0.49753714 -0.35987711 0
0.42533302 -0.44748306 -0.3624649 0
0.44471073 -0.37284756 -0.36082268 0
0.083407402 -0.49582529 -0.36093569 0
0.15283203 -0.45523262 -0.36057377 0
0.24768734 -0.38323355 -0.35927486 0
0.35394096 -0.37429953 -0.35881233 0
0.4602356 -0.33458996 -0.35913515 0
0.46440315 -0.25084162 -0.35788488 0
0.60100079 -0.2030654 -0.35709333 0
-0.061215401 -0.44659281 -0.3576107 0
0.042040825 -0.41431713 -0.35957479 0
0.094567299 -0.34563065 -0.3587842 0
0.20248318 -0.31964874 -0.35778236 0
0.28672028 -0.27877378 -0.35537004 0
0.37689495 -0.27037287 -0.35651731 0
0.459445 -0.18212843 -0.35514259 0
0.50727558 -0.10604048 -0.35621071 0
0.65216637 -0.084188938 -0.35752201 0
0.78752422 0.045615673 -0.35391617 0
-0.27272892 -0.46759081 -0.35191154 0
-0.22212124 -0.42618513 -0.3531909 0
-0.11372757 -0.37419605 -0.35619736 0
-0.016730309 -0.33234787 -0.35835075 0
0.060599327 -0.27367306 -0.35776329 0
0.1605072 -0.23834753 -0.35584688 0
0.20963478 -0.16500187 -0.3548069 0
0.33371735 -0.14429188 -0.35459089 0
0.43373299 -0.088048935 -0.35472631 0
0.53520679 -0.030059338 -0.35677624 0
0.56684208 0.025593758 -0.3568697 0
0.68095684 0.048849583 -0.35730028 0
0.79324627 0.13064766 -0.35258627 0
-0.50165367 -0.48120546 -0.34369469 0
-0.41165638 -0.43799829 -0.34598446 0
-0.32018948 -0.3783617 -0.34993219 0
-0.24042225 -0.34717464 -0.35264206 0
-0.14778996 -0.28053474 -0.35583448 0
-0.10207272 -0.23206282 -0.35645676 0
0.014545441 -0.19107056 -0.35642815 0
0.12300205 -0.14142179 -0.35549116 0
0.1894207 -0.10584593 -0.35407877 0
0.33220673 -0.056181431 -0.35476208 0
0.34562302 0.011114597 -0.35543919 0
0.45986938 0.050481796 -0.35621929 0
0.58263969 0.1074481 -0.35775328 0
0.59270763 0.16761112 -0.35722446 0
0.69704723 0.17405319 -0.35389614 0
0.81138229 0.20955038 -0.34960938 0
0.93953705 0.28920746 -0.3458395 0
0.9663372 0.34650564 -0.34482193 0
-0.39102364 -0.33937788 -0.34524775 0
-0.2924118 -0.26641273 -0.35019064 0
-0.19687939 -0.21717787 -0.35433197 0
-0.11825657 -0.14548302 -0.35630703 0
-0.037752151 -0.086432934 -0.35541201 0
0.069091797 -0.05846405 -0.35500669 0
0.13332272 -0.028289318 -0.35483837 0
0.23593426 0.01838541 -0.35541821 0
0.35827923 0.076430321 -0.3560915 0
0.38020611 0.13604164 -0.35635328 0
0.48919201 0.17071962 -0.3572588 0
0.59634304 0.24644947 -0.35589743 0
0.71060085 0.26838589 -0.35168839 0
0.72814465 0.32709932 -0.35113239 0
0.8410635 0.34444427 -0.3483367 0
0.97795868 0.43764496 -0.34504414 0
-0.068201065 -0.028600216 -0.35473585 0
0.0069551468 0.011445045 -0.35538006 0
0.10400009 0.10651588 -0.35613298 0
0.18724823 0.14173889 -0.3564558 0
0.28508759 0.17268467 -0.35680342 0
0.39755154 0.246696 -0.35751152 0
0.45286942 0.26791716 -0.35735607 0
0.52100658 0.31686687 -0.35689068 0
0.62150955 0.3434844 -0.35398483 0
0.74344444 0.37393093 -0.35060215 0
0.87567043 0.47248936 -0.34742737 0
0.11824417 0.17948723 -0.35667419 0
0.20426655 0.2041235 -0.35677958 0
0.31572247 0.29359818 -0.35756874 0
0.48102951 0.39947128 -0.35778284 0
0.53839207 0.4407239 -0.3567729 0
0.35013771 0.44345474 -0.35849047 0
0.6477499 -0.49540138 -0.36592722 0
0.77631187 -0.46826696 -0.36514568 0
0.91926956 -0.35824728 -0.36033535 0
0.53740501 -0.48231792 -0.36448383 0
0.67078781 -0.43527555 -0.36252689 0
0.80447674 -0.35488987 -0.36095238 0
0.94784546 -0.25431252 -0.35558414 0
0.56658173 -0.33816099 -0.360116 0
0.68315887 -0.3141036 -0.36024427 0
0.85204697 -0.21683645 -0.35786629 0
0.97402096 -0.17393398 -0.35190201 0
0.98044968 -0.095369339 -0.35081291 0
0.60613823 -0.2336874 -0.35603142 0
0.71392155 -0.20467663 -0.35840893 0
0.76083565 -0.12058735 -0.35804558 0
0.87315178 -0.075632095 -0.35448551 0
0.9457798 -0.02205801 -0.34977722 0
0.77908611 -0.023833275 -0.35551596 0
0.91205883 0.092742443 -0.34822178 0
0.92778969 0.21130562 -0.34573078 0
-0.84094715 0.25744247 -0.31613684 0
-0.73778534 0.30965471 -0.32545376 0
-0.65381527 0.37035608 -0.33175707 0
-0.545331 0.39391422 -0.33886147 0
-0.45570374 0.46117353 -0.34265184 0
-0.37441158 0.49332476 -0.34616327 0
-0.84930611 0.33309603 -0.31633663 0
-0.77446651 0.38382816 -0.32202578 0
-0.69950581 0.43656635 -0.32838726 0
-0.60244083 0.48528767 -0.33612394 0
-0.86400795 0.43292332 -0.31606817 0
-0.81707573 0.48588228 -0.31987619 0
-0.55845737 -0.46317053 -0.34090185 0
-0.74987411 -0.48575592 -0.33588505 0
-0.65641975 -0.46137762 -0.33872461 0
-0.56217384 -0.39859629 -0.33978748 0
-0.45915508 -0.35006666 -0.34284306 0
-0.38326359 -0.30605412 -0.34591436 0
-0.31986809 -0.27258444 -0.34888363 0
-0.21967697 -0.21327734 -0.35311604 0
-0.10879135 -0.12654877 -0.35422325 0
-0.024993896 -0.059398174 -0.35403395 0
-0.83798027 -0.48936462 -0.33338022 0
-0.80909729 -0.40983152 -0.33217382 0
-0.70703888 -0.35249901 -0.3347621 0
-0.62257099 -0.32037783 -0.33665466 0
-0.53667164 -0.24554634 -0.33848572 0
-0.45269108 -0.22608137 -0.34203959 0
-0.33633995 -0.1729126 -0.34718227 0
-0.25517845 -0.10643291 -0.35116768 0
-0.18452168 -0.08997488 -0.3537569 0
-0.08893013 -0.026782513 -0.3540163 0
-0.0024843216 0.0042366982 -0.35436821 0
0.081676483 0.11104727 -0.35593224 0
0.20921898 0.17068529 -0.35606098 0
-0.8151207 -0.30961323 -0.32943392 0
-0.75882626 -0.27964735 -0.33103418 0
-0.6736784 -0.21376467 -0.33283806 0
-0.59981441 -0.17244768 -0.33499241 0
-0.47028732 -0.13928127 -0.34032774 0
-0.42280579 -0.069234848 -0.3422575 0
-0.31829453 -0.036372185 -0.34754992 0
-0.213974 0.01001358 -0.35271358 0
-0.15596962 0.058283329 -0.3547554 0
-0.045236588 0.10862684 -0.3555789 0
0.024868011 0.16403341 -0.3559947 0
0.11720467 0.19837904 -0.3562336 0
0.2228241 0.25313711 -0.35696602 0
0.2874794 0.30738926 -0.35749245 0
0.36783981 0.3527174 -0.3574748 0
-0.79439926 -0.18942451 -0.32796955 0
-0.72770214 -0.13235188 -0.33001757 0
-0.60672283 -0.10091257 -0.33317566 0
-0.54253674 -0.042908192 -0.33605051 0
-0.46626568 0.011172771 -0.34006357 0
-0.36610889 0.063237667 -0.34546995 0
-0.26950741 0.11926126 -0.35099411 0
-0.18943214 0.15997076 -0.35370016 0
-0.095415115 0.19636917 -0.35588074 0
-0.0017404556 0.21760941 -0.35625887 0
0.04388237 0.30152369 -0.35745621 0
0.15056229 0.34392071 -0.35741758 0
0.26032162 0.41174746 -0.35831928 0
0.44161892 0.46476412 -0.35758972 0
-0.81614113 -0.10328531 -0.32449198 0
-0.77828407 -0.035307884 -0.32536983 0
-0.67465878 -0.0095467567 -0.33007574 0
-0.58194256 0.054951668 -0.33386564 0
-0.47731304 0.11286831 -0.33981276 0
-0.39214897 0.12858915 -0.34428501 0
-0.30560589 0.1989646 -0.3492322 0
-0.2270031 0.22190142 -0.35209322 0
-0.1274004 0.30241871 -0.35620737 0
-0.029479027 0.32467985 -0.35725927 0
0.03601265 0.3924427 -0.35803556 0
0.08364296 0.4376173 -0.35809326 0
0.17623806 0.46827793 -0.35842991 0
-0.80026531 0.02427721 -0.32108831 0
-0.71440411 0.091165543 -0.3270154 0
-0.635252 0.12786388 -0.33114004 0
-0.55068779 0.17186785 -0.33633041 0
-0.46613789 0.22749519 -0.34139442 0
-0.38343525 0.27413082 -0.34615946 0
-0.27851486 0.32358551 -0.35033655 0
-0.21922207 0.37936163 -0.35297632 0
-0.10899448 0.38295507 -0.35587168 0
-0.0033597946 0.49879646 -0.35872602 0
-0.83730888 0.13253117 -0.3163476 0
-0.76181507 0.15833807 -0.32305956 0
-0.68828487 0.18999624 -0.32908487 0
-0.59731197 0.25416422 -0.33440495 0
-0.50287914 0.30372524 -0.34009838 0
-0.45839405 0.37849379 -0.34308386 0
-0.37181854 0.42457056 -0.34585714 0
-0.26256943 0.4811945 -0.35070515 0
-0.81658554 0.23559713 -0.31872892 0
-0.61304569 0.33405352 -0.33407593 0
-0.28940868 0.49843264 -0.34978247 0
0.44952297 -0.42008972 -0.36102867 0
0.15204525 -0.46988964 -0.36055851 0
0.24093342 -0.45209551 -0.35781384 0
0.33567524 -0.42007065 -0.35836983 0
0.35577774 -0.31943846 -0.35722208 0
0.4894371 -0.28060389 -0.35684299 0
0.62435341 -0.23044634 -0.35655689 0
0.65638924 -0.20191526 -0.35655069 0
-0.046075821 -0.47362232 -0.35651493 0
0.053739548 -0.40564108 -0.35980654 0
0.10800076 -0.38478708 -0.35865974 0
0.19549561 -0.32554674 -0.3566494 0
0.27073479 -0.28352928 -0.35598135 0
0.37946796 -0.2228384 -0.35528946 0
0.40943623 -0.16330719 -0.35390902 0
0.53231335 -0.17235041 -0.35533333 0
0.679739 -0.097811699 -0.35800838 0
0.71800804 -0.10099602 -0.35687733 0
0.8299818 0.0076460838 -0.35336685 0
-0.29211712 -0.4957099 -0.35078287 0
-0.20877457 -0.44525814 -0.35318232 0
-0.12913895 -0.3862977 -0.35523701 0
-0.016271591 -0.36764431 -0.35774326 0
0.060038567 -0.29432487 -0.35699368 0
0.10696507 -0.22685337 -0.35521603 0
0.23253727 -0.19070482 -0.3543396 0
0.30194855 -0.1917696 -0.35344601 0
0.4315443 -0.092498302 -0.35469389 0
0.45503044 -0.049935341 -0.35494852 0
0.58142567 -0.033575058 -0.35685444 0
0.72357464 0.03385973 -0.35587692 0
0.7450819 0.073795319 -0.3529501 0
0.85207176 0.097793102 -0.35042953 0
0.88483334 0.19787407 -0.34606266 0
-0.51870728 -0.48520041 -0.34297371 0
-0.42926407 -0.45804977 -0.34519482 0
-0.34896755 -0.43072176 -0.347332 0
-0.24827003 -0.33870983 -0.35198212 0
-0.15723419 -0.30920792 -0.35419703 0
-0.090441704 -0.24431753 -0.35578537 0
-0.0014162064 -0.19752645 -0.35551023 0
0.11324406 -0.14977312 -0.35477972 0
0.12621975 -0.10401821 -0.3538866 0
0.27533817 -0.095356941 -0.35402203 0
0.36286449 -0.011234283 -0.35456085 0
0.44395924 0.054934978 -0.35537243 0
0.50232983 0.087498665 -0.35628748 0
0.62368488 0.10372257 -0.35715675 0
0.75581646 0.15508032 -0.35128784 0
0.78086567 0.2578373 -0.34894228 0
0.91095734 0.24106884 -0.34511185 0
-0.034830093 -0.12001514 -0.35413885 0
0.046977997 -0.074513912 -0.35423899 0
0.15325069 -0.0234828 -0.35449076 0
0.23106575 0.01958847 -0.35488844 0
0.28215313 0.10817528 -0.35588884 0
0.4232111 0.16104746 -0.35590744 0
0.52038097 0.15627861 -0.35705662 0
0.549263 0.17390156 -0.35594988 0
0.65232182 0.24158382 -0.35342741 0
0.82019043 0.35683298 -0.34777164 0
0.9467411 0.37530804 -0.34460258 0
0.079473495 0.011523724 -0.35444021 0
0.18789005 0.134305 -0.35608339 0
0.3038063 0.13790655 -0.35580778 0
0.32390785 0.2034936 -0.35631609 0
0.45079708 0.28255892 -0.35716724 0
0.54425907 0.33445644 -0.35617828 0
0.57252407 0.34832001 -0.35460281 0
0.70147419 0.39627123 -0.3512578 0
0.84436321 0.42116642 -0.34706688 0
0.48121262 0.35783911 -0.35672331 0
0.58173656 0.47641802 -0.35532665 0
0.60992241 0.49952459 -0.35382271 0
0.93278694 -0.45547676 -0.36465836 0
0.68690395 -0.48297119 -0.3635087 0
0.81789589 -0.44969749 -0.36268234 0
0.95555878 -0.41343021 -0.36178398 0
0.96879005 -0.34793997 -0.35808182 0
0.61191654 -0.48563433 -0.36478996 0
0.70669842 -0.40008593 -0.36125469 0
0.8420887 -0.33725071 -0.36009312 0
0.99390984 -0.29807329 -0.35460377 0
0.58055878 -0.36764431 -0.36094475 0
0.60618114 -0.31764746 -0.35773182 0
0.72563934 -0.29390097 -0.3591156 0
0.77727699 -0.24250221 -0.35781288 0
0.89630508 -0.17768908 -0.35516357 0
0.79756546 -0.11741209 -0.35755444 0
0.81825066 -0.098700047 -0.35495949 0
0.94730759 -0.019360542 -0.34893227 0
0.99148369 0.089191914 -0.34339523 0
-0.89060783 0.11389685 -0.31636763 0
-0.80855656 0.14571476 -0.32328415 0
-0.72295284 0.17095995 -0.33090687 0
-0.63092232 0.22006273 -0.33726788 0
-0.53638554 0.2911706 -0.34303999 0
-0.4361124 0.29225826 -0.34804201 0
-0.3498745 0.38025951 -0.35225534 0
-0.23443985 0.41550684 -0.35601807 0
-0.97078609 0.12018251 -0.30840683 0
-0.89177608 0.17828703 -0.31531763 0
-0.81026649 0.25899649 -0.32500935 0
-0.69298077 0.29836464 -0.33370733 0
-0.61759281 0.30357981 -0.33779335 0
-0.52860928 0.39895725 -0.34432745 0
-0.43578148 0.40773678 -0.34910059 0
-0.33999157 0.48146629 -0.35199881 0
-0.98380566 0.26050329 -0.30782843 0
-0.89304447 0.28227854 -0.31619787 0
-0.81214428 0.3601408 -0.32459831 0
-0.72492409 0.38891315 -0.33114481 0
-0.6210928 0.45788288 -0.33912849 0
-0.52243996 0.49058247 -0.34475231 0
-0.99432564 0.38246059 -0.30813646 0
-0.90618992 0.42507505 -0.31712627 0
-0.79128456 0.47635794 -0.32642937 0
-0.40742874 -0.4464097 -0.35097551 0
-0.29999733 -0.43031597 -0.3547821 0
-0.20075798 -0.37279606 -0.35795021 0
-0.096697807 -0.323596 -0.36053848 0
-0.078782082 -0.27227163 -0.3609767 0
-0.62720776 -0.45953369 -0.34360647 0
-0.53418541 -0.42560577 -0.34589195 0
-0.44306374 -0.38212395 -0.34824514 0
-0.36721611 -0.31173038 -0.35121632 0
-0.26220512 -0.25009918 -0.35675669 0
-0.16282272 -0.24781847 -0.35906458 0
-0.081168175 -0.18935108 -0.35983515 0
-0.0392313 -0.12815666 -0.3580513 0
0.066507339 -0.0819664 -0.35850811 0
0.18697166 -0.0056972504 -0.35919952 0
-0.84701824 -0.48390532 -0.33651876 0
-0.75591564 -0.42782784 -0.33853483 0
-0.6658783 -0.37839651 -0.34047222 0
-0.57962513 -0.35610199 -0.34234476 0
-0.48801708 -0.28041983 -0.34522629 0
-0.39235401 -0.23615265 -0.34923029 0
-0.33889389 -0.18274021 -0.35216665 0
-0.22499275 -0.14620256 -0.35718632 0
-0.12524033 -0.059310913 -0.35911083 0
-0.025328636 -0.058279514 -0.358356 0
-0.013903618 0.017961025 -0.35924244 0
0.11094666 0.063348293 -0.35942459 0
0.22871971 0.11876678 -0.36015081 0
0.34927368 0.11011314 -0.35992527 0
0.37134647 0.18387461 -0.36057377 0
0.50313854 0.23278093 -0.36145687 0
-0.98595619 -0.41858006 -0.32241249 0
-0.88000774 -0.39346981 -0.3322854 0
-0.78932762 -0.34580755 -0.33602047 0
-0.70976353 -0.28498268 -0.33808279 0
-0.62611389 -0.23449659 -0.3391242 0
-0.53070927 -0.19812489 -0.34191179 0
-0.4461031 -0.13933563 -0.34594488 0
-0.32783985 -0.12576866 -0.35253096 0
-0.27754402 -0.058617592 -0.35445356 0
-0.1834898 7.5817108e-05 -0.35797453 0
-0.094495773 0.017442703 -0.35904408 0
0.010229111 0.093715668 -0.359725 0
0.14435673 0.19246578 -0.36053467 0
0.26737881 0.25279379 -0.36126804 0
0.38982201 0.27777863 -0.36163282 0
0.41988087 0.29531145 -0.36114407 0
0.52931309 0.35833979 -0.36027575 0
0.69836044 0.4701457 -0.35557413 0
-0.93472672 -0.30813074 -0.32452726 0
-0.83736706 -0.27377844 -0.33214283 0
-0.76240158 -0.19495583 -0.33487129 0
-0.68046474 -0.13908243 -0.33610249 0
-0.58166599 -0.094221115 -0.33987761 0
-0.48337364 -0.096545219 -0.3430047 0
-0.40022182 -0.025530338 -0.34776926 0
-0.28260517 0.01559782 -0.35360527 0
-0.1665287 0.13476562 -0.35908127 0
-0.065532684 0.18991089 -0.36078739 0
0.040300369 0.21996593 -0.36077785 0
0.16928959 0.29903746 -0.36148453 0
0.31118584 0.37595177 -0.36200905 0
0.43358612 0.39352989 -0.36193323 0
0.45323181 0.4688158 -0.36137724 0
-0.99554348 -0.20553398 -0.31517506 0
-0.88525295 -0.16537142 -0.32490301 0
-0.82042503 -0.10871124 -0.32796764 0
-0.70408821 -0.075553894 -0.33479261 0
-0.61331749 -0.015240669 -0.33793402 0
-0.53729725 0.022141457 -0.34111166 0
-0.47219849 0.071051121 -0.34463644 0
-0.37653446 0.1048646 -0.34971476 0
-0.26741314 0.1571393 -0.35535002 0
-0.14631748 0.20079613 -0.35898352 0
-0.14073372 0.28667974 -0.35974741 0
-0.029993057 0.32438469 -0.36161423 0
0.066691399 0.36451197 -0.36214161 0
0.19258976 0.40105629 -0.36235762 0
0.33656025 0.48199129 -0.36295033 0
-0.94609547 -0.091259003 -0.31703472 0
-0.85192394 -0.019073486 -0.32369804 0
-0.76188946 0.0071005821 -0.32924891 0
-0.6706953 0.05393362 -0.33361101 0
-0.57792282 0.11452341 -0.33891058 0
-0.49932098 0.16758108 -0.34369326 0
-0.4186945 0.20149088 -0.34825945 0
-0.35236549 0.27017975 -0.35157251 0
-0.24623108 0.29157591 -0.35559559 0
-0.12813473 0.37414598 -0.36005783 0
0.043507576 0.42497444 -0.36221504 0
-0.97638512 0.017915249 -0.31175566 0
-0.88123226 0.0358634 -0.31884575 0
-0.80338097 0.061005592 -0.32395935 0
-0.63522339 0.17649364 -0.33675814 0
-0.11478806 0.46622086 -0.36024714 0
0.66117668 -0.48238039 -0.36924934 0
0.68433094 -0.42679882 -0.36665487 0
0.5455637 -0.46329784 -0.36637259 0
0.56771755 -0.41940308 -0.36366892 0
0.70256138 -0.35392427 -0.36457777 0
0.72254372 -0.27923203 -0.36221504 0
0.16849613 -0.47746754 -0.36386824 0
0.26885605 -0.42239141 -0.36311769 0
0.40383053 -0.40957451 -0.36527729 0
0.44097805 -0.34210062 -0.36262321 0
0.57396984 -0.30813074 -0.36284018 0
0.59483719 -0.26370335 -0.36016464 0
0.76310158 -0.25188112 -0.36191702 0
0.80452538 -0.14261866 -0.36009598 0
0.9095974 -0.1283083 -0.35791206 0
0.95055389 -0.061906815 -0.35299301 0
-0.041031837 -0.46528149 -0.36165905 0
0.05842495 -0.4632678 -0.36443043 0
0.08585453 -0.39550495 -0.36329031 0
0.20165825 -0.35139227 -0.36155033 0
0.31676388 -0.30530405 -0.35954905 0
0.45434475 -0.27744722 -0.36073685 0
0.46930695 -0.19706345 -0.35927057 0
0.62472725 -0.18121243 -0.36110353 0
0.65628147 -0.097123623 -0.36209249 0
0.82719326 -0.0075039864 -0.35717106 0
0.96170807 0.052859306 -0.35158157 0
-0.18312454 -0.46891117 -0.35855532 0
-0.13295364 -0.42169571 -0.35963869 0
0.0037221909 -0.3297596 -0.3624773 0
0.10884094 -0.3157258 -0.36144543 0
0.18341255 -0.26299143 -0.35912085 0
0.36995792 -0.1721468 -0.35734844 0
0.50207138 -0.16252375 -0.35930443 0
0.53273296 -0.076641083 -0.36025524 0
0.56275368 -0.018793583 -0.36071062 0
0.70209026 -0.0055704117 -0.36105537 0
0.84711266 0.070170403 -0.35457516 0
0.98908997 0.09375906 -0.34819794 0
-0.11636353 -0.35667801 -0.36039782 0
0.034180641 -0.24262094 -0.35984898 0
0.14495945 -0.16085911 -0.35844469 0
0.24459839 -0.1409564 -0.35889673 0
0.27584171 -0.06404686 -0.35882378 0
0.41994667 -0.019457817 -0.35897589 0
0.58871651 0.054431915 -0.3614912 0
0.73522186 0.1397233 -0.35637379 0
0.86219215 0.14740324 -0.35253906 0
0.88804817 0.22514963 -0.35024548 0
0.16027451 -0.10348558 -0.35826397 0
0.30121899 -0.014932156 -0.35903883 0
0.32668209 0.047508717 -0.35944891 0
0.45573139 0.099802494 -0.36026001 0
0.61644554 0.17214775 -0.35952187 0
0.76455593 0.2458396 -0.35345411 0
0.91600037 0.29518795 -0.3494997 0
0.94902992 0.38524151 -0.34867764 0
0.47481155 0.17864132 -0.36117315 0
0.65445805 0.30310488 -0.35640192 0
0.78743935 0.34187841 -0.35320854 0
0.81253338 0.42591763 -0.35268688 0
0.97408104 0.45514488 -0.34805775 0
0.81553364 -0.48516369 -0.36719227 0
0.97072411 -0.45313835 -0.3655138 0
0.98737144 -0.39209223 -0.3612175 0
0.83193398 -0.39705896 -0.36549664 0
0.8572998 -0.32260036 -0.36312008 0
