# .PCD v0.7 - Point Cloud Data file format
VERSION 0.7
FIELDS x y z intensity
SIZE 4 4 4 4
TYPE F F F F
COUNT 1 1 1 1
WIDTH 1287
HEIGHT 1
VIEWPOINT 0 0 0 1 0 0 0
POINTS 1287
DATA ascii
-0.15455186 0.013990879 -0.44104069 0
0.033303261 0.021363735 -0.44218755 0
0.14010549 0.035971403 -0.43263924 0
0.28016084 0.043819904 -0.43158084 0
0.44560724 0.010051966 -0.4467504 0
0.59610236 0.037476063 -0.43448448 0
0.79299492 0.024475574 -0.44122761 0
0.95108157 0.040442467 -0.42655325 0
-0.97503871 0.090398908 -0.4126966 0
-0.84077388 0.08701849 -0.42328209 0
-0.74007601 0.1060245 -0.4168781 0
-0.63315427 0.088584661 -0.4260987 0
-0.53755844 0.097820282 -0.41652143 0
-0.43451202 0.094114065 -0.41759491 0
-0.33837384 0.10548186 -0.41657668 0
-0.24549943 0.10639191 -0.40615052 0
-0.12940317 0.12059069 -0.40995312 0
-0.015671968 0.12853384 -0.40690023 0
0.088769615 0.084392786 -0.40818942 0
0.23612404 0.10569954 -0.40716082 0
0.38078409 0.10585904 -0.41017526 0
0.57782757 0.13097811 -0.41264766 0
0.74502289 0.13143253 -0.40751565 0
0.88928813 0.13683939 -0.39142293 0
0.94972503 0.12399149 -0.41122508 0
-0.94419163 0.18127954 -0.39545047 0
-0.83877796 0.18408978 -0.39549774 0
-0.7347613 0.18750429 -0.40224797 0
-0.64391106 0.19043982 -0.39695537 0
-0.56105876 0.19723785 -0.38756889 0
-0.44835973 0.21510839 -0.38082933 0
-0.33753926 0.19671321 -0.38974297 0
-0.24840891 0.2280314 -0.37270176 0
-0.14921403 0.19778275 -0.37771928 0
-0.049884796 0.18697596 -0.38598889 0
0.058327675 0.21790314 -0.37508523 0
0.1590386 0.20528579 -0.3802886 0
0.24616885 0.17645478 -0.39733166 0
0.34631544 0.21482158 -0.38102692 0
0.51553404 0.22233129 -0.37910444 0
0.68535286 0.26220298 -0.36779702 0
0.7206257 0.21904087 -0.38481122 0
0.87041354 0.21194386 -0.3729651 0
-0.92112929 0.29231226 -0.36441454 0
-0.8415553 0.27610743 -0.37478703 0
-0.75182545 0.28089094 -0.37426996 0
-0.65672213 0.28769004 -0.36600602 0
-0.57011861 0.29981363 -0.36215889 0
-0.47367519 0.31137156 -0.3554998 0
-0.35201317 0.29626203 -0.35763079 0
-0.25639087 0.28991389 -0.34997076 0
-0.11381537 0.30063415 -0.3468492 0
-0.065092206 0.28503728 -0.36379468 0
0.036056101 0.31764102 -0.35133415 0
0.14753634 0.32002211 -0.34421498 0
0.2947244 0.34016991 -0.34517944 0
0.30715156 0.28467059 -0.35793012 0
0.44246852 0.30443072 -0.3448894 0
0.59896803 0.35725617 -0.32860392 0
0.62978232 0.30103898 -0.34602946 0
0.85360187 0.31444049 -0.35082376 0
-0.95167452 0.39420772 -0.34676561 0
-0.85776192 0.38437736 -0.34291074 0
-0.75951564 0.38794923 -0.34285742 0
-0.65831202 0.39387763 -0.33757406 0
-0.53673059 0.39849424 -0.33471668 0
-0.43843567 0.37300265 -0.33484662 0
-0.33713466 0.39116061 -0.32701147 0
-0.22619414 0.41146302 -0.3284387 0
-0.1509943 0.38419163 -0.32173777 0
-0.052700281 0.39318907 -0.31330276 0
0.05623579 0.39086187 -0.31950057 0
0.25757378 0.4063623 -0.32405025 0
0.37661779 0.44139242 -0.30485386 0
0.40591764 0.38948107 -0.32104689 0
0.59975338 0.42167902 -0.31881332 0
0.79763663 0.46175098 -0.3116557 0
-0.96303785 0.46384799 -0.32106531 0
-0.86794597 0.46395838 -0.32389584 0
-0.7671386 0.48840129 -0.30884108 0
-0.65244985 0.49870121 -0.30810446 0
-0.55370247 0.4859457 -0.31101328 0
-0.45087576 0.4700706 -0.30162594 0
-0.27844697 0.47716904 -0.30274141 0
-0.057059884 0.47925234 -0.29784703 0
0.12693906 0.49305892 -0.29238969 0
0.22110248 0.47913992 -0.30244851 0
-0.42120564 -0.43243003 -0.45992595 0
-0.32554364 -0.40814042 -0.42761588 0
-0.21607518 -0.41898847 -0.39310956 0
-0.14536512 -0.37052751 -0.37567073 0
-0.3108229 -0.33280969 -0.42562717 0
-0.21278107 -0.33522773 -0.38704515 0
-0.13826865 -0.33073568 -0.38180745 0
0.79623789 0.38222265 -0.3234303 0
-0.17627215 -0.49601269 -0.37482965 0
-0.1226151 -0.4332788 -0.35631526 0
-0.044958532 -0.42654109 -0.33099067 0
0.10405582 -0.41410446 -0.34742081 0
-0.96975505 -0.49073935 -0.59139049 0
-0.89287263 -0.45449543 -0.57802737 0
-0.95433795 -0.40133834 -0.56573486 0
-0.78563786 -0.40423751 -0.57742321 0
-0.95539641 -0.30048656 -0.53773022 0
-0.95549846 -0.23346853 -0.52014846 0
-0.92205805 -0.47681761 -0.57370341 0
-0.83425361 -0.49455738 -0.58511043 0
-0.71984631 -0.46521139 -0.57932663 0
-0.65003884 -0.47911739 -0.53039551 0
-0.54986125 -0.46627927 -0.49871919 0
-0.91067713 -0.38348055 -0.55169737 0
-0.83234048 -0.38794756 -0.55605131 0
-0.74378771 -0.38892055 -0.55258912 0
-0.64581186 -0.3784759 -0.5297538 0
-0.55730718 -0.36424327 -0.50532687 0
-0.48902076 -0.35708427 -0.48395109 0
0.79865557 -0.30168295 -0.55660462 0
-0.90496105 -0.3257668 -0.53820056 0
-0.84775066 -0.27364469 -0.53018832 0
-0.75461066 -0.29099107 -0.52444053 0
-0.65233552 -0.28619623 -0.52790523 0
-0.53937531 -0.28056955 -0.51246095 0
-0.45132381 -0.27945137 -0.49696255 0
-0.38959503 -0.29059577 -0.46706945 0
-0.21046966 -0.23704886 -0.52141392 0
-0.10403174 -0.26722574 -0.52273834 0
0.036073267 -0.25236154 -0.52210611 0
0.16552114 -0.2465744 -0.52208948 0
0.34054083 -0.25470901 -0.52620083 0
0.53442657 -0.23701811 -0.52687681 0
0.64234376 -0.23236728 -0.52969766 0
0.73735631 -0.25217605 -0.53183115 0
0.95001078 -0.23577738 -0.53317469 0
-0.95911169 -0.18558598 -0.49926156 0
-0.86566466 -0.19287157 -0.50371224 0
-0.77237564 -0.19805527 -0.50313693 0
-0.68424171 -0.17503023 -0.50434196 0
-0.57658833 -0.18415976 -0.5021081 0
-0.43565536 -0.17673016 -0.49946159 0
-0.3514027 -0.19531155 -0.50243038 0
-0.24387324 -0.17852783 -0.49775451 0
-0.14426225 -0.12243104 -0.47892123 0
-0.098578751 -0.17404437 -0.50428164 0
0.009668529 -0.17390656 -0.49719733 0
0.13136256 -0.14024758 -0.48955256 0
0.28332174 -0.15040255 -0.48951715 0
0.45406753 -0.16326642 -0.49170738 0
0.63911492 -0.13148022 -0.48616165 0
0.87701976 -0.18144011 -0.50651282 0
-0.96521616 -0.068812847 -0.47122353 0
-0.86172074 -0.078023434 -0.4776108 0
-0.75812542 -0.093165398 -0.4740462 0
-0.63416559 -0.082246304 -0.47114053 0
-0.54327798 -0.078789711 -0.47133702 0
-0.46265554 -0.085241079 -0.4698624 0
-0.37483174 -0.069223881 -0.46629041 0
-0.27193815 -0.068132401 -0.46447134 0
-0.17553109 -0.087534666 -0.46195018 0
0.034144282 -0.059964418 -0.46888697 0
0.11086327 -0.057650805 -0.46673054 0
0.27883106 -0.056405544 -0.46974617 0
0.44424832 -0.057536125 -0.46856916 0
0.63186884 -0.057855368 -0.46986175 0
-0.97590977 0.0080986023 -0.44717962 0
-0.8746835 0.016201735 -0.44348714 0
-0.75147337 0.0074932575 -0.45144275 0
-0.66763753 0.014233112 -0.44801891 0
-0.55728912 0.02335763 -0.44451869 0
-0.48504752 0.023134232 -0.43915373 0
-0.40087855 0.031436443 -0.43633509 0
-0.26448143 0.047788143 -0.43015301 0
-0.18122679 -0.0093107224 -0.44426215 0
-0.057577968 0.015249729 -0.43836093 0
0.081748366 0.051383257 -0.43672937 0
0.17676574 0.074548483 -0.41456121 0
0.23661709 0.013582945 -0.4437111 0
0.41712195 0.02990675 -0.44424397 0
-0.96608281 0.093852639 -0.42768681 0
-0.8591314 0.099534988 -0.41955936 0
-0.76248682 0.093474388 -0.42431056 0
-0.65646321 0.10731864 -0.41627288 0
-0.55854154 0.10372591 -0.41808486 0
-0.47122991 0.12961864 -0.40814304 0
-0.36771077 0.10283518 -0.40990698 0
-0.23117834 0.14530015 -0.39761853 0
-0.16892135 0.12368631 -0.40245831 0
-0.055580616 0.14469147 -0.39634305 0
0.043068588 0.11301613 -0.41357279 0
0.19604099 0.1597116 -0.404688 0
0.3488062 0.086085796 -0.41393203 0
-0.96750933 0.18921185 -0.39968377 0
-0.86613137 0.19379008 -0.39835697 0
-0.75704169 0.20581555 -0.39799973 0
-0.6599707 0.21554792 -0.39128083 0
-0.56018573 0.20971072 -0.38741106 0
-0.46575063 0.20811749 -0.38787222 0
-0.37129581 0.19077778 -0.38089007 0
-0.25390816 0.20986271 -0.37849087 0
-0.13184738 0.22972775 -0.37530786 0
-0.038532436 0.23829031 -0.36683136 0
0.14252591 0.21824741 -0.37867463 0
-0.97633326 0.28832173 -0.37007308 0
-0.87316889 0.3090781 -0.36889336 0
-0.79930067 0.28100395 -0.37089181 0
-0.67488593 0.30148256 -0.36611533 0
-0.55533999 0.30204272 -0.36241645 0
-0.50151259 0.3060143 -0.35212892 0
-0.3795892 0.29005301 -0.35981661 0
-0.26250213 0.31330121 -0.35676914 0
-0.17516941 0.31161308 -0.34756494 0
-0.034230947 0.33000517 -0.35167313 0
0.10724223 0.32316852 -0.35032427 0
-0.98794347 0.39294338 -0.34785289 0
-0.88217604 0.39168513 -0.33838579 0
-0.77607441 0.38445675 -0.3402946 0
-0.66981995 0.39590728 -0.33769178 0
-0.59183365 0.39013207 -0.33566105 0
-0.51102054 0.40067196 -0.33213902 0
-0.3711834 0.41379273 -0.32686841 0
-0.28917062 0.39785838 -0.31677943 0
-0.20339 0.40664876 -0.32257849 0
-0.09318608 0.43842435 -0.31567866 0
0.046635389 0.44164014 -0.31334895 0
-0.98528802 0.49166501 -0.31997657 0
-0.87501729 0.49606097 -0.31876677 0
-0.77312142 0.49328399 -0.30813044 0
-0.66656822 0.47398484 -0.31653112 0
-0.56601554 0.49602592 -0.30602974 0
-0.45931792 0.4891156 -0.3011997 0
-0.44505692 -0.49270868 -0.45599484 0
-0.36456317 -0.49377251 -0.42899859 0
-0.49858183 -0.43630862 -0.47635987 0
-0.42110467 -0.38677073 -0.45863801 0
-0.34218168 -0.39494038 -0.42665309 0
-0.2518453 -0.39472747 -0.40282822 0
-0.32466108 -0.30921149 -0.43618274 0
-0.22190964 -0.33216667 -0.39681369 0
0.82828259 -0.11368012 -0.48359561 0
0.57623202 -0.025942802 -0.44696766 0
0.77325368 -0.066258669 -0.46105659 0
0.96317494 0.0013689995 -0.43951058 0
0.54491943 0.067048073 -0.42125452 0
0.75543034 0.039827824 -0.43593609 0
0.92929041 0.059466124 -0.41908538 0
0.32024962 0.13537359 -0.3968268 0
0.50686592 0.15182519 -0.39545876 0
0.70529199 0.15357161 -0.40045387 0
0.88128656 0.19472528 -0.38125575 0
0.91531795 0.12803411 -0.40280724 0
0.28263086 0.24116993 -0.36756945 0
0.29147094 0.18866587 -0.37916863 0
0.45547676 0.25751424 -0.36287391 0
0.50143665 0.22842813 -0.38080817 0
0.67449242 0.25012398 -0.37526029 0
0.8631469 0.25794077 -0.36513388 0
-0.11387938 0.33568931 -0.3275761 0
0.25927162 0.33605027 -0.34488988 0
0.42438573 0.3196063 -0.34382516 0
0.61217487 0.32484221 -0.34566379 0
0.8268981 0.34677029 -0.33975059 0
0.037148416 0.36523843 -0.32335705 0
0.19545209 0.4244616 -0.31246454 0
0.37142634 0.42548251 -0.31196827 0
0.41048533 0.38018227 -0.33005393 0
0.53589505 0.46624303 -0.3022781 0
0.59480995 0.43344426 -0.32355529 0
0.78344417 0.43951416 -0.31282079 0
0.0072368979 0.48006427 -0.29569608 0
-0.14934617 -0.41319633 -0.37288177 0
-0.05699712 -0.42161727 -0.33865261 0
-0.13563091 -0.34452963 -0.36409336 0
-0.050322294 -0.3476162 -0.34029418 0
-0.96347988 -0.45568848 -0.5779103 0
-0.8750481 -0.46376848 -0.58250332 0
-0.80620009 -0.45280433 -0.5740186 0
-0.68492723 -0.46461296 -0.55654192 0
-0.97695398 -0.37584853 -0.55085993 0
-0.87440926 -0.38859367 -0.56284964 0
-0.80873042 -0.35234833 -0.5473727 0
-0.67303991 -0.36292648 -0.54022872 0
-0.59354419 -0.38045096 -0.51495492 0
-0.99078989 -0.26464725 -0.52987003 0
-0.89582008 -0.27818704 -0.52750671 0
-0.78673846 -0.26690388 -0.51937091 0
-0.67967808 -0.26686406 -0.52249908 0
-0.55192745 -0.27375531 -0.51523554 0
-0.46548498 -0.25033641 -0.50070637 0
-0.35617745 -0.21887922 -0.50352949 0
-0.23862505 -0.2116816 -0.50432926 0
-0.20975107 -0.24737716 -0.52089196 0
-0.98543358 -0.18137836 -0.50768411 0
-0.87176061 -0.18044019 -0.50103992 0
-0.77275968 -0.18318367 -0.4996933 0
-0.67928171 -0.15894055 -0.49742606 0
-0.57062858 -0.18527579 -0.49693108 0
-0.47231126 -0.16667223 -0.49043965 0
-0.34359127 -0.15640616 -0.49376452 0
-0.25979972 -0.1658504 -0.48823947 0
-0.098825157 -0.1607399 -0.49259645 0
-0.99056238 -0.085229158 -0.47158739 0
-0.92099744 -0.093860388 -0.47562391 0
-0.79107803 -0.070279598 -0.47254434 0
-0.68782353 -0.075187445 -0.46711224 0
-0.57795537 -0.091096878 -0.47358966 0
-0.48496324 -0.051375151 -0.46127307 0
-0.38260835 -0.076295614 -0.46407121 0
-0.26257467 -0.078226328 -0.4689157 0
-0.12460929 -0.058463812 -0.46448743 0
-0.98246807 0.03313303 -0.44053769 0
-0.89541429 0.022031546 -0.44534627 0
-0.80550653 0.0095636845 -0.45050719 0
-0.70545858 0.027274132 -0.4395141 0
-0.58675134 0.023251534 -0.4463498 0
-0.50350803 0.039429188 -0.43652058 0
-0.39395916 0.046702862 -0.43485999 0
-0.2789042 0.019644737 -0.44339436 0
-0.88720161 0.11134231 -0.42289788 0
-0.8040067 0.11623204 -0.41575736 0
-0.68748873 0.13936853 -0.41187531 0
-0.62221432 0.11987329 -0.41551232 0
-0.48991227 0.14452672 -0.40857333 0
-0.41328365 0.11844921 -0.41468906 0
-0.31661785 0.082675457 -0.41900992 0
-0.16629797 0.15559316 -0.41012675 0
-0.98465353 0.21581733 -0.3984246 0
-0.915609 0.21977174 -0.38638291 0
-0.79183286 0.23561263 -0.38758466 0
-0.71350378 0.19860101 -0.3921833 0
-0.58117431 0.21501219 -0.37825638 0
-0.4629966 0.21792054 -0.38075292 0
-0.34091663 0.20415473 -0.38847291 0
-0.88987303 0.3091675 -0.36226195 0
-0.76807129 0.33992898 -0.35887706 0
-0.69817936 0.324664 -0.36295336 0
-0.61509532 0.2936455 -0.36846989 0
-0.48262227 0.30804026 -0.3579933 0
-0.89770776 0.41292834 -0.33750251 0
-0.81524748 0.40002215 -0.33425927 0
-0.6875158 0.42004991 -0.33907917 0
-0.60599923 0.40764987 -0.33522406 0
-0.50031865 0.43387842 -0.32991171 0
-0.99365813 0.476928 -0.31689635 0
-0.69582653 0.49561501 -0.30881682 0
-0.52850008 0.49426532 -0.31119075 0
-0.5694679 -0.46575427 -0.49978185 0
-0.47094977 -0.48125577 -0.46598765 0
-0.41389096 -0.46747065 -0.44724137 0
-0.55223972 -0.40431809 -0.49188426 0
-0.47944283 -0.37324095 -0.48020101 0
-0.37950063 -0.38606262 -0.44579852 0
-0.30423522 -0.38302469 -0.42630947 0
0.51785219 -0.28135252 -0.5496034 0
0.70997769 -0.32866549 -0.55146325 0
-0.46431613 -0.30965447 -0.47657609 0
-0.37225091 -0.29262424 -0.45337814 0
-0.29256028 -0.26288629 -0.43706536 0
-0.1170963 -0.23930836 -0.50283796 0
0.074701607 -0.23692369 -0.51390058 0
0.24729466 -0.23924303 -0.51658517 0
0.45559824 -0.2218833 -0.52342725 0
0.61396629 -0.18291211 -0.50384849 0
0.67941207 -0.23613763 -0.52931845 0
0.90406644 -0.22390056 -0.52430159 0
-0.13601214 -0.13729954 -0.47653323 0
0.035392344 -0.15599298 -0.48598021 0
0.21625566 -0.151721 -0.49042761 0
0.36363864 -0.12283826 -0.48079783 0
0.39164358 -0.17082262 -0.49798203 0
0.57700557 -0.11607313 -0.48316681 0
0.80544132 -0.11878967 -0.48462099 0
-0.16558242 -0.021778822 -0.44502056 0
0.0039205551 -0.045620918 -0.45527905 0
0.17342162 -0.043539286 -0.45735407 0
0.30864877 -0.044267416 -0.45033926 0
0.53196257 -0.025839806 -0.45364028 0
0.73787457 -0.025007725 -0.45111233 0
0.94994003 0.010420084 -0.43853384 0
-0.19016474 0.054261208 -0.42280078 0
-0.049815238 0.084843159 -0.41503191 0
-0.02759856 0.031412601 -0.43143803 0
0.1658442 0.066770077 -0.43489832 0
0.29303825 0.055003881 -0.42806846 0
0.50066924 0.069994211 -0.42803371 0
0.70172018 0.080637693 -0.4216755 0
0.94357675 0.099084139 -0.42134851 0
-0.34097475 0.11182976 -0.40600973 0
-0.23895383 0.17376661 -0.38506305 0
-0.079072833 0.13079739 -0.39812964 0
0.10254222 0.12047315 -0.40684235 0
0.25244129 0.17719173 -0.39507121 0
0.27443045 0.13175178 -0.40924305 0
0.43505663 0.18074083 -0.39063174 0
0.45990866 0.12495041 -0.4070397 0
0.66441417 0.12853456 -0.40245593 0
0.85357314 0.19072056 -0.37998605 0
0.87366807 0.13398671 -0.39531529 0
-0.37630111 0.25997591 -0.36761844 0
-0.27519619 0.26144838 -0.35827839 0
-0.18726671 0.25618482 -0.36446488 0
-0.10324341 0.21299815 -0.37630814 0
0.038262486 0.21725345 -0.37141907 0
0.20056003 0.2528286 -0.36749059 0
0.39031035 0.27575731 -0.36237955 0
0.61410731 0.2601409 -0.36704969 0
0.66439027 0.20789886 -0.38941991 0
0.82603449 0.27317142 -0.35838407 0
-0.39760441 0.33326793 -0.34809589 0
-0.29239684 0.30695438 -0.34508562 0
-0.14013463 0.34533679 -0.34182715 0
0.0015381575 0.32605672 -0.34250021 0
0.11756456 0.37486625 -0.32402903 0
0.16461349 0.33418202 -0.34381241 0
0.34395242 0.35613394 -0.33645725 0
0.58300948 0.36114788 -0.34255677 0
0.7856254 0.3256793 -0.33833075 0
-0.5237624 0.36401296 -0.3356365 0
-0.42512393 0.42108238 -0.32428843 0
-0.31507415 0.40810025 -0.32082802 0
-0.17597955 0.40209472 -0.32166827 0
-0.079225659 0.43345475 -0.30124748 0
-0.031397521 0.40704024 -0.31931359 0
0.079278171 0.42301035 -0.30566031 0
0.33031261 0.42276645 -0.32210565 0
0.51654232 0.44704127 -0.31109262 0
0.73365277 0.46230674 -0.30327046 0
0.76687467 0.40040708 -0.32143801 0
-0.35030925 0.49872577 -0.29519188 0
0.48118323 0.48949146 -0.29505002 0
-0.35452765 -0.49486351 -0.42819059 0
-0.2739554 -0.49632597 -0.39992934 0
-0.16387153 -0.47593999 -0.37369394 0
-0.27501422 -0.3793118 -0.40535462 0
-0.16012079 -0.37313914 -0.37638164 0
-0.079855323 -0.37424207 -0.35027188 0
0.99675035 0.35104918 -0.32799494 0
0.99103492 0.44389749 -0.31177324 0
0.018724442 -0.49924684 -0.30038053 0
-0.044803858 -0.39898467 -0.32811004 0
-0.00075030327 -0.43172836 -0.31331259 0
-0.94670141 -0.46168327 -0.57912445 0
-0.85285014 -0.45701766 -0.58146119 0
-0.72567725 -0.47251558 -0.56353962 0
-0.91188818 -0.35678601 -0.5505417 0
-0.82879686 -0.34139061 -0.56085324 0
-0.74066913 -0.37173629 -0.55331516 0
-0.63846499 -0.37018466 -0.53500283 0
-0.9203397 -0.2813611 -0.53226554 0
-0.77294397 -0.29248619 -0.53398919 0
-0.72260576 -0.25739694 -0.52493894 0
-0.62220526 -0.26832485 -0.52473485 0
-0.54006648 -0.27560091 -0.51848698 0
-0.31672853 -0.21231508 -0.515365 0
-0.92551285 -0.18413973 -0.50510228 0
-0.79552209 -0.19280744 -0.50366288 0
-0.68500793 -0.19147801 -0.50504589 0
-0.57930505 -0.1510036 -0.49428123 0
-0.47390723 -0.16572356 -0.49745291 0
-0.34582609 -0.14127135 -0.49092036 0
-0.93285334 -0.087048054 -0.47834265 0
-0.809883 -0.078725576 -0.47384518 0
-0.71655107 -0.060588121 -0.46640593 0
-0.63881963 -0.082983971 -0.47250101 0
-0.48393548 -0.086636305 -0.47740823 0
-0.92819548 0.022228479 -0.4460974 0
-0.82801157 0.034591198 -0.44405916 0
-0.71367365 0.044077396 -0.44534191 0
-0.62009138 0.030770302 -0.44303739 0
-0.52014583 0.028638601 -0.44249701 0
-0.47959965 0.058571339 -0.44872606 0
-0.95489001 0.099617004 -0.42183417 0
-0.83577865 0.12510598 -0.4231405 0
-0.75594068 0.11425471 -0.41807166 0
-0.62296778 0.10875726 -0.42638886 0
-0.55585259 0.12354851 -0.41283256 0
-0.96221828 0.21314251 -0.39688343 0
-0.85343325 0.20838177 -0.40127352 0
-0.76828593 0.20804965 -0.39586896 0
-0.64984918 0.20265985 -0.39984143 0
-0.55199468 0.17630792 -0.40369153 0
-0.93885022 0.32249177 -0.36835632 0
-0.88264966 0.28845978 -0.37704417 0
-0.74919868 0.31769788 -0.36995244 0
-0.63276553 0.30659831 -0.37001485 0
-0.5767315 0.26933098 -0.3785041 0
-0.93369472 0.39876497 -0.34162965 0
-0.8260166 0.42697132 -0.33802143 0
-0.7427125 0.39265978 -0.34751141 0
-0.62643957 0.45476687 -0.33010995 0
-0.96242201 0.47888124 -0.31950194 0
-0.6684435 -0.4776361 -0.52792144 0
-0.59995705 -0.46052861 -0.51244509 0
-0.52481538 -0.45882273 -0.48512882 0
-0.44696099 -0.47440577 -0.46853805 0
-0.5932104 -0.35850191 -0.51688635 0
-0.52530652 -0.37241626 -0.48536846 0
-0.42217427 -0.37986755 -0.4569245 0
0.919824 -0.2796855 -0.54620194 0
-0.48331624 -0.29285169 -0.50098687 0
-0.43056166 -0.28179884 -0.47531158 0
-0.30648702 -0.28619027 -0.43259197 0
-0.17897242 -0.22864318 -0.51508355 0
0.018512249 -0.23091817 -0.52559364 0
0.15650189 -0.24007654 -0.52124077 0
0.32075655 -0.19378042 -0.50272709 0
0.40003669 -0.23824239 -0.53097141 0
0.59039521 -0.19371581 -0.51519537 0
0.66925102 -0.2423892 -0.54299551 0
0.8367964 -0.19817162 -0.515221 0
-0.20922893 -0.15457869 -0.49124962 0
-0.029984951 -0.14630866 -0.49469864 0
0.12444198 -0.15114784 -0.49497306 0
0.28220534 -0.14077735 -0.4818843 0
0.53612018 -0.11881208 -0.48890543 0
0.76192439 -0.14740705 -0.48931694 0
-0.38908064 -0.0563941 -0.45964193 0
-0.23265022 -0.070633173 -0.46785229 0
-0.091594696 -0.049839973 -0.45821452 0
0.084524691 -0.057443142 -0.46589142 0
0.28361744 -0.065375328 -0.46881425 0
0.47222698 -0.037892818 -0.45662272 0
0.6816231 -0.0069887638 -0.44499749 0
0.75158942 -0.040100098 -0.4711318 0
-0.42506564 0.0057623386 -0.43585193 0
-0.25043249 0.016248226 -0.4447782 0
-0.14330804 0.045585871 -0.42556167 0
0.061438799 0.037094593 -0.442083 0
0.24776721 0.040790319 -0.43983269 0
0.43425584 0.067527056 -0.4279781 0
0.672382 0.072700262 -0.42843258 0
-0.44166625 0.11733389 -0.40924078 0
-0.30241221 0.13308454 -0.40633667 0
-0.22753036 0.14080143 -0.40526754 0
-0.16926152 0.13755107 -0.40093672 0
-0.0038620234 0.13482189 -0.40594774 0
0.18157256 0.14561987 -0.40292227 0
0.38407391 0.15778542 -0.39890265 0
0.63499427 0.13910246 -0.40665913 0
-0.59964532 0.19526267 -0.38573456 0
-0.4447372 0.23509836 -0.38619435 0
-0.30941123 0.2235527 -0.38753676 0
-0.2185362 0.22890258 -0.36990279 0
-0.053152084 0.24289775 -0.37323403 0
0.093146682 0.27749515 -0.35599577 0
0.16944826 0.26166511 -0.37998801 0
0.35271215 0.25476098 -0.3743422 0
0.58243078 0.23737526 -0.37661421 0
-0.61969525 0.34973824 -0.35094589 0
-0.51562262 0.32959247 -0.34783781 0
-0.44698948 0.29229784 -0.37489754 0
-0.3544659 0.31610918 -0.35767406 0
-0.23272955 0.3267597 -0.34845722 0
-0.099021971 0.32131195 -0.34645563 0
0.07355392 0.34286094 -0.33988786 0
0.29479218 0.33753371 -0.34509867 0
0.54551071 0.35748172 -0.34782809 0
-0.63356972 0.39844263 -0.33809146 0
-0.53823602 0.40212131 -0.32815069 0
-0.42450309 0.41924441 -0.31920451 0
-0.36440802 0.40450585 -0.33920997 0
-0.26621389 0.42932022 -0.32113183 0
-0.12761372 0.40294242 -0.32428211 0
0.032687604 0.42405927 -0.31552762 0
0.25072241 0.4328351 -0.31804651 0
0.4790327 0.42732882 -0.31914115 0
-0.70076072 0.48433614 -0.30382183 0
-0.53532517 0.49179876 -0.31318545 0
-0.44947869 0.49036014 -0.29959771 0
0.22454941 0.4917078 -0.3018446 0
-0.38265413 -0.49851656 -0.44053537 0
-0.32156724 -0.47210908 -0.42256963 0
-0.21425605 -0.47133923 -0.38952625 0
-0.30261844 -0.3705802 -0.42391473 0
-0.22277552 -0.41051555 -0.38993573 0
-0.14792889 -0.35879517 -0.37431055 0
-0.20465857 -0.30630255 -0.39471358 0
-0.13981962 -0.32285261 -0.36378092 0
0.90413642 -0.025005579 -0.44673365 0
0.8846752 0.10470724 -0.42024946 0
0.84663588 0.17600894 -0.39752835 0
0.80950314 0.23046064 -0.37801707 0
0.7742393 0.34114313 -0.35029656 0
0.65654802 0.49130225 -0.2963295 0
0.7223348 0.44377422 -0.32082474 0
0.9804731 0.46144938 -0.30939913 0
-0.099618137 -0.47978997 -0.34348941 0
-0.085559964 -0.39205146 -0.33988208 0
-0.93440855 -0.47280264 -0.58434761 0
-0.80607772 -0.45080853 -0.578677 0
-0.71380037 -0.46273518 -0.55839849 0
-0.66498107 -0.42198229 -0.54439318 0
-0.91859883 -0.3882122 -0.56878752 0
-0.79168612 -0.33485031 -0.5435757 0
-0.72010142 -0.36513615 -0.55686533 0
-0.62493539 -0.35814404 -0.53591621 0
-0.90506363 -0.30017233 -0.53474432 0
-0.78687578 -0.2749331 -0.53138906 0
-0.61121696 -0.29356146 -0.53266656 0
-0.51047963 -0.2805438 -0.51291859 0
-0.4317894 -0.23420882 -0.51775295 0
-0.28738046 -0.25420976 -0.52001327 0
-0.89510071 -0.16680503 -0.50764316 0
-0.82206923 -0.18882179 -0.50962794 0
-0.71860182 -0.15351319 -0.48902735 0
-0.63804221 -0.17258406 -0.50704795 0
-0.54911393 -0.18858385 -0.51499838 0
-0.46551508 -0.16945791 -0.4933573 0
-0.30090922 -0.19702339 -0.50460768 0
-0.91135371 -0.098454475 -0.48742691 0
-0.81518227 -0.06042099 -0.47520834 0
-0.72845995 -0.083014965 -0.4709622 0
-0.59418887 -0.070135593 -0.47552514 0
-0.47054458 -0.057169676 -0.46847874 0
-0.33260632 -0.053845167 -0.46532583 0
-0.9381026 0.0089921951 -0.45618856 0
-0.85157001 0.020877361 -0.44689304 0
-0.73206854 0.032189131 -0.44602141 0
-0.61583477 0.00044727325 -0.45431238 0
-0.49725872 0.018328905 -0.44503421 0
-0.95217174 0.12409759 -0.42814991 0
-0.86482757 0.11921704 -0.42297873 0
-0.75598162 0.12291837 -0.42054638 0
-0.622989 0.10789895 -0.43064123 0
-0.51707011 0.10267425 -0.42291451 0
-0.36400998 0.15244603 -0.4157626 0
-0.97933823 0.20209372 -0.40432701 0
-0.87343735 0.21986902 -0.40066835 0
-0.74568969 0.21723604 -0.3944208 0
-0.66636235 0.1631391 -0.40675229 0
-0.54469013 0.20384777 -0.39535064 0
-0.99403596 0.31987381 -0.37731642 0
-0.86523163 0.31631482 -0.3734608 0
-0.75037688 0.29854035 -0.37239391 0
-0.67903036 0.26615131 -0.38342553 0
-0.57197487 0.27058113 -0.37475878 0
-0.92543566 0.39418721 -0.35247877 0
-0.82410663 0.41173553 -0.3459613 0
-0.72335225 0.38414001 -0.3488377 0
-0.59853578 0.43631399 -0.33698696 0
-0.96223587 0.47494161 -0.32790509 0
-0.86884713 0.49504566 -0.31879666 0
-0.73851657 0.49070132 -0.32582122 0
-0.61183649 -0.48365855 -0.51559043 0
-0.49113059 -0.48991704 -0.47929329 0
-0.42686605 -0.47562075 -0.45695621 0
-0.58386278 -0.34920073 -0.51110375 0
-0.51475012 -0.38110304 -0.4964956 0
-0.42746615 -0.38567495 -0.46608472 0
-0.33050376 -0.34477592 -0.44748712 0
0.57632124 -0.28480124 -0.5433349 0
0.91264403 -0.273628 -0.55880451 0
-0.47928381 -0.30012536 -0.49250954 0
-0.43037975 -0.30763125 -0.47608709 0
-0.337933 -0.29747033 -0.44841743 0
-0.1157254 -0.27340007 -0.52362353 0
0.057554603 -0.26192427 -0.52276266 0
0.28950268 -0.2224164 -0.52185237 0
0.52143127 -0.20633459 -0.51794106 0
0.79059529 -0.23008037 -0.52287191 0
-0.3294791 -0.14337277 -0.48452759 0
-0.13943225 -0.17461443 -0.49767381 0
0.042442799 -0.15616393 -0.49865925 0
0.26356333 -0.11451602 -0.49563807 0
0.47568625 -0.12591481 -0.49310267 0
0.74181157 -0.13358593 -0.49796915 0
-0.20078701 -0.10616517 -0.46666712 0
-0.031061351 -0.015386581 -0.45164174 0
0.045740843 -0.028711796 -0.47637814 0
0.19649649 -0.0773139 -0.46967781 0
0.39807981 -0.016077042 -0.452429 0
0.43240094 -0.073845863 -0.47190475 0
0.67262149 -0.025209665 -0.46203411 0
0.88959891 -0.072136402 -0.46293306 0
-0.36916792 0.015178442 -0.44031608 0
-0.1686998 0.025672913 -0.45165557 0
-0.045223594 0.063898563 -0.43351388 0
0.16861296 0.026639462 -0.4436546 0
0.367163 0.055395126 -0.43180686 0
0.6253621 0.08503294 -0.42964429 0
0.8599757 0.065187693 -0.43286806 0
-0.37499505 0.081893682 -0.42569143 0
-0.24129045 0.10589886 -0.41461509 0
-0.071949065 0.11485243 -0.4169513 0
0.10701352 0.14823294 -0.40553081 0
0.34114861 0.12932205 -0.41237575 0
0.56883162 0.17611623 -0.39970994 0
0.81870669 0.17804193 -0.40247673 0
-0.41754526 0.21526575 -0.38852066 0
-0.25828099 0.23608875 -0.38595277 0
-0.14450014 0.19643116 -0.3819055 0
-0.082507014 0.18646026 -0.40163016 0
0.056473196 0.2244873 -0.37865776 0
0.25127518 0.23390365 -0.370561 0
0.31742114 0.20799565 -0.39302206 0
0.50493795 0.28015161 -0.3661145 0
-0.60011345 0.32414258 -0.35665423 0
-0.44869924 0.32631063 -0.35937947 0
-0.28994542 0.32257819 -0.36149073 0
-0.15345991 0.31321764 -0.35890222 0
0.020345747 0.32795525 -0.35181832 0
0.26390219 0.33413386 -0.35819995 0
0.47426349 0.33381939 -0.34958076 0
0.6968416 0.38929725 -0.33602256 0
-0.62144268 0.36655533 -0.342794 0
-0.50814968 0.37370539 -0.33353412 0
-0.49459493 0.45289946 -0.32346764 0
-0.350196 0.41183484 -0.32890838 0
-0.22549689 0.43488026 -0.31774575 0
-0.17766219 0.39990497 -0.33714169 0
-0.060481787 0.42189074 -0.31378603 0
0.086156666 0.44709802 -0.29241115 0
0.18829668 0.44051731 -0.3210656 0
0.21936691 0.38854003 -0.33752847 0
0.36828232 0.45102787 -0.30348164 0
0.43893814 0.40332437 -0.32955533 0
-0.24396497 0.49979889 -0.30178154 0
-0.3149448 -0.47755933 -0.42065102 0
-0.2202279 -0.45465994 -0.39455563 0
-0.29013658 -0.35401344 -0.41979915 0
-0.21539223 -0.39263725 -0.3953144 0
-0.13612932 -0.39240623 -0.3720628 0
-0.20385545 -0.3313489 -0.39817238 0
-0.092542708 -0.34352326 -0.35414183 0
0.69306165 0.27027416 -0.35248959 0
0.7492888 0.22455907 -0.37540209 0
0.64424711 0.43024611 -0.31606317 0
0.95224732 0.48642755 -0.30743712 0
-0.051583648 -0.40522289 -0.34332633 0
-0.91151607 -0.48999786 -0.58161122 0
-0.74813974 -0.47516823 -0.57435036 0
-0.68104464 -0.4461019 -0.53914595 0
-0.89352345 -0.39025235 -0.56478083 0
-0.75958651 -0.35519218 -0.5480063 0
-0.66732669 -0.37805367 -0.53550673 0
-0.58576131 -0.32943487 -0.51448393 0
-0.9582957 -0.23658848 -0.5105207 0
-0.8899467 -0.2814765 -0.541834 0
-0.75105697 -0.28249812 -0.5287838 0
-0.68896145 -0.22286224 -0.51742524 0
-0.52819729 -0.25488329 -0.51159656 0
-0.42601025 -0.26154137 -0.51300091 0
-0.25135612 -0.23468494 -0.50874472 0
-0.95120227 -0.15353036 -0.49530026 0
-0.84732527 -0.16880226 -0.4932766 0
-0.75332505 -0.16602302 -0.50398678 0
-0.69737959 -0.16511011 -0.50294322 0
-0.57464164 -0.1579926 -0.49406713 0
-0.43775475 -0.13766217 -0.48500073 0
-0.40679777 -0.17226458 -0.50113046 0
-0.29696012 -0.14673924 -0.47975606 0
-0.98420787 -0.070225954 -0.46808833 0
-0.85882097 -0.092408657 -0.47421059 0
-0.74388677 -0.076610327 -0.47096199 0
-0.59226102 -0.071370125 -0.47161627 0
-0.45440394 -0.04018116 -0.46128792 0
-0.98660785 0.041885853 -0.4450331 0
-0.88378894 0.011224508 -0.44624025 0
-0.76476699 0.00051164627 -0.44960874 0
-0.65785426 0.047892332 -0.42933333 0
-0.6008873 -0.01491785 -0.45810854 0
-0.48690838 0.037364244 -0.43716395 0
-0.91225308 0.13565135 -0.41404089 0
-0.78533328 0.1101079 -0.4226642 0
-0.66031069 0.13486004 -0.41250229 0
-0.53599137 0.14336228 -0.40415162 0
-0.50177002 0.09685874 -0.42222375 0
-0.95623165 0.24773777 -0.38027027 0
-0.88248569 0.21328151 -0.39173484 0
-0.80514175 0.1809063 -0.40372875 0
-0.6913119 0.21524656 -0.38897449 0
-0.55744779 0.22918701 -0.38267702 0
-0.97109419 0.32087958 -0.36279225 0
-0.8511247 0.30749846 -0.36768505 0
-0.73509771 0.27794707 -0.36528587 0
-0.73135084 0.34850228 -0.35413015 0
-0.58243209 0.34158659 -0.35597402 0
-0.9725548 0.43366635 -0.33259434 0
-0.87193257 0.40788019 -0.34413818 0
-0.76167077 0.42396843 -0.33279824 0
-0.77745289 0.49818671 -0.31629434 0
-0.63862491 0.46978557 -0.3185949 0
-0.63269246 -0.4717834 -0.5140146 0
-0.54306579 -0.47049069 -0.47665557 0
-0.45335466 -0.45920038 -0.46260923 0
-0.53181756 -0.38928628 -0.49331689 0
-0.44459814 -0.35629129 -0.45981216 0
-0.35129648 -0.35076237 -0.43105549 0
0.4741956 -0.30866337 -0.53922981 0
0.8031168 -0.28938198 -0.54963225 0
-0.48083317 -0.30310321 -0.48153776 0
-0.067459226 -0.22980309 -0.50986516 0
0.17774814 -0.26207066 -0.52312529 0
0.43227422 -0.19087315 -0.51415181 0
0.73044807 -0.19451332 -0.52024084 0
-0.11598861 -0.13606071 -0.47988379 0
0.14232606 -0.11766338 -0.48896712 0
0.19162589 -0.16763282 -0.51113653 0
0.36914474 -0.12278461 -0.48694515 0
0.61055565 -0.14575171 -0.48495656 0
0.93285406 -0.10760784 -0.49304861 0
-0.33642012 -0.038694382 -0.44767094 0
-0.31447023 -0.09266448 -0.46428448 0
-0.1547392 -0.080843449 -0.45961171 0
0.039185345 -0.012220144 -0.4430179 0
0.1036281 -0.043448448 -0.46596903 0
0.32889849 -0.069553614 -0.46748012 0
0.56431597 -0.027549267 -0.45403403 0
0.83868849 -0.037424088 -0.4627701 0
-0.35940653 0.022352695 -0.42964393 0
-0.17009282 0.030992746 -0.43660313 0
0.018130779 0.067008734 -0.42452788 0
0.23051363 0.063006639 -0.42008394 0
0.31344771 0.030889511 -0.44756579 0
0.49880975 0.07515645 -0.42096895 0
0.73092371 0.092925787 -0.41312164 0
0.80167812 0.044553518 -0.43985164 0
-0.37643045 0.11658025 -0.40810853 0
-0.23271525 0.17733383 -0.39344656 0
-0.20056647 0.13809943 -0.40913838 0
-0.027993381 0.11889887 -0.40367246 0
0.16192317 0.19715738 -0.38133156 0
0.21136183 0.14399934 -0.40258884 0
0.4495405 0.13915634 -0.39852512 0
0.71912944 0.19688559 -0.39409238 0
-0.42939913 0.26566851 -0.36780792 0
-0.38271737 0.22821355 -0.38721275 0
-0.26763153 0.2701931 -0.36825901 0
-0.069897354 0.22177267 -0.37625659 0
0.14869756 0.27740574 -0.36590046 0
0.40438569 0.21239781 -0.37604266 0
0.66782993 0.26457906 -0.37103963 0
-0.46081799 0.31217158 -0.35119468 0
-0.30937034 0.35684776 -0.3425824 0
-0.15274066 0.35212183 -0.33284557 0
-0.10964251 0.31718397 -0.35020846 0
0.083024025 0.31848454 -0.34245014 0
0.34607542 0.35520673 -0.34055054 0
0.39690936 0.30784869 -0.36050791 0
0.56321055 0.39730859 -0.32611114 0
0.61557853 0.32092643 -0.3498441 0
-0.62865466 0.40702879 -0.33182332 0
-0.49955517 0.39064825 -0.32707798 0
-0.3836903 0.44876552 -0.30756152 0
-0.31496227 0.43327069 -0.32886982 0
-0.17471594 0.42409754 -0.31562024 0
0.031861961 0.42101943 -0.31414789 0
0.21631837 0.44748783 -0.29411942 0
0.28866178 0.40736985 -0.31835699 0
0.52196801 0.46974325 -0.30591422 0
-0.41261941 0.49793267 -0.29160577 0
-0.18689936 0.49865472 -0.30084103 0
-0.35040689 -0.49171734 -0.41876745 0
-0.2674858 -0.46656084 -0.39450783 0
-0.17663985 -0.46312904 -0.37522781 0
-0.24309015 -0.37477398 -0.39292538 0
-0.14129817 -0.38184285 -0.35956985 0
0.99148226 0.19122791 -0.3837235 0
0.96357238 0.28616548 -0.36281872 0
0.90208888 0.34096265 -0.33890599 0
0.83943945 0.45522952 -0.30682695 0
-0.1008867 -0.47010446 -0.35498589 0
-0.047509253 -0.40005374 -0.3315205 0
-0.93627232 -0.47510266 -0.58637315 0
-0.87059319 -0.42877245 -0.55885732 0
-0.75069398 -0.46254897 -0.57137084 0
-0.70696652 -0.44784713 -0.5341084 0
-0.98143959 -0.39208341 -0.55308372 0
-0.86331415 -0.36036015 -0.54625463 0
-0.67524326 -0.36555219 -0.54121268 0
-0.96288347 -0.25710082 -0.52956384 0
-0.86939949 -0.26879716 -0.52477574 0
-0.71757692 -0.31057858 -0.53480124 0
-0.70353657 -0.23170543 -0.52273071 0
-0.5805462 -0.27557421 -0.52415574 0
-0.50214398 -0.26881027 -0.5025022 0
-0.89064693 -0.16269279 -0.49605328 0
-0.74380404 -0.16314745 -0.49630055 0
-0.56351864 -0.1499176 -0.50104219 0
-0.43421912 -0.17744732 -0.49570805 0
-0.97386205 -0.035638571 -0.46246436 0
-0.9098075 -0.078312874 -0.47304332 0
-0.7720015 -0.055187941 -0.46619126 0
-0.65802568 -0.052474737 -0.45335841 0
-0.62002754 -0.088991404 -0.47185814 0
-0.47102123 -0.093983889 -0.46845758 0
-0.93679422 0.022306681 -0.44501051 0
-0.8329019 0.059378862 -0.42582366 0
-0.79175031 0.034167767 -0.44288719 0
-0.64504397 0.035125732 -0.44052738 0
-0.47972786 0.0061388016 -0.4469614 0
-0.95468676 0.096957088 -0.42523485 0
-0.85945046 0.10769808 -0.40890339 0
-0.65843606 0.12093019 -0.42051643 0
-0.52976161 0.14992213 -0.40660024 0
-0.98663169 0.19530523 -0.39695176 0
-0.85284078 0.20328045 -0.39326546 0
-0.73483938 0.24121392 -0.37637118 0
-0.67709988 0.21141744 -0.3984713 0
-0.87091196 0.32259071 -0.36629143 0
-0.74742919 0.35765839 -0.35230097 0
-0.73105979 0.29745519 -0.36749244 0
-0.5552159 0.27718854 -0.37649238 0
-0.92360848 0.40838313 -0.33609706 0
-0.73822993 0.43483651 -0.3416611 0
-0.8111288 0.48678303 -0.31276843 0
-0.63476837 -0.47954321 -0.51603627 0
-0.5533691 -0.47641921 -0.48743379 0
-0.47039545 -0.49635673 -0.462327 0
-0.60984337 -0.39754891 -0.51076341 0
-0.5186252 -0.3974607 -0.48089331 0
-0.45403469 -0.35541511 -0.46706319 0
-0.3598218 -0.33524799 -0.4478001 0
0.56731158 -0.30169582 -0.54217875 0
0.89222908 -0.2840066 -0.55146503 0
-0.54552794 -0.3124969 -0.50648856 0
-0.33557844 -0.28897643 -0.43623805 0
-0.24810892 -0.26617193 -0.51842165 0
-0.040993631 -0.2158699 -0.50578988 0
0.023293376 -0.25141788 -0.53021199 0
0.21842629 -0.20950031 -0.51127309 0
0.53317446 -0.20258689 -0.52116263 0
0.7433067 -0.23282242 -0.51010728 0
-0.34502155 -0.1638248 -0.47174001 0
-0.26697278 -0.18583775 -0.49872327 0
-0.074371338 -0.13820505 -0.48320836 0
0.19819081 -0.1321094 -0.49290192 0
0.45740038 -0.13985229 -0.49361116 0
0.69408101 -0.13504982 -0.48693693 0
-0.31480455 -0.076483011 -0.46421081 0
-0.15753675 -0.022984743 -0.4407987 0
-0.087983787 -0.079345226 -0.46955097 0
0.11055368 -0.046483994 -0.4547382 0
0.38406491 -0.038297176 -0.45781356 0
0.64834726 -0.05978322 -0.46415251 0
0.97295177 -0.058115005 -0.46336514 0
-0.34132999 0.06253767 -0.43060327 0
-0.30561531 0.0015079975 -0.45235759 0
-0.17940116 0.047557831 -0.4232558 0
0.072655976 0.070791245 -0.42566752 0
0.33588457 0.075682878 -0.42734993 0
0.55326951 0.097643375 -0.41411483 0
0.61265713 0.021840811 -0.44121814 0
-0.52697325 0.081110954 -0.4196319 0
-0.38767874 0.097390175 -0.41116697 0
-0.19763547 0.12085915 -0.40512991 0
0.013967872 0.16578054 -0.39487833 0
0.26842904 0.1365242 -0.40003437 0
0.5387342 0.18028498 -0.39837193 0
-0.57216579 0.18930304 -0.38719231 0
-0.40053391 0.20516157 -0.38902342 0
-0.24317354 0.24186802 -0.37207234 0
-0.205235 0.18519711 -0.3921451 0
-0.046213269 0.25993609 -0.36417925 0
0.22037858 0.25299501 -0.36997217 0
0.48447686 0.25299191 -0.37373298 0
-0.59840727 0.31913424 -0.35678905 0
-0.4556272 0.35910261 -0.34728384 0
-0.42597413 0.30550635 -0.36493468 0
-0.29571992 0.32516098 -0.34383148 0
-0.10374051 0.34049463 -0.33572125 0
0.15440875 0.33775449 -0.34013563 0
0.40596741 0.35211945 -0.3392756 0
-0.614667 0.40908825 -0.33673272 0
-0.51493865 0.42236483 -0.31983647 0
-0.31690633 0.43750143 -0.31996322 0
-0.13758457 0.44126582 -0.31065577 0
0.10939068 0.41464472 -0.317285 0
0.31719786 0.44789386 -0.30299497 0
0.083855271 0.49528563 -0.29920453 0
-0.40978074 -0.49639726 -0.43472028 0
-0.32352442 -0.47646904 -0.41519701 0
-0.23547941 -0.46731949 -0.38862085 0
-0.33179617 -0.40828466 -0.41692048 0
-0.21848899 -0.36290145 -0.3847478 0
-0.12054008 -0.42420125 -0.36285007 0
-0.097883403 -0.37194514 -0.35236323 0
0.86759365 0.11428952 -0.41215914 0
0.90688789 0.031492949 -0.43544215 0
0.84319955 0.19322634 -0.39365941 0
0.78148746 0.26690698 -0.36603683 0
0.72348934 0.33484888 -0.34097928 0
0.60028774 0.47409081 -0.2912187 0
0.69119585 0.42362761 -0.32098407 0
-0.056102991 -0.44025111 -0.33633971 0
-0.057324469 -0.40489173 -0.32140285 0
-0.90983713 -0.46142292 -0.57626802 0
-0.73994166 -0.44134474 -0.57619572 0
-0.70361722 -0.47090673 -0.57520342 0
-0.92997485 -0.37388945 -0.55105782 0
-0.76558071 -0.35319829 -0.54966974 0
-0.66471994 -0.36509204 -0.53933537 0
-0.91689903 -0.2736423 -0.53408951 0
-0.7742191 -0.25597191 -0.52695227 0
-0.63782275 -0.25352168 -0.51771343 0
-0.96129608 -0.17602038 -0.50032365 0
-0.78468525 -0.16294742 -0.50502479 0
-0.65297997 -0.15283298 -0.49326137 0
-0.97319001 -0.087451696 -0.47894365 0
-0.84360981 -0.033293009 -0.46178788 0
-0.82482719 -0.089176655 -0.4782508 0
-0.67085874 -0.053409576 -0.46874183 0
-0.84095484 0.034288406 -0.44965005 0
-0.69400918 0.030090094 -0.44605684 0
-0.88459486 0.10699868 -0.42311421 0
-0.73670799 0.1431489 -0.41264659 0
-0.90453291 0.22575569 -0.39525047 0
-0.75171679 0.20428383 -0.39723796 0
-0.94333643 0.32923257 -0.36501464 0
-0.75448585 0.27349412 -0.38411358 0
-0.96483755 0.41864979 -0.34338829 0
-0.6555289 -0.45118237 -0.52995408 0
-0.56712735 -0.4773047 -0.4988468 0
-0.59510583 -0.37922645 -0.51202822 0
-0.49551111 -0.37359405 -0.48149633 0
-0.49884254 -0.278193 -0.50040495 0
-0.36936325 -0.28879261 -0.45507902 0
-0.29753834 -0.21640468 -0.50570512 0
-0.033831537 -0.21236658 -0.51328272 0
0.2339865 -0.22065759 -0.51856726 0
0.49368346 -0.22103858 -0.51745504 0
0.86667001 -0.21596265 -0.5268873 0
-0.48818821 -0.16811252 -0.4980222 0
-0.28988087 -0.1318872 -0.49238002 0
-0.070204616 -0.14755535 -0.492414 0
0.20539302 -0.14424634 -0.49846464 0
0.45128936 -0.12070465 -0.49369216 0
0.80867451 -0.11240339 -0.50174421 0
-0.50980645 -0.065929413 -0.47209901 0
-0.32492292 -0.065894365 -0.4697293 0
-0.1687932 -0.031773329 -0.44631195 0
-0.1150682 -0.075669765 -0.46823627 0
0.12367654 -0.040202856 -0.45965749 0
0.3583625 -0.072478771 -0.46126598 0
0.70934337 -0.038275957 -0.46726763 0
-0.75363839 0.057099819 -0.42346057 0
-0.57679087 0.039189339 -0.43327242 0
-0.52349532 -0.0059173107 -0.45681065 0
-0.36305481 0.020639181 -0.44269532 0
-0.18824619 0.053760052 -0.42689854 0
0.058370352 0.065509319 -0.42548883 0
0.33111167 0.065555573 -0.43335944 0
-0.58066666 0.10485005 -0.42023593 0
-0.42371452 0.13403559 -0.40561247 0
-0.24461472 0.17951465 -0.38954115 0
-0.20294225 0.12484694 -0.41028482 0
0.037970483 0.1511066 -0.40689462 0
0.22614264 0.15452504 -0.39224774 0
0.64013463 0.13756895 -0.42185605 0
-0.6123749 0.198488 -0.39428902 0
-0.47299838 0.23287165 -0.37508178 0
-0.25276285 0.26903701 -0.37262511 0
-0.047455668 0.28549123 -0.36373341 0
-0.018290579 0.20591235 -0.38347608 0
0.20587885 0.23156834 -0.37571305 0
-0.79789656 0.30497539 -0.36612171 0
-0.62907904 0.33563864 -0.36546576 0
-0.45129263 0.31781209 -0.36670148 0
-0.31446493 0.34449601 -0.34340769 0
-0.084140122 0.33939958 -0.34516674 0
0.12237632 0.38122988 -0.33238691 0
0.16234428 0.32097483 -0.35142773 0
-0.82534379 0.3964684 -0.34231114 0
-0.69024199 0.39310563 -0.33825728 0
-0.52347374 0.39040697 -0.33394289 0
-0.34531373 0.46336818 -0.31611383 0
-0.17541379 0.4465071 -0.30372822 0
-0.098778784 0.41467369 -0.32945043 0
0.075268567 0.44036305 -0.31178582 0
-0.80423874 0.49465847 -0.31084165 0
-0.68812919 0.4724797 -0.32551447 0
-0.45507222 -0.46383071 -0.4599911 0
-0.40111256 -0.475986 -0.4369266 0
-0.26927769 -0.4736011 -0.41310143 0
-0.36634475 -0.37076855 -0.43624783 0
-0.24325192 -0.36980462 -0.40282255 0
-0.16895574 -0.4050312 -0.38571352 0
-0.27425975 -0.29363799 -0.41995823 0
-0.17884254 -0.31705785 -0.37843609 0
0.63258368 0.011436939 -0.43846995 0
0.95564914 0.014655352 -0.43564606 0
0.93685788 0.11194658 -0.4161793 0
0.59742105 0.20489693 -0.40127808 0
0.8801139 0.2001853 -0.38802105 0
0.50823176 0.25372219 -0.37128907 0
0.85169595 0.28604698 -0.36798185 0
0.42202872 0.35888815 -0.33462119 0
0.82287806 0.38614988 -0.34588039 0
0.72751588 0.43206954 -0.31563598 0
0.38200492 0.49825144 -0.30559117 0
-0.12375039 -0.45947504 -0.36347932 0
-0.081270695 -0.47761464 -0.3312754 0
0.027403891 -0.46973586 -0.31028599 0
-0.065921068 -0.40107584 -0.33717245 0
-0.99675465 -0.42677689 -0.57086873 0
-0.8500461 -0.45307159 -0.57270133 0
-0.85833722 -0.35011458 -0.54842067 0
-0.87006819 -0.25867462 -0.5258438 0
-0.91568363 -0.18579865 -0.49705109 0
-0.9292959 -0.085241795 -0.47287944 0
-0.69892019 -0.47436857 -0.53895056 0
-0.54766703 -0.42713451 -0.48198456 0
-0.6845296 -0.35747695 -0.53530586 0
-0.58611661 -0.3767004 -0.50244427 0
-0.50640023 -0.36204767 -0.47501057 0
-0.76532906 -0.28337812 -0.51618612 0
-0.58494675 -0.2481184 -0.50859064 0
-0.49276811 -0.29015613 -0.47905195 0
-0.13465959 -0.23982882 -0.50858545 0
0.11806566 -0.22392297 -0.51075876 0
-0.77703214 -0.17914677 -0.4918493 0
-0.57204896 -0.13021517 -0.48755378 0
-0.37595713 -0.16771674 -0.49372798 0
-0.16082454 -0.14286208 -0.48515022 0
0.07744503 -0.12639976 -0.48377562 0
-0.9527849 -0.029331207 -0.45485634 0
-0.77095515 -0.070165873 -0.47232667 0
-0.59287173 -0.06572628 -0.46896726 0
-0.45268911 -0.020834208 -0.4434821 0
-0.43073165 -0.087466717 -0.46234298 0
-0.18792772 -0.066910505 -0.46512073 0
0.002022922 -0.0340271 -0.44832599 0
-0.96258003 0.02961874 -0.44055337 0
-0.82045978 0.014709234 -0.44124517 0
-0.63127321 0.020550489 -0.44127923 0
-0.4627828 0.056906223 -0.42641103 0
-0.26951641 0.056990147 -0.42018795 0
-0.23404253 0.00039815903 -0.44069886 0
-0.06544733 0.070896864 -0.41338968 0
-0.99655652 0.11050487 -0.41476548 0
-0.84619218 0.13717282 -0.41065279 0
-0.69259703 0.13522792 -0.40207729 0
-0.48904771 0.11742902 -0.40838826 0
-0.28285396 0.13939214 -0.40202463 0
-0.87225538 0.23018146 -0.38593525 0
-0.72136301 0.22173178 -0.37804711 0
-0.51868606 0.22244942 -0.38168019 0
-0.33425862 0.22168756 -0.37381154 0
-0.12238729 0.22443867 -0.37387747 0
-0.91030782 0.31044221 -0.35996747 0
-0.73737621 0.33074737 -0.35412169 0
-0.57582289 0.34254575 -0.34422809 0
-0.35708749 0.35063064 -0.34617478 0
-0.17784214 0.36830437 -0.33533341 0
-0.1324966 0.31331706 -0.35666728 0
-0.95391208 0.41831696 -0.32818627 0
-0.79359519 0.40006542 -0.32596746 0
-0.63804913 0.41772532 -0.3135975 0
-0.43326819 0.46155703 -0.30644837 0
-0.36134851 0.43183136 -0.33177561 0
-0.64678627 0.48187041 -0.30028868 0
-0.47285759 -0.4731214 -0.45029497 0
-0.32788152 -0.4505353 -0.41203338 0
-0.45826381 -0.37659669 -0.44909859 0
-0.37740469 -0.38586235 -0.42664468 0
-0.26728559 -0.35036016 -0.39753264 0
-0.37653214 -0.27805829 -0.44431096 0
-0.32893151 -0.30687094 -0.41636598 0
0.45895076 -0.23426938 -0.51947951 0
0.84126431 -0.21035647 -0.52733779 0
0.31058741 -0.079029322 -0.46046615 0
0.37958735 -0.13901901 -0.48831761 0
0.64256567 -0.067920446 -0.46233809 0
0.72340471 -0.15502071 -0.49317276 0
0.27569145 0.016776323 -0.43653661 0
0.5894075 0.0070602894 -0.43589032 0
0.93383932 0.025439978 -0.43285382 0
0.21590483 0.076616287 -0.4115085 0
0.54215807 0.10393119 -0.40925628 0
0.87199461 0.11774516 -0.40233201 0
-0.11912662 0.12913442 -0.38975626 0
0.17011148 0.16294479 -0.38644159 0
0.51391453 0.19694328 -0.38866454 0
0.82638943 0.19227982 -0.37897444 0
0.16182512 0.26315498 -0.36951959 0
0.43225384 0.25290942 -0.3594296 0
0.77834123 0.27892137 -0.35329837 0
0.10566759 0.32737422 -0.34528166 0
0.4068228 0.3452456 -0.33997023 0
0.73259485 0.36852908 -0.32849967 0
-0.25309741 0.41452467 -0.30729461 0
0.024239063 0.47269571 -0.302692 0
0.056666136 0.39511693 -0.3225764 0
0.35734499 0.42852664 -0.31565064 0
0.70452112 0.4605844 -0.30932575 0
-0.24464828 -0.46348 -0.38640374 0
-0.1754353 -0.47087669 -0.35928875 0
-0.10317391 -0.48896146 -0.33025926 0
-0.16934252 -0.3962481 -0.36224842 0
-0.074424148 -0.42119837 -0.3160392 0
-0.13348776 -0.29645681 -0.36940271 0
-0.016922772 -0.49661779 -0.30199963 0
-0.93714017 -0.47083426 -0.58520037 0
-0.76642334 -0.42414045 -0.57112569 0
-0.72968775 -0.46587801 -0.5684396 0
-0.63543767 -0.45088673 -0.52546346 0
-0.97568738 -0.34999228 -0.54785305 0
-0.93276441 -0.38868523 -0.56924081 0
-0.77896863 -0.35838652 -0.55379021 0
-0.71406287 -0.40902328 -0.53293604 0
-0.61839074 -0.39854264 -0.51284254 0
-0.97848785 -0.28358841 -0.53331101 0
-0.80272937 -0.25597501 -0.52586406 0
-0.62240815 -0.27632952 -0.52499187 0
-0.53764004 -0.304003 -0.51106203 0
-0.39640284 -0.22941351 -0.51938504 0
-0.19800901 -0.2422967 -0.51630789 0
-0.83842385 -0.16214585 -0.49640933 0
-0.68928123 -0.12731934 -0.47556269 0
-0.63691181 -0.17344785 -0.50010955 0
-0.44902658 -0.18486881 -0.49524331 0
-0.23642075 -0.15060019 -0.49037027 0
-0.84646755 -0.092714787 -0.48042974 0
-0.45643634 -0.058481455 -0.46936381 0
-0.28536677 -0.05399394 -0.4592396 0
-0.91721362 0.0072741508 -0.44009873 0
-0.85903472 -0.027469635 -0.46406215 0
-0.71006525 0.028589249 -0.43994042 0
-0.65630198 -0.020738602 -0.46511054 0
-0.49576247 0.03864336 -0.44003677 0
-0.32684696 0.059763193 -0.42652971 0
-0.91698086 0.1236757 -0.41824782 0
-0.73536968 0.087096691 -0.42163622 0
-0.5130645 0.12144661 -0.42064178 0
-0.34373546 0.13705063 -0.40853226 0
-0.92968756 0.22753108 -0.39480421 0
-0.746198 0.20177662 -0.39749244 0
-0.55828452 0.21917188 -0.39006978 0
-0.96562511 0.27191639 -0.37584731 0
-0.77837259 0.28518498 -0.37313014 0
-0.59270996 0.32225347 -0.36188728 0
-0.4200834 0.35440564 -0.35056394 0
-0.97642481 0.41198456 -0.34737319 0
-0.80496538 0.43239176 -0.33908036 0
-0.78140432 0.37288749 -0.35668248 0
-0.62463045 0.41530013 -0.33656344 0
-0.85322529 0.47158384 -0.31902719 0
-0.58025962 -0.47777247 -0.50710738 0
-0.51215559 -0.49418736 -0.48097828 0
-0.42817146 -0.46618509 -0.44191134 0
-0.50113219 -0.39591002 -0.47824165 0
-0.46992749 -0.3017118 -0.48497301 0
-0.40667266 -0.32183671 -0.45912075 0
-0.32341903 -0.32762146 -0.43287975 0
0.1251204 -0.23818803 -0.52596539 0
0.48507929 -0.23783469 -0.5333721 0
0.76325637 -0.19092488 -0.50828338 0
0.85378337 -0.25853944 -0.53681684 0
0.065293849 -0.1572094 -0.49646086 0
0.33019674 -0.096553564 -0.4755559 0
0.36721772 -0.17141557 -0.49693525 0
0.0012927651 -0.045909166 -0.46124196 0
0.25024587 -0.022393465 -0.44284165 0
0.67095977 -0.073270798 -0.47192305 0
-0.066340387 0.061575413 -0.42591661 0
0.23197526 0.072423458 -0.42375147 0
0.60715741 0.05014801 -0.43551713 0
-0.069483697 0.17643881 -0.40728998 0
0.1806547 0.1525085 -0.39815843 0
0.50786102 0.16314459 -0.3932063 0
-0.39969784 0.23370218 -0.37653643 0
-0.12813497 0.2298305 -0.38236493 0
0.15884501 0.25369644 -0.37747681 0
0.4708147 0.26038742 -0.36989486 0
-0.19304705 0.32647574 -0.34868008 0
0.10170096 0.31980371 -0.35266626 0
0.40053147 0.32850718 -0.3420983 0
-0.4602685 0.40861857 -0.32979745 0
-0.2373603 0.44785702 -0.3170225 0
-0.0060613155 0.45912325 -0.3034696 0
0.040210962 0.38732326 -0.32665402 0
0.35298198 0.41729188 -0.31747806 0
-0.48393607 0.48069644 -0.31080437 0
-0.29436857 0.49795842 -0.29345208 0
-0.28952068 -0.46639848 -0.40513343 0
-0.17136621 -0.49090981 -0.36299074 0
-0.26200068 -0.35731959 -0.40366822 0
-0.20422578 -0.41519237 -0.3891412 0
-0.098492622 -0.36490178 -0.34580725 0
-0.15242952 -0.32626724 -0.37786567 0
0.89259934 0.06710887 -0.4223814 0
0.83194828 0.20846963 -0.38487643 0
0.76765847 0.29633546 -0.35457367 0
0.75336719 0.39363241 -0.33744192 0
0.68090189 0.49661541 -0.30541152 0
-0.073168218 -0.49025345 -0.33423555 0
-0.9103235 -0.4579196 -0.57863402 0
-0.70395756 -0.44319868 -0.55623841 0
-0.61047089 -0.43823767 -0.51850235 0
