# .PCD v0.7 - Point Cloud Data file format
VERSION 0.7
FIELDS x y z intensity
SIZE 4 4 4 4
TYPE F F F F
COUNT 1 1 1 1
WIDTH 1295
HEIGHT 1
VIEWPOINT 0 0 0 1 0 0 0
POINTS 1295
DATA ascii
0.55421543 -0.48825455 -0.4746418 0
0.64166641 -0.44214559 -0.48253632 0
0.7230463 -0.38809061 -0.49296856 0
0.50247478 -0.38862419 -0.46474266 0
0.57598305 -0.3439784 -0.47202492 0
0.66918659 -0.30614066 -0.48423004 0
0.45371914 -0.28016543 -0.45573139 0
0.54229641 -0.26463604 -0.46660519 0
0.61816692 -0.19794559 -0.47802544 0
0.43135548 -0.19825578 -0.45114326 0
0.49472141 -0.15250802 -0.46166706 0
0.58710957 -0.12640882 -0.46984959 0
0.64931488 -0.13558626 -0.47044659 0
0.89795589 0.093450785 -0.51400661 0
0.40498352 -0.13316178 -0.44849873 0
0.43921566 -0.075494289 -0.4533596 0
0.53761768 -0.036051989 -0.46784496 0
0.63300037 0.0021953583 -0.47850418 0
0.73243237 0.087800503 -0.48867989 0
0.81253815 0.11657476 -0.50298119 0
0.85866356 0.15936542 -0.50822067 0
0.3930006 0.0016479492 -0.447258 0
0.49950886 0.047788143 -0.46267414 0
0.57001495 0.1078546 -0.47224426 0
0.67735386 0.13622904 -0.48710251 0
0.75914001 0.16965938 -0.49417305 0
0.36703968 0.095003605 -0.44433117 0
0.45165443 0.14639187 -0.45782185 0
0.52110386 0.19016767 -0.46610737 0
0.60949993 0.23452353 -0.47625256 0
0.31845474 0.1853478 -0.43830204 0
0.39666748 0.22703218 -0.44915009 0
0.46492863 0.27502084 -0.45685291 0
0.56351852 0.28340268 -0.46821976 0
0.25589371 0.28715372 -0.43106174 0
0.35741711 0.31588864 -0.44438362 0
0.4319191 0.32782316 -0.4506321 0
0.22704124 0.35764027 -0.42560196 0
0.30911255 0.39827776 -0.43484688 0
0.090726852 0.45693088 -0.40060902 0
0.15862656 0.4178946 -0.41435814 0
0.21862316 0.48570228 -0.42144489 0
0.463274 -0.49409842 -0.32996082 0
0.46230412 -0.42185163 -0.32522011 0
0.48895741 -0.37953448 -0.34839344 0
0.47040939 -0.32009172 -0.3460207 0
0.53861523 -0.23177433 -0.39632702 0
0.46566772 -0.2315352 -0.34313488 0
0.53278351 -0.18132687 -0.36883736 0
0.57247639 -0.11767626 -0.39995956 0
0.66893196 -0.059619904 -0.40170288 0
0.60127449 -0.051693678 -0.4302578 0
0.63650131 -0.0058410168 -0.43602467 0
0.7004261 0.056574583 -0.46309376 0
0.85712719 0.17264748 -0.5054884 0
0.97772503 0.20745134 -0.51827908 0
0.75024796 0.22524929 -0.49217796 0
0.82577801 0.22734833 -0.49968338 0
0.93388367 0.28152847 -0.51021957 0
0.70565987 0.28013992 -0.48301411 0
0.77458286 0.31157112 -0.4903717 0
0.89122677 0.36541581 -0.50169468 0
0.99575806 0.42381763 -0.51217079 0
0.59779072 0.32039046 -0.46984768 0
0.65357208 0.38282728 -0.47404671 0
0.75631428 0.4212079 -0.48562527 0
0.4389658 0.36678648 -0.44828033 0
0.52416992 0.39469695 -0.45843124 0
0.60690117 0.47137928 -0.46527767 0
0.70735931 0.49371386 -0.47612 0
0.34216309 0.41364312 -0.43610954 0
0.39764786 0.46548414 -0.44198608 0
0.072799683 0.44622135 -0.38749218 0
0.15772343 0.45343876 -0.39932346 0
0.26963615 0.49291277 -0.41862011 0
0.37728977 -0.49234176 -0.24122429 0
0.44346142 -0.42585492 -0.25524044 0
0.48971653 -0.38044858 -0.26510239 0
0.43562222 -0.3604424 -0.25885391 0
0.48648167 -0.30346227 -0.28108692 0
0.55470943 -0.23551178 -0.30059052 0
0.63295555 -0.19084907 -0.3390913 0
0.47707558 -0.24376535 -0.31976318 0
0.53096104 -0.19128585 -0.32483006 0
0.4751482 -0.49700284 -0.1938839 0
0.44690609 -0.45604157 -0.20203781 0
0.50329685 -0.4060936 -0.20985317 0
0.59237099 -0.4791863 -0.48476028 0
0.42747593 -0.46913981 -0.46433735 0
0.50816345 -0.42562938 -0.47309494 0
0.21741295 -0.45936608 -0.43805504 0
0.26025009 -0.4320035 -0.44120121 0
0.3535347 -0.38692141 -0.45281219 0
0.41721916 -0.35373116 -0.46037579 0
0.21808338 -0.33630729 -0.43436241 0
0.30961323 -0.30187082 -0.44571972 0
0.17686176 -0.2471261 -0.42586136 0
0.2610321 -0.23031378 -0.43743134 0
0.14510918 -0.17795205 -0.42084408 0
0.088685036 -0.10161543 -0.41277885 0
0.99514389 -0.4741838 -0.53629398 0
0.73689461 -0.47961187 -0.50143051 0
0.8628912 -0.43797112 -0.51638603 0
0.61948872 -0.43405008 -0.48595142 0
0.68543816 -0.40466356 -0.49200249 0
0.783885 -0.36345077 -0.50460625 0
0.51933193 -0.37691617 -0.42741203 0
0.57699203 -0.3538568 -0.4621954 0
0.67871761 -0.3262372 -0.49132919 0
0.76041889 -0.29372692 -0.50145721 0
0.43953133 -0.29242086 -0.46149921 0
0.53588963 -0.2833128 -0.44151402 0
0.61600399 -0.22271872 -0.46700573 0
0.32743835 -0.24729395 -0.44604206 0
0.42285538 -0.24130511 -0.45680904 0
0.51090717 -0.19342113 -0.451231 0
0.59488869 -0.13798285 -0.45347309 0
0.62840176 -0.093929529 -0.46603966 0
0.27289486 -0.17275667 -0.43737698 0
0.35900497 -0.15354896 -0.44885254 0
0.42926693 -0.1041131 -0.45626545 0
0.51817608 -0.059080362 -0.46927738 0
0.63313961 -0.0054340363 -0.46857548 0
0.70573521 0.064566135 -0.47085476 0
0.78087616 0.12571836 -0.50330925 0
0.85795403 0.14160848 -0.51033211 0
0.94099426 0.17347288 -0.51873589 0
0.15575695 -0.1443305 -0.42049503 0
0.23775768 -0.11262679 -0.43032455 0
0.30264378 -0.070164919 -0.43895245 0
0.39589024 -0.018091679 -0.4519186 0
0.47590351 0.036243677 -0.46438313 0
0.57592392 0.081095219 -0.47781658 0
0.68214607 0.14380693 -0.49182129 0
0.75022507 0.17683125 -0.49760246 0
0.7979908 0.23768473 -0.49964428 0
0.87912369 0.27159357 -0.50743294 0
0.11442566 -0.066025496 -0.41533566 0
0.18133831 -0.033764124 -0.42363834 0
0.24649906 0.01470685 -0.43108368 0
0.34562683 0.070786476 -0.44608021 0
0.43169308 0.13451529 -0.45864582 0
0.53719902 0.17505741 -0.47306633 0
0.63299179 0.22698641 -0.48205471 0
0.69082928 0.27072144 -0.48692226 0
0.77873802 0.34465146 -0.4925766 0
0.87225533 0.36238313 -0.50294018 0
0.035909653 0.036753416 -0.40572739 0
0.12245655 0.04845953 -0.41614151 0
0.20916367 0.10507751 -0.42665291 0
0.31108093 0.16988158 -0.44158363 0
0.39588737 0.2171452 -0.45301533 0
0.47756481 0.25254107 -0.46305943 0
0.59634781 0.28528404 -0.47474766 0
0.62653542 0.36531496 -0.47637272 0
0.73282528 0.38471365 -0.48661137 0
0.85551357 0.46203685 -0.49750805 0
-0.0079622269 0.12747169 -0.40028954 0
0.062598228 0.13444471 -0.40902901 0
0.16938782 0.19658256 -0.42225647 0
0.26432228 0.2504282 -0.43521786 0
0.35218334 0.29617953 -0.44711113 0
0.41544819 0.34427619 -0.45266533 0
0.5220623 0.39020824 -0.46375465 0
0.6216116 0.44426703 -0.47227859 0
-0.043503761 0.19928002 -0.39505386 0
0.022363663 0.24360085 -0.40417671 0
0.10406017 0.28763819 -0.41424847 0
0.20762157 0.33704448 -0.42819118 0
0.31075382 0.40529966 -0.43873787 0
0.40579796 0.43282175 -0.44931507 0
0.47067451 0.46494341 -0.45327377 0
-0.088465691 0.30209613 -0.38999557 0
-0.023010254 0.32696104 -0.39802647 0
0.071169853 0.37964892 -0.40516663 0
0.17351818 0.41699576 -0.41506577 0
0.25096798 0.46142268 -0.42132759 0
-0.13574409 0.37628722 -0.38557243 0
-0.050020218 0.41880202 -0.39630318 0
0.029603004 0.45994282 -0.38912201 0
-0.18084908 0.46851897 -0.3827486 0
0.44344521 -0.46413112 -0.27772522 0
0.50792027 -0.4084363 -0.33100891 0
0.48960018 -0.31093979 -0.3165741 0
0.55210876 -0.25645995 -0.32121563 0
0.53969193 -0.19541955 -0.35596561 0
0.61333084 -0.14710593 -0.37254429 0
0.66474628 -0.062423229 -0.40754509 0
0.46182442 -0.45833993 -0.23161316 0
0.51220989 -0.39485908 -0.23892498 0
0.50597286 -0.31495547 -0.26102448 0
0.30607796 -0.49259853 -0.4535265 0
0.36746883 -0.44776392 -0.46105671 0
0.083444595 -0.49731541 -0.42090607 0
0.17953014 -0.46384096 -0.43509674 0
0.2462492 -0.42841458 -0.44510365 0
0.29256153 -0.36795926 -0.45018578 0
0.028218269 -0.42310762 -0.41311836 0
0.13191319 -0.38730383 -0.42885494 0
0.20023537 -0.32211423 -0.43676758 0
-0.0077791214 -0.32412314 -0.40787411 0
0.064310074 -0.29381657 -0.41760921 0
0.13862514 -0.26635456 -0.42684555 0
-0.043721199 -0.22158599 -0.401227 0
0.031671524 -0.19155312 -0.41093826 0
0.11614323 -0.20361614 -0.42222214 0
-0.081449509 -0.12265086 -0.39451313 0
-0.020847321 -0.1168921 -0.40280724 0
-0.11923885 -0.038495541 -0.39066601 0
-0.053583145 -0.018805742 -0.39806271 0
-0.13945961 0.01328826 -0.38806152 0
-0.13405609 0.070535898 -0.38846302 0
-0.17239475 0.14207339 -0.38365078 0
-0.20800686 0.22044921 -0.37886333 0
-0.2649765 0.31052709 -0.37249947 0
-0.347785 0.40193892 -0.36492062 0
-0.30931187 0.41461253 -0.36987591 0
-0.24891663 0.44439316 -0.37788868 0
-0.39746571 0.48049355 -0.36114407 0
0.97153091 -0.47691369 -0.53550816 0
0.76170158 -0.48930359 -0.51065731 0
0.8601141 -0.44012976 -0.52014446 0
0.95037174 -0.37774563 -0.53023624 0
0.60483265 -0.445611 -0.48978901 0
0.69143295 -0.40335703 -0.50004101 0
0.79260826 -0.36499906 -0.51010609 0
0.82708549 -0.29132843 -0.51263618 0
0.37872314 -0.41117883 -0.4617939 0
0.4722929 -0.41737652 -0.47394371 0
0.58232975 -0.3672173 -0.48468781 0
0.64683437 -0.32753491 -0.49240685 0
0.75117779 -0.28119016 -0.50365639 0
0.78812695 -0.2121799 -0.50955296 0
0.33537579 -0.34099221 -0.45408249 0
0.43761253 -0.30426168 -0.4673481 0
0.51938438 -0.27425075 -0.47538185 0
0.62481499 -0.23932815 -0.47742081 0
0.68494225 -0.17209363 -0.48019314 0
0.3055706 -0.27872777 -0.44933796 0
0.38796902 -0.22614622 -0.45753384 0
0.50381279 -0.20406771 -0.47112465 0
0.59873009 -0.14244843 -0.4522171 0
0.64133263 -0.066884756 -0.46350479 0
0.70190239 -0.032303333 -0.48968506 0
0.1745472 -0.22071409 -0.43119717 0
0.25934887 -0.1917634 -0.44031048 0
0.34938049 -0.13252449 -0.45081425 0
0.42020226 -0.12172866 -0.4605999 0
0.5208807 -0.065782785 -0.47281551 0
0.59970284 -0.0014483929 -0.48385334 0
0.7016573 0.051152945 -0.47690201 0
0.80670834 0.11050582 -0.4993906 0
0.87218189 0.17047977 -0.51704884 0
0.97619247 0.18066907 -0.52902508 0
0.12290382 -0.1390202 -0.42141819 0
0.21725941 -0.097040892 -0.43328762 0
0.29441261 -0.063662529 -0.44207478 0
0.37685299 -0.024397135 -0.45292091 0
0.44062805 0.02459693 -0.46259785 0
0.55518913 0.091005564 -0.47824478 0
0.65180492 0.13293076 -0.49092197 0
0.74603748 0.20523477 -0.50170612 0
0.84011936 0.22919393 -0.5107336 0
0.93753242 0.25537324 -0.52037239 0
0.9993639 0.32895279 -0.52500343 0
0.025849342 -0.097566843 -0.40733051 0
0.083098412 -0.053415298 -0.41516495 0
0.14479256 -0.016265154 -0.42318535 0
0.24567509 0.033649206 -0.43581581 0
0.34155273 0.075653553 -0.44801807 0
0.40898991 0.11231446 -0.45821762 0
0.48106575 0.15741658 -0.46838474 0
0.59050465 0.22215796 -0.48337841 0
0.6986866 0.29162884 -0.49181461 0
0.78752899 0.31179643 -0.50330257 0
0.87165546 0.36077642 -0.51015568 0
-0.010974884 -0.013934612 -0.4034586 0
0.008849144 0.035657167 -0.40632248 0
0.099185944 0.074427128 -0.41800022 0
0.21042538 0.12399697 -0.43203545 0
0.29867744 0.171139 -0.44283772 0
0.36976051 0.2022686 -0.45330524 0
0.43933296 0.24425578 -0.46364784 0
0.54973602 0.31022477 -0.47572041 0
0.65374756 0.36741376 -0.48321247 0
0.74456596 0.38604355 -0.4945879 0
0.82098675 0.44421911 -0.5006218 0
0.89921856 0.48926997 -0.5079813 0
-0.034647942 0.10199594 -0.40031338 0
0.05903244 0.17044473 -0.41304111 0
0.17352772 0.18614697 -0.42784786 0
0.22804356 0.24403381 -0.43419361 0
0.33003998 0.28242922 -0.44861317 0
0.40583229 0.34948874 -0.45746231 0
0.51052284 0.38482094 -0.46764469 0
0.60730648 0.43733096 -0.47618103 0
-0.15014553 0.17594504 -0.3852644 0
-0.077005386 0.19321847 -0.39546013 0
0.0095825195 0.25412035 -0.40720654 0
0.10653591 0.27025127 -0.41924572 0
0.19529343 0.32223558 -0.43030739 0
0.29251862 0.36181259 -0.44328403 0
0.38394547 0.44216728 -0.45053291 0
0.48197556 0.47304988 -0.46033859 0
-0.12731361 0.28529215 -0.3893671 0
-0.020872116 0.31667471 -0.40289688 0
0.068547249 0.3935883 -0.41350079 0
0.15808964 0.42520261 -0.42166519 0
0.23955727 0.47260523 -0.42721367 0
-0.17512417 0.35877323 -0.38414478 0
-0.077153206 0.40457869 -0.39721012 0
0.02317524 0.49569225 -0.39952469 0
-0.20754623 0.44623709 -0.38276196 0
0.44537926 -0.4373064 -0.29157448 0
0.52696228 -0.40197515 -0.32382679 0
0.5659132 -0.34072495 -0.36899948 0
0.51102543 -0.29632545 -0.30916214 0
0.54298592 -0.25314832 -0.33244705 0
0.61445332 -0.23102427 -0.3894577 0
0.56254101 -0.14990854 -0.36623383 0
0.64260101 -0.10754108 -0.37682152 0
0.74648762 -0.047015905 -0.4151001 0
0.54817009 -0.082660675 -0.38725662 0
0.64787292 -0.030738115 -0.42025852 0
0.57146454 -0.45060301 -0.2093544 0
0.4647522 -0.44432354 -0.25125122 0
0.52095509 -0.3883307 -0.24166012 0
0.4982729 -0.33837223 -0.27307606 0
0.55974483 -0.28969598 -0.27252007 0
-0.80366325 0.47126007 -0.29815483 0
0.74501991 -0.47586203 -0.49342537 0
0.82905006 -0.45398784 -0.50346756 0
0.55582047 -0.47950649 -0.46988392 0
0.62224388 -0.4388175 -0.47920227 0
0.71862888 -0.40703988 -0.48819828 0
0.79004765 -0.37941241 -0.49844456 0
0.40740585 -0.43466067 -0.45159721 0
0.5078001 -0.36385632 -0.46159172 0
0.58852959 -0.34300923 -0.47168446 0
0.66726208 -0.30022001 -0.48050308 0
0.1839304 -0.45370793 -0.4220438 0
0.28456974 -0.41832733 -0.43579197 0
0.37480545 -0.38478804 -0.44653225 0
0.44661427 -0.30007792 -0.4522562 0
0.54659081 -0.23934579 -0.46339417 0
0.64622784 -0.21485591 -0.47574139 0
-0.025752068 -0.46652055 -0.39173031 0
0.028986931 -0.41548657 -0.39931202 0
0.1462841 -0.37275457 -0.41603756 0
0.23260498 -0.32170534 -0.42523384 0
0.31566334 -0.29591465 -0.43652153 0
0.39171124 -0.22781134 -0.44368267 0
0.53028774 -0.17745781 -0.45939541 0
0.59652519 -0.10350752 -0.47057533 0
-0.25021648 -0.47487617 -0.35643768 0
-0.15923405 -0.41977596 -0.37190151 0
-0.094339371 -0.36685419 -0.38116169 0
0.021230698 -0.33938932 -0.39859676 0
0.076615334 -0.27645445 -0.40451813 0
0.16518402 -0.2378521 -0.41524696 0
0.27483845 -0.20160294 -0.42853355 0
0.36112118 -0.13703823 -0.43871403 0
0.48322773 -0.074270964 -0.45442581 0
0.52902412 -0.048336744 -0.46041393 0
-0.32826138 -0.44059992 -0.34340286 0
-0.30486107 -0.38387251 -0.3484869 0
-0.22292519 -0.33843732 -0.36171818 0
-0.13542938 -0.28069448 -0.37558556 0
-0.036296844 -0.23145127 -0.38891125 0
0.046188354 -0.20012045 -0.39779377 0
0.13300419 -0.1372354 -0.4087944 0
0.22470665 -0.093874454 -0.41943169 0
0.30810547 -0.10008073 -0.42903996 0
0.36771011 -0.027442932 -0.43799782 0
0.43307781 0.049488783 -0.4478693 0
-0.35283756 -0.29222345 -0.34118462 0
-0.25031185 -0.25528359 -0.35724068 0
-0.1733532 -0.18647885 -0.36955643 0
-0.068825722 -0.14800692 -0.3818779 0
0.015439987 -0.1244638 -0.39190483 0
0.087984085 -0.046776533 -0.40197086 0
0.17738342 0.018402815 -0.41311836 0
0.25817394 0.0080840588 -0.42313862 0
0.31851482 0.088864565 -0.43148232 0
0.39041615 0.1388185 -0.44282436 0
-0.38947201 -0.20334959 -0.33713531 0
-0.30948067 -0.16380143 -0.35054588 0
-0.21355343 -0.1103754 -0.36309528 0
-0.13695526 -0.063299656 -0.3734417 0
-0.050656319 -0.027901411 -0.38442993 0
0.039516449 0.034840584 -0.39609909 0
0.12432766 0.10012674 -0.40609169 0
0.20065975 0.12934494 -0.41664219 0
0.27228165 0.17757392 -0.42627525 0
0.35487556 0.22301555 -0.43740749 0
-0.44964695 -0.10041404 -0.33323193 0
-0.35294724 -0.077164412 -0.34589863 0
-0.26204586 -0.016367435 -0.35711765 0
-0.17584229 0.015427828 -0.3691206 0
-0.10091496 0.059154987 -0.37830257 0
-0.008266449 0.11946344 -0.39052582 0
0.074297905 0.16669106 -0.39960098 0
0.15223408 0.2335763 -0.41037846 0
0.23894882 0.24809527 -0.42161942 0
0.31233406 0.30558825 -0.43205166 0
-0.48652172 -0.021388531 -0.32956505 0
-0.40210819 0.0049197674 -0.33962822 0
-0.33035946 0.067475319 -0.34930038 0
-0.24002171 0.090845108 -0.36053753 0
-0.14283276 0.14728856 -0.37287331 0
-0.054375648 0.21764088 -0.38427353 0
0.022605896 0.25974154 -0.39391613 0
0.12146664 0.28559899 -0.4073391 0
0.18834305 0.34447455 -0.41523266 0
0.28128815 0.36544251 -0.42658138 0
-0.52522278 0.05254817 -0.32464123 0
-0.44900799 0.11117864 -0.3338604 0
-0.35765648 0.13691401 -0.34599495 0
-0.28095245 0.18280244 -0.35498905 0
-0.20129013 0.24075866 -0.36560154 0
-0.11510372 0.29667449 -0.37619305 0
-0.020951271 0.33849978 -0.38865662 0
0.069407463 0.40248108 -0.3973608 0
0.14713573 0.41891146 -0.40997219 0
-0.56731606 0.1620295 -0.31954288 0
-0.49365711 0.19688892 -0.3287077 0
-0.3944397 0.24360132 -0.34093761 0
-0.31419182 0.27953315 -0.35173702 0
-0.24539089 0.35368133 -0.36176777 0
-0.16491699 0.38218856 -0.37198544 0
-0.065213203 0.42623258 -0.38509083 0
0.022572517 0.46680093 -0.38200569 0
-0.62337017 0.25028539 -0.31337166 0
-0.53008747 0.28336358 -0.32506466 0
-0.44477654 0.34214354 -0.33701229 0
-0.3662405 0.37106776 -0.34750366 0
-0.28681183 0.41134477 -0.35800838 0
-0.2080698 0.46405101 -0.36921597 0
-0.66917896 0.33626103 -0.30989552 0
-0.57828999 0.37484097 -0.32187748 0
-0.49044037 0.41669703 -0.33376408 0
-0.41417599 0.45843792 -0.34398651 0
-0.33839607 0.49148107 -0.35407734 0
-0.72884083 0.41445422 -0.30503178 0
-0.63953114 0.45030189 -0.31669903 0
0.97109032 -0.49854565 -0.52237034 0
0.94625282 -0.42788959 -0.51666546 0
0.52179432 -0.47647595 -0.33135414 0
0.79006004 -0.3447423 -0.49548721 0
0.90897083 -0.33748603 -0.51261044 0
0.51671505 -0.35944152 -0.35343361 0
0.75706005 -0.24711394 -0.49122715 0
0.51054859 -0.29890943 -0.34449577 0
0.56854725 -0.29428363 -0.38994026 0
0.60739803 -0.20504451 -0.42649174 0
0.53673458 -0.20513272 -0.36137104 0
0.60354805 -0.12812543 -0.41952133 0
0.63840771 -0.063481331 -0.42053223 0
0.58549213 -0.035808563 -0.45270252 0
0.66830921 -0.012476921 -0.45879745 0
0.69247818 0.063118219 -0.46817398 0
0.75804996 0.097663879 -0.46818638 0
0.95081902 0.18141699 -0.51039314 0
0.52671814 0.068984985 -0.46166039 0
0.58869076 0.10456967 -0.4702425 0
0.70794201 0.17291307 -0.4832468 0
0.8096714 0.20134878 -0.49427032 0
0.88326836 0.29156542 -0.49771309 0
0.99515152 0.30623198 -0.51080036 0
0.51342773 0.17300844 -0.45894432 0
0.62852383 0.23912692 -0.47193146 0
0.72269344 0.33915591 -0.47913742 0
0.76683617 0.27506876 -0.48502064 0
0.83136272 0.37108684 -0.48893642 0
0.95638561 0.36666346 -0.50382423 0
0.49288368 0.29420757 -0.45483017 0
0.59708023 0.35035563 -0.46325684 0
0.68992329 0.38877368 -0.47368813 0
0.78883362 0.43485403 -0.48164368 0
0.89130116 0.46647668 -0.49215889 0
0.4217062 0.35703826 -0.44343662 0
0.54327488 0.42850995 -0.45528603 0
0.64865398 0.45399833 -0.46472836 0
0.35156822 0.40739918 -0.43311405 0
0.41120052 0.45898962 -0.43753147 0
0.50196743 0.49019051 -0.4480772 0
0.20256901 0.44201803 -0.40924454 0
0.29697037 0.48672962 -0.41652393 0
0.45410633 -0.44405317 -0.24618244 0
0.51446533 -0.40508604 -0.29413223 0
0.49365425 -0.31723595 -0.28186226 0
0.53138447 -0.23359704 -0.31050014 0
0.49212742 -0.24398351 -0.30048561 0
0.56567669 -0.1995225 -0.32316017 0
0.59306908 -0.14233518 -0.3498745 0
0.67671204 -0.078522921 -0.37317753 0
0.48801422 -0.47212982 -0.20132065 0
0.53638649 -0.42107224 -0.2163353 0
0.12788391 -0.46267867 -0.4166832 0
-0.093878746 -0.47555137 -0.38292027 0
-0.009803772 -0.4343214 -0.39577961 0
0.090148926 -0.40381885 -0.41046333 0
-0.24134827 -0.46026635 -0.3591938 0
-0.13581276 -0.41383743 -0.37624931 0
-0.042125702 -0.34747338 -0.39113426 0
0.041200638 -0.33629513 -0.40239525 0
-0.42949867 -0.46310616 -0.3285017 0
-0.3693924 -0.42086411 -0.33975983 0
-0.27470875 -0.37306404 -0.3555479 0
-0.16211987 -0.3048389 -0.37415504 0
-0.10501385 -0.28435493 -0.38069534 0
-0.028596878 -0.24234247 -0.39148331 0
-0.64765263 -0.47241521 -0.29309464 0
-0.58129215 -0.43124533 -0.3042717 0
-0.49967575 -0.38754559 -0.31824398 0
-0.41194248 -0.3386333 -0.33369923 0
-0.31421757 -0.30126286 -0.34928703 0
-0.21985435 -0.23896456 -0.3645277 0
-0.14332676 -0.18065166 -0.37481976 0
-0.069225311 -0.15873384 -0.38411808 0
-0.68799305 -0.37643766 -0.28751945 0
-0.6239872 -0.32830572 -0.29855919 0
-0.55443001 -0.28825593 -0.3113327 0
-0.45209026 -0.24780083 -0.32898808 0
-0.3414259 -0.20209813 -0.3475523 0
-0.25766468 -0.12953734 -0.36098003 0
-0.20308971 -0.09024334 -0.36720753 0
-0.11577892 -0.063702583 -0.37850952 0
-0.72358418 -0.2942307 -0.28403473 0
-0.67938614 -0.24435139 -0.29345798 0
-0.5838089 -0.20601487 -0.31019592 0
-0.49365044 -0.14994812 -0.32686043 0
-0.39389706 -0.10744667 -0.34252834 0
-0.31357193 -0.067754984 -0.35267353 0
-0.22337914 -0.026222229 -0.36406422 0
-0.16320419 0.029987574 -0.37294197 0
-0.76133156 -0.20243788 -0.28299522 0
-0.71870613 -0.14809418 -0.29219627 0
-0.61970234 -0.11177206 -0.30936909 0
-0.52436543 -0.043523073 -0.32645893 0
-0.45009232 -0.0044920444 -0.33633709 0
-0.37020779 0.042103291 -0.34562016 0
-0.2866888 0.075843811 -0.35682011 0
-0.20431137 0.11165142 -0.36763 0
-0.81145191 -0.089845657 -0.28094864 0
-0.76059246 -0.071522951 -0.28959084 0
-0.66145229 -0.029646873 -0.30663776 0
-0.57615757 0.020152569 -0.32017994 0
-0.48429298 0.071002722 -0.33165264 0
-0.40772915 0.10769296 -0.34114838 0
-0.33878803 0.15879369 -0.35008717 0
-0.25107765 0.19686985 -0.361763 0
-0.86031437 -0.0032849312 -0.2781744 0
-0.80527687 0.017772198 -0.28727531 0
-0.71360493 0.060249567 -0.3028574 0
-0.63337708 0.12223935 -0.31328201 0
-0.529212 0.16223121 -0.32607746 0
-0.45765781 0.18646789 -0.33587742 0
-0.375 0.23179507 -0.34565449 0
-0.90723324 0.079844236 -0.27530479 0
-0.84127808 0.12133837 -0.28673458 0
-0.76163769 0.14095426 -0.29717827 0
-0.68150997 0.19329619 -0.30690765 0
-0.5928669 0.2256186 -0.31881332 0
-0.51018333 0.27582169 -0.33019161 0
-0.42449665 0.32809567 -0.34167385 0
-0.35180664 0.37964296 -0.35192871 0
-0.96235085 0.16840434 -0.27161884 0
-0.89495945 0.1852808 -0.28108692 0
-0.80937767 0.22884703 -0.29255486 0
-0.7371521 0.27989364 -0.30277824 0
-0.63411617 0.3246541 -0.31656361 0
-0.55254078 0.40139556 -0.328475 0
-0.47364426 0.42562699 -0.33872128 0
-0.4027462 0.47070813 -0.34849739 0
-0.94803905 0.2668283 -0.27676678 0
-0.88014507 0.31846285 -0.28691292 0
-0.78162861 0.36445522 -0.29984856 0
-0.69955254 0.42203784 -0.31153965 0
-0.60037327 0.47951174 -0.32492828 0
-0.91732979 0.41678047 -0.2850914 0
-0.83483887 0.45681262 -0.29605293 0
0.79958439 -0.4633739 -0.50201035 0
0.96615601 -0.40270519 -0.52210903 0
0.56800938 -0.48273921 -0.47424316 0
0.61606121 -0.43598199 -0.4792881 0
0.75765896 -0.40886331 -0.49469185 0
0.92350101 -0.3093493 -0.51739025 0
0.3495779 -0.49146008 -0.44785404 0
0.4115324 -0.44685674 -0.4545784 0
0.49545383 -0.40554333 -0.46351242 0
0.60383892 -0.39256716 -0.4745121 0
0.72103405 -0.31368971 -0.49046612 0
0.76124096 -0.26227498 -0.49533844 0
0.23535538 -0.44015861 -0.43147373 0
0.30008793 -0.39174128 -0.43967438 0
0.36752892 -0.35499239 -0.44702244 0
0.45913887 -0.32543802 -0.45632362 0
0.5660181 -0.26070476 -0.45887089 0
0.65466976 -0.21521616 -0.47651672 0
0.19688034 -0.35832596 -0.42431927 0
0.26856995 -0.32223821 -0.43312454 0
0.33528328 -0.28113699 -0.44017887 0
0.39979649 -0.21320009 -0.44683075 0
0.50568199 -0.20238924 -0.45879364 0
0.5920496 -0.13441181 -0.46679211 0
0.072342873 -0.27994943 -0.40588474 0
0.16007328 -0.28176379 -0.41726494 0
0.2051506 -0.19986534 -0.42187691 0
0.27495861 -0.17660809 -0.43155575 0
0.35624504 -0.12819815 -0.43921471 0
0.44475269 -0.085267067 -0.45221138 0
0.55020428 -0.043730021 -0.4665308 0
0.64474583 0.01297164 -0.4792738 0
0.044071198 -0.2244792 -0.40071774 0
0.10585403 -0.18082261 -0.40806961 0
0.18226242 -0.14547658 -0.41536999 0
0.24605179 -0.10752439 -0.42385864 0
0.30824852 -0.032946825 -0.43315506 0
0.42477131 -0.022305727 -0.44810009 0
0.52547359 0.015863895 -0.46275902 0
0.59445 0.12173247 -0.47227097 0
-0.00091838837 -0.14221358 -0.39360714 0
0.044008255 -0.10371447 -0.39793873 0
0.12834549 -0.036782742 -0.4087677 0
0.1928463 0.00067853928 -0.41720676 0
0.27713203 0.032232046 -0.42913342 0
0.36638641 0.092502117 -0.44094563 0
0.46706867 0.12642336 -0.45594597 0
0.56359291 0.18255162 -0.4674902 0
-0.059756279 -0.015096664 -0.38596439 0
0.0043449402 -0.011627197 -0.39363289 0
0.16309643 0.068896294 -0.41301727 0
0.24536324 0.11086535 -0.42373085 0
0.32394218 0.18394613 -0.43449879 0
0.42407227 0.2191422 -0.4493885 0
0.50525951 0.26878953 -0.4593792 0
-0.060442924 0.062949896 -0.38528252 0
0.047647476 0.12342262 -0.39916897 0
0.10364437 0.18038702 -0.40614223 0
0.17938614 0.23698759 -0.41576958 0
0.26787281 0.27635765 -0.42858124 0
0.3852272 0.29256129 -0.44371414 0
0.45189953 0.34579396 -0.4508028 0
-0.11560345 0.17836952 -0.37907028 0
0.020153999 0.19077945 -0.3942709 0
0.037636757 0.28951931 -0.39948368 0
0.12757874 0.3270812 -0.40994453 0
0.23138905 0.34554505 -0.42324352 0
0.31194592 0.39590859 -0.43242073 0
0.40461254 0.41563416 -0.44120693 0
-0.15720558 0.2720542 -0.37352467 0
-0.048989296 0.30024147 -0.38745022 0
0.0089416504 0.34816265 -0.39537048 0
0.095742226 0.42605925 -0.39937973 0
0.20524502 0.43523479 -0.4119997 0
-0.27638149 0.28756547 -0.35881615 0
-0.22529602 0.35449743 -0.36637783 0
-0.10352421 0.40837526 -0.38252163 0
-0.0012521744 0.44001794 -0.38833141 0
0.074273109 0.49385023 -0.37328148 0
0.16064548 0.48859954 -0.39191532 0
-0.24428654 0.43630981 -0.36647797 0
-0.13371658 0.47471237 -0.38062572 0
0.48783302 -0.42907953 -0.31436825 0
0.53531265 -0.37151575 -0.3461113 0
0.51241302 -0.28997493 -0.34200954 0
0.58562946 -0.21799445 -0.40670013 0
0.56217289 -0.17468238 -0.36081028 0
0.60785007 -0.098288059 -0.41619205 0
0.70561218 -0.065772533 -0.40281677 0
0.67475224 0.0094730854 -0.44960499 0
0.76377678 0.096922874 -0.48290253 0
0.96463776 0.19671464 -0.51523399 0
0.68863106 0.18421197 -0.48428154 0
0.81447983 0.20461988 -0.49614334 0
0.93181896 0.24893165 -0.50765896 0
0.65975761 0.23191476 -0.47722721 0
0.7602272 0.28691244 -0.48571682 0
0.86409473 0.34717798 -0.49582767 0
0.96590424 0.40266728 -0.50537872 0
0.59359455 0.32832098 -0.466259 0
0.68987465 0.38515973 -0.47561264 0
0.78232002 0.46093965 -0.48344707 0
0.52455044 0.42635608 -0.4549551 0
0.64293671 0.45423651 -0.46556664 0
0.47754574 0.49881101 -0.44616413 0
0.4435463 -0.47832561 -0.23377991 0
0.50251007 -0.42806625 -0.22920799 0
0.4588089 -0.35119462 -0.25996876 0
0.52005196 -0.32328868 -0.26915836 0
0.58063412 -0.21796799 -0.3105154 0
0.52749538 -0.23279643 -0.30835724 0
-0.005572319 -0.47906494 -0.39323997 0
0.062474251 -0.43888927 -0.40526199 0
-0.21975422 -0.49245787 -0.36113358 0
-0.13126087 -0.41611695 -0.37403488 0
-0.039980888 -0.38536453 -0.38811207 0
0.039237022 -0.38072944 -0.40090179 0
-0.44025326 -0.48526955 -0.32510567 0
-0.37061787 -0.42250204 -0.33595276 0
-0.2709322 -0.40210271 -0.35335922 0
-0.19342327 -0.33380771 -0.36570358 0
-0.081335068 -0.29487467 -0.38042355 0
-0.65916061 -0.47399235 -0.28878021 0
-0.5630579 -0.42642212 -0.3055048 0
-0.48431969 -0.39346576 -0.31873894 0
-0.39228153 -0.35005116 -0.33380032 0
-0.31606674 -0.29653096 -0.34704018 0
-0.23062134 -0.2466085 -0.35972118 0
-0.1349678 -0.19957805 -0.37268639 0
-0.80025768 -0.43838096 -0.26593304 0
-0.68418884 -0.38984179 -0.28584957 0
-0.61687088 -0.33600855 -0.29784393 0
-0.54691505 -0.30214596 -0.30966759 0
-0.44489956 -0.25681353 -0.32783127 0
-0.3540678 -0.20345068 -0.34406853 0
-0.24826908 -0.15570235 -0.35736752 0
-0.17162228 -0.11352563 -0.36750412 0
-0.84369278 -0.37424159 -0.26057434 0
-0.77545357 -0.31934428 -0.27343273 0
-0.6886158 -0.2696588 -0.28899193 0
-0.57551575 -0.2210927 -0.30899239 0
-0.51614094 -0.15585208 -0.32150459 0
-0.40945339 -0.13180017 -0.33729553 0
-0.31363869 -0.076450348 -0.34994316 0
-0.21596909 -0.022315264 -0.36223316 0
-0.89240551 -0.26319623 -0.25903988 0
-0.79598236 -0.22093296 -0.27517509 0
-0.7056675 -0.18428302 -0.29073524 0
-0.63601685 -0.12372017 -0.30505085 0
-0.55423927 -0.067710638 -0.31964207 0
-0.4616394 -0.041081667 -0.33083057 0
-0.35704899 0.024097919 -0.34458351 0
-0.2603426 0.067822456 -0.35657692 0
-0.93617821 -0.17936325 -0.25677681 0
-0.84992123 -0.14224267 -0.27086353 0
-0.7638607 -0.084878683 -0.28721428 0
-0.65830708 -0.036613703 -0.3053894 0
-0.5938406 -0.0088281631 -0.31400394 0
-0.5154438 0.046363354 -0.32410431 0
-0.40262985 0.1086719 -0.3390398 0
-0.29386997 0.12868309 -0.3526659 0
-0.9677906 -0.084036112 -0.25690937 0
-0.89601421 -0.030119896 -0.26976871 0
-0.80346775 -0.005191803 -0.28496456 0
-0.72546387 0.069051504 -0.29868317 0
-0.65142632 0.10417151 -0.30786228 0
-0.5570879 0.13930392 -0.31963062 0
-0.46156216 0.19600749 -0.33226585 0
-0.34677029 0.22153735 -0.34640789 0
-0.94989872 0.051245928 -0.26606655 0
-0.85220432 0.090049982 -0.28138733 0
-0.76256466 0.14132595 -0.29382229 0
-0.67129898 0.18529367 -0.30565834 0
-0.58327007 0.2383399 -0.31732368 0
-0.49578476 0.27302551 -0.32901764 0
-0.41226959 0.34203982 -0.34114265 0
-0.98029137 0.12135625 -0.26518726 0
-0.90489101 0.16599798 -0.27657509 0
-0.8080349 0.22020817 -0.28986073 0
-0.71562481 0.27529836 -0.30274677 0
-0.6388855 0.3388021 -0.31360912 0
-0.5430069 0.36121178 -0.32597351 0
-0.43519402 0.40243578 -0.33958244 0
-0.94674206 0.25450397 -0.27435493 0
-0.85610867 0.31973648 -0.28731918 0
-0.75796604 0.34896851 -0.29969501 0
-0.69553185 0.43202376 -0.30969715 0
-0.59479141 0.4583056 -0.32233715 0
-0.91544437 0.37510586 -0.28183651 0
-0.81978321 0.44291735 -0.29531097 0
-0.73374939 0.4944098 -0.30686092 0
-0.95609188 0.47270918 -0.27974033 0
0.84135437 -0.48201323 -0.50284672 0
0.59706974 -0.48209596 -0.47307682 0
0.68322372 -0.42985153 -0.48181343 0
0.8025856 -0.39874268 -0.49626541 0
0.37207603 -0.48105025 -0.44641304 0
0.46580887 -0.44635248 -0.45637131 0
0.56057262 -0.39528346 -0.46507359 0
0.6371069 -0.34256363 -0.4746151 0
0.75599766 -0.28987265 -0.49041653 0
0.21305275 -0.48005629 -0.42438126 0
0.32263851 -0.37999153 -0.43825436 0
0.43794537 -0.38286734 -0.45067787 0
0.51452827 -0.31100106 -0.45829201 0
0.61168385 -0.27977514 -0.46975136 0
0.18600941 -0.37772512 -0.4185667 0
0.29852104 -0.3253088 -0.43311501 0
0.37675476 -0.27196431 -0.44192791 0
0.45599937 -0.21242714 -0.45078373 0
0.55554581 -0.1620543 -0.46352291 0
0.65134335 -0.13909602 -0.46571445 0
0.68973541 -0.099147558 -0.47957993 0
0.030025482 -0.34719872 -0.39688301 0
0.13083553 -0.28632927 -0.40921307 0
0.24266338 -0.2161572 -0.4226923 0
0.33275414 -0.17689061 -0.43261623 0
0.42834854 -0.13593483 -0.44570255 0
0.54149055 -0.11450863 -0.46070671 0
0.64542103 -0.02523756 -0.47558594 0
-0.018610001 -0.2513628 -0.38797951 0
0.086663246 -0.20223951 -0.40135765 0
0.18822098 -0.096059561 -0.412117 0
0.28090763 -0.069234848 -0.42490196 0
0.39005661 -0.037050724 -0.43978882 0
0.47822285 0.0095739365 -0.45364571 0
0.60289288 0.060836792 -0.47049236 0
-0.079950333 -0.13618565 -0.37958336 0
0.03832531 -0.10136414 -0.39412212 0
0.16963577 -0.090413809 -0.41213512 0
0.23685837 0.024491549 -0.41935062 0
0.32714939 0.068649769 -0.43392849 0
0.41461182 0.14521694 -0.44519043 0
0.45380306 0.079734087 -0.44896793 0
0.5532341 0.16182828 -0.46373653 0
-0.084338188 -0.10450006 -0.37757301 0
-0.013522148 -0.019637585 -0.38768482 0
0.12359047 0.023749352 -0.40563869 0
0.20436096 0.099266529 -0.41487217 0
0.31048298 0.1178267 -0.43044758 0
0.30019951 0.15518403 -0.42749405 0
0.38488293 0.20966816 -0.44082737 0
0.49970913 0.24815845 -0.45399475 0
-0.23313332 0.021380901 -0.35932446 0
-0.13770962 -0.0082027912 -0.37223053 0
-0.053473473 0.071360111 -0.38304138 0
0.087052345 0.11093092 -0.40026188 0
0.15933037 0.18969679 -0.40935802 0
0.2410593 0.25394535 -0.42140484 0
0.3239212 0.31432199 -0.43305779 0
-0.19975758 0.11205268 -0.36487484 0
-0.097146034 0.17017817 -0.37803555 0
0.025291443 0.22497654 -0.39329433 0
0.12481499 0.25676274 -0.40509796 0
0.26060104 0.35469747 -0.42166901 0
-0.30987167 0.16438937 -0.34992313 0
-0.25158691 0.2074542 -0.35862923 0
-0.14135361 0.2509129 -0.37279606 0
-0.062632561 0.29431486 -0.38169575 0
0.065534592 0.34300113 -0.39602566 0
0.16184235 0.38157821 -0.40869236 0
0.19542122 0.43729615 -0.40215206 0
-0.34325314 0.22617888 -0.34533978 0
-0.2997303 0.29775167 -0.35339642 0
-0.20271206 0.3350184 -0.36572075 0
-0.085618019 0.37352562 -0.38088322 0
-0.0085315704 0.4407146 -0.3762207 0
0.09068203 0.46592855 -0.37474537 0
-0.33567333 0.38026667 -0.35097694 0
-0.27195358 0.42691875 -0.36032581 0
-0.16152859 0.45845771 -0.37432003 0
-0.37352085 0.44790292 -0.348629 0
0.99089527 -0.4791491 -0.5228529 0
0.95462418 -0.39692831 -0.51638889 0
0.93481731 -0.3481369 -0.51408482 0
0.50210857 -0.45781755 -0.32646751 0
0.51033497 -0.37977982 -0.35267735 0
0.47633362 -0.33568645 -0.30500221 0
0.50996876 -0.29617834 -0.34509277 0
0.58320522 -0.24961782 -0.41205788 0
0.55724716 -0.16661024 -0.37430573 0
0.61227608 -0.13199782 -0.40857029 0
0.66927528 0.010364294 -0.44266987 0
0.71868324 0.049461603 -0.47551537 0
0.85347366 0.14315367 -0.49863625 0
0.97212791 0.17863679 -0.51106739 0
0.72064209 0.12005758 -0.48439217 0
0.81691456 0.20341134 -0.49034786 0
0.93495178 0.23896694 -0.50253201 0
0.64739513 0.23133397 -0.47207355 0
0.77808952 0.26116896 -0.48392677 0
0.86760807 0.33596492 -0.49232197 0
0.58286285 0.32869339 -0.46070194 0
0.70846272 0.35979295 -0.47419167 0
0.81208038 0.41606355 -0.48321438 0
0.43506622 0.34441638 -0.44283485 0
0.52818584 0.4078455 -0.45185471 0
0.65301323 0.44326305 -0.46294594 0
0.37977028 0.42807674 -0.43301964 0
0.48141003 0.47580028 -0.44366455 0
0.23855591 0.47627521 -0.3891325 0
0.34088802 0.46780896 -0.42251492 0
0.49372196 -0.4280138 -0.26286888 0
0.47375202 -0.36831617 -0.26465225 0
0.51898861 -0.29777813 -0.27959442 0
0.56775284 -0.20446539 -0.31738281 0
0.50433445 -0.47163248 -0.19514751 0
-0.96247768 -0.41795349 -0.25145245 0
-0.99498749 -0.32681704 -0.25041389 0
-0.93563843 -0.28052855 -0.26095486 0
-0.96767616 -0.20248413 -0.26021481 0
-0.99070454 -0.093805075 -0.26230812 0
-0.9836216 0.045155048 -0.26976871 0
-0.97424889 0.17259264 -0.27764225 0
0.11580086 -0.48796082 -0.4227829 0
0.20183659 -0.44683456 -0.43509674 0
0.0028963089 -0.4611547 -0.40589333 0
0.090932846 -0.40660858 -0.41876984 0
0.16618156 -0.37147021 -0.42893028 0
-0.16995811 -0.42629266 -0.37868023 0
-0.041946411 -0.38049555 -0.39840317 0
0.067652702 -0.33821559 -0.41266727 0
0.12469196 -0.27993536 -0.42080975 0
-0.36034966 -0.4299345 -0.34857273 0
-0.27782345 -0.42501855 -0.36197567 0
-0.23623657 -0.31750655 -0.36944199 0
-0.11023712 -0.31609011 -0.38837242 0
-0.018095016 -0.23726439 -0.4000206 0
0.10353851 -0.2282927 -0.41565418 0
-0.67660904 -0.49111676 -0.29425907 0
-0.60720253 -0.43247485 -0.3075037 0
-0.51169586 -0.39611721 -0.32381153 0
-0.42712975 -0.35374689 -0.33776569 0
-0.32687473 -0.30213499 -0.35523891 0
-0.26124191 -0.25770426 -0.36598969 0
-0.17784405 -0.23115182 -0.37823582 0
-0.061783791 -0.15454555 -0.39229679 0
-0.8598547 -0.48558927 -0.26526356 0
-0.81221008 -0.44850993 -0.27284908 0
-0.72352219 -0.39826155 -0.28802967 0
-0.64195633 -0.36575294 -0.30185032 0
-0.56002998 -0.30791998 -0.31589317 0
-0.46091366 -0.27689981 -0.33266449 0
-0.37835407 -0.21109486 -0.34827995 0
-0.28750801 -0.19219589 -0.36336327 0
-0.23292542 -0.11686611 -0.37129974 0
-0.12873173 -0.073852062 -0.3836031 0
-0.036425591 -0.022051573 -0.39579487 0
-0.87410736 -0.3654573 -0.26564407 0
-0.78500938 -0.32520938 -0.28049564 0
-0.67512798 -0.28241301 -0.29962444 0
-0.57517624 -0.2458427 -0.3158884 0
-0.53629589 -0.16935325 -0.3265152 0
-0.42580128 -0.12812352 -0.34499931 0
-0.33340836 -0.087454319 -0.35852242 0
-0.25311375 -0.054270506 -0.36779881 0
-0.21086884 0.032475471 -0.37500286 0
-0.089028358 0.060852051 -0.38936615 0
-0.89301586 -0.29394913 -0.26625347 0
-0.82576084 -0.22326732 -0.2793684 0
-0.72316074 -0.19835567 -0.2964344 0
-0.65610409 -0.13284779 -0.30993366 0
-0.56524754 -0.073891163 -0.32641125 0
-0.46719074 -0.032688379 -0.34116077 0
-0.36947632 -0.0025789738 -0.35365772 0
-0.2986536 0.036291599 -0.3627634 0
-0.21088314 0.058387995 -0.37314606 0
-0.14035702 0.16108799 -0.38376141 0
-0.92011261 -0.1832304 -0.26781464 0
-0.85597515 -0.13382196 -0.27933025 0
-0.78075123 -0.10919142 -0.29158497 0
-0.70019054 -0.038806915 -0.30776596 0
-0.59384155 -0.00958395 -0.32471657 0
-0.5251646 0.073806286 -0.33490086 0
-0.43655586 0.1205225 -0.34648991 0
-0.34751987 0.13637328 -0.3567009 0
-0.27611065 0.17396617 -0.36661243 0
-0.16471577 0.24736023 -0.38042545 0
-0.91213989 -0.049498081 -0.27543926 0
-0.8343029 -0.0099027157 -0.28854847 0
-0.73291779 0.059258223 -0.30719757 0
-0.63652706 0.074949265 -0.31964779 0
-0.5562458 0.14309335 -0.32993031 0
-0.47239971 0.19820309 -0.34114265 0
-0.4032793 0.24031067 -0.35012913 0
-0.3160181 0.25972176 -0.36121368 0
-0.23871613 0.30275369 -0.37087727 0
-0.17431641 0.3637464 -0.3803606 0
-0.88384247 0.086501122 -0.28619003 0
-0.79291534 0.1453588 -0.30059433 0
-0.70960236 0.19243407 -0.31231689 0
-0.60882759 0.23916173 -0.32445526 0
-0.50947952 0.27103567 -0.33730602 0
-0.43882751 0.3164885 -0.34712029 0
-0.35072041 0.34673023 -0.35824108 0
-0.2824688 0.39873934 -0.36837101 0
-0.20759869 0.4586544 -0.37874508 0
-0.92458439 0.16818857 -0.28412151 0
-0.84132576 0.22768497 -0.29650784 0
-0.74905205 0.2782197 -0.30877018 0
-0.64846039 0.31751037 -0.32195282 0
-0.55631065 0.36826611 -0.33450508 0
-0.48007011 0.40197992 -0.34471226 0
-0.39977455 0.44445968 -0.35539913 0
-0.31854057 0.49247694 -0.36642742 0
-0.94425869 0.24844432 -0.28394699 0
-0.87276173 0.3192203 -0.29511642 0
-0.78944683 0.35626698 -0.30602646 0
-0.70377445 0.40538645 -0.31791687 0
-0.63578033 0.47170162 -0.32795143 0
-0.52043819 0.48463774 -0.34222889 0
-0.93790245 0.39999247 -0.28941631 0
-0.84428024 0.44990325 -0.3021822 0
-0.77091694 0.47097754 -0.3114996 0
-0.97811413 0.48461366 -0.28675365 0
0.96846962 -0.39179611 -0.5284996 0
0.56932354 -0.47538114 -0.48241043 0
0.67043972 -0.44057536 -0.49411392 0
0.81100273 -0.41306448 -0.50849152 0
0.94653034 -0.31403399 -0.52528667 0
0.43279934 -0.43386555 -0.46389008 0
0.54804611 -0.41638041 -0.47720814 0
0.62839794 -0.35292053 -0.48718739 0
0.76376247 -0.29814911 -0.5014782 0
0.30501556 -0.4198997 -0.44820976 0
0.3992548 -0.35791421 -0.45771408 0
0.50413513 -0.31418252 -0.4685173 0
0.58279228 -0.25012541 -0.47846031 0
0.73461819 -0.21521902 -0.49760151 0
0.28106785 -0.34980869 -0.44127178 0
0.36344337 -0.27159762 -0.45002937 0
0.45502949 -0.22049236 -0.46117878 0
0.56836414 -0.19528294 -0.47495079 0
0.64455509 -0.17006826 -0.47111893 0
0.67517757 -0.075168848 -0.48920059 0
0.22501945 -0.24215722 -0.4322958 0
0.30278206 -0.15783739 -0.4409523 0
0.42348862 -0.15275168 -0.45568657 0
0.4659071 -0.10322046 -0.46152687 0
0.51034355 -0.053931236 -0.46786022 0
0.10095119 -0.20811057 -0.41264629 0
0.17885971 -0.14043069 -0.42253304 0
0.27556133 -0.096708059 -0.43529224 0
0.36104107 -0.010040045 -0.44788074 0
0.47184944 0.032685995 -0.46332932 0
0.61355305 0.074797153 -0.48282909 0
0.7329855 0.16051173 -0.49787235 0
0.051679611 -0.11781263 -0.40645504 0
0.15289116 -0.077830553 -0.41871071 0
0.22720909 0.010821819 -0.42926311 0
0.33186436 0.071108341 -0.44329643 0
0.46073914 0.083095789 -0.46034527 0
0.57307434 0.17500877 -0.47724056 0
0.65914631 0.28341126 -0.48439407 0
0.70231342 0.21857405 -0.49029636 0
0.015313148 -0.020147085 -0.40137291 0
0.11115074 0.0097110271 -0.41425037 0
0.19713306 0.090996504 -0.42498779 0
0.27602863 0.18512511 -0.43689537 0
0.39831734 0.21753931 -0.45263672 0
0.54008102 0.24078107 -0.47041035 0
0.61653423 0.35674667 -0.47515011 0
-0.035527229 0.083932161 -0.39578533 0
0.062644005 0.11349559 -0.40869999 0
0.14812088 0.19356513 -0.41939926 0
0.25833321 0.23782992 -0.43343639 0
0.34207821 0.32934713 -0.44558716 0
0.47123432 0.34966779 -0.45879841 0
0.58918476 0.40637493 -0.46795464 0
-0.088430405 0.18537855 -0.39012814 0
0.024992943 0.19164419 -0.404356 0
0.026576996 0.21490264 -0.40254116 0
0.11176014 0.28040361 -0.41423988 0
0.20414543 0.34572983 -0.4268589 0
0.302001 0.39042449 -0.43925476 0
0.43344212 0.41289759 -0.4506588 0
0.53024101 0.49092555 -0.46033478 0
-0.12048626 0.27444148 -0.38412762 0
-0.048814774 0.33655286 -0.39586258 0
0.10368156 0.37543488 -0.40646076 0
0.18202972 0.43976378 -0.40999985 0
0.27365017 0.43525481 -0.43393707 0
-0.047652245 0.40988755 -0.39461422 0
0.056259155 0.46531916 -0.38919449 0
0.4865303 -0.49076128 -0.30109024 0
0.52806091 -0.4316082 -0.33196354 0
0.50645542 -0.30101395 -0.341465 0
0.58546352 -0.29536152 -0.4068222 0
0.54290676 -0.18715048 -0.35920143 0
0.61812973 -0.14922786 -0.40678024 0
0.62612343 -0.067225695 -0.43992138 0
0.63528538 -0.039892197 -0.41518974 0
0.72780323 0.051076651 -0.46857452 0
0.89042568 0.16899943 -0.5147047 0
0.85394478 0.23002005 -0.50795174 0
0.97699833 0.29056168 -0.51682091 0
0.80639076 0.3084569 -0.49910069 0
0.75525284 0.39599466 -0.48787785 0
0.86968422 0.44968605 -0.50180244 0
0.69919395 0.48358893 -0.47797585 0
0.47109699 -0.42777538 -0.24409199 0
0.56076145 -0.41697955 -0.22525024 0
0.51389122 -0.35672712 -0.27966595 0
0.5438633 -0.25839663 -0.30756855 0
0.60610962 -0.20192337 -0.32937336 0
-0.95206451 -0.4260993 -0.25200844 0
-0.88791656 -0.38420773 -0.26294327 0
-0.98966026 -0.32799172 -0.25041676 0
-0.91775131 -0.29461169 -0.26262188 0
-0.96349049 -0.20702386 -0.26011658 0
-0.89572144 -0.14133978 -0.27291107 0
-0.92588615 -0.052934647 -0.27284813 0
-0.86253929 -0.058321953 -0.28184128 0
-0.97440434 0.03118372 -0.26994896 0
-0.89463902 0.087063074 -0.28411865 0
-0.92176533 0.17353106 -0.28427505 0
-0.87494278 0.17543364 -0.28948879 0
-0.97076988 0.22007585 -0.27895355 0
-0.90944386 0.29988837 -0.28935814 0
-0.9357481 0.40012693 -0.28887177 0
-0.9910326 0.46287942 -0.28358555 0
0.066883087 -0.49788356 -0.4135561 0
0.18138981 -0.4936974 -0.43175316 0
-0.024985313 -0.4815259 -0.39845943 0
0.048851013 -0.42821646 -0.41119385 0
0.16058445 -0.40872121 -0.42627811 0
-0.23288059 -0.4905026 -0.36741543 0
-0.15457821 -0.43515944 -0.3809042 0
-0.044569969 -0.41494036 -0.39603996 0
0.016079903 -0.34483457 -0.40656471 0
-0.38765717 -0.44193864 -0.3427906 0
-0.26038551 -0.40266705 -0.36389351 0
-0.2016201 -0.3344686 -0.37307358 0
-0.089550972 -0.31394315 -0.39141655 0
-0.019817352 -0.25498247 -0.39937973 0
-0.58701324 -0.47232938 -0.31022644 0
-0.51671124 -0.42048883 -0.32165813 0
-0.44730568 -0.36806917 -0.33295441 0
-0.36178684 -0.30032492 -0.34854984 0
-0.2268858 -0.22179389 -0.37174892 0
-0.13029575 -0.20432878 -0.38336754 0
-0.069874763 -0.14875555 -0.39157009 0
0.046647072 -0.15600872 -0.40731239 0
-0.82516575 -0.45773697 -0.27036762 0
-0.74234772 -0.42384815 -0.28379631 0
-0.63738155 -0.39443231 -0.3018856 0
-0.55825233 -0.29972363 -0.31655025 0
-0.47040272 -0.30350304 -0.32984829 0
-0.41486263 -0.23184919 -0.34174824 0
-0.29384327 -0.19724584 -0.36145687 0
-0.20971775 -0.12657714 -0.37317562 0
-0.10779476 -0.073335171 -0.38572502 0
-0.81138039 -0.38112807 -0.27291203 0
-0.79923248 -0.32383347 -0.27762318 0
-0.69306374 -0.28944445 -0.29596043 0
-0.61733723 -0.20764756 -0.31202602 0
-0.52549171 -0.19206262 -0.3267231 0
-0.4289999 -0.15279078 -0.34347248 0
-0.36454678 -0.098956585 -0.35405731 0
-0.28953266 -0.046518564 -0.36348057 0
-0.20166111 -0.0022950172 -0.37387276 0
-0.085231781 0.035889864 -0.38868332 0
-0.036462784 0.11172175 -0.39501858 0
-0.82349205 -0.23175502 -0.27874279 0
-0.74368191 -0.19183588 -0.29279137 0
-0.6833849 -0.14652658 -0.30473709 0
-0.55085468 -0.10968375 -0.326931 0
-0.46725655 -0.044885397 -0.34007645 0
-0.38939095 -0.022586346 -0.3505125 0
-0.33299446 0.068229437 -0.35807991 0
-0.23165035 0.08285737 -0.36986828 0
-0.16362858 0.1406374 -0.3789444 0
-0.064336777 0.18803573 -0.39144611 0
-0.82384491 -0.14930463 -0.28268623 0
-0.79184914 -0.10520172 -0.2897644 0
-0.70378113 -0.057875395 -0.30583382 0
-0.62376595 -0.014829636 -0.31996632 0
-0.53714561 0.034852982 -0.33119774 0
-0.44023514 0.094344378 -0.34468174 0
-0.3616457 0.14542294 -0.3541441 0
-0.27198029 0.1668036 -0.36575699 0
-0.1987505 0.23225403 -0.37438107 0
-0.10238838 0.27160192 -0.38740349 0
-0.82585907 -0.030693769 -0.28824997 0
-0.75313282 0.049485922 -0.30438995 0
-0.67594528 0.086324692 -0.31322575 0
-0.56962967 0.11111903 -0.32698059 0
-0.46914673 0.17944264 -0.33997345 0
-0.39486122 0.22737432 -0.34974575 0
-0.3174181 0.26861596 -0.36085987 0
-0.2411356 0.33500743 -0.37076378 0
-0.13271713 0.34739375 -0.38444901 0
-0.83128643 0.060039282 -0.2922821 0
-0.7838707 0.12943697 -0.30073738 0
-0.71755791 0.17995405 -0.30873013 0
-0.62660503 0.211092 -0.32108021 0
-0.51583576 0.28169155 -0.33625698 0
-0.43156719 0.32531667 -0.3475132 0
-0.35207748 0.38000226 -0.3587513 0
-0.26074314 0.40310836 -0.37025547 0
-0.16679764 0.45388603 -0.38332462 0
-0.83017254 0.22992706 -0.29701328 0
-0.75713539 0.28466177 -0.3065443 0
-0.65379238 0.30268669 -0.32009029 0
-0.54084492 0.35748792 -0.33525372 0
-0.46082973 0.39927506 -0.34621048 0
-0.37316895 0.44486952 -0.35798931 0
-0.28982449 0.48385549 -0.36911964 0
-0.84714699 0.27489328 -0.29608917 0
-0.7983017 0.34781027 -0.30408192 0
-0.71634579 0.40107274 -0.31577015 0
-0.61737919 0.45271444 -0.32906055 0
-0.49715614 0.49078679 -0.34449768 0
-0.84427452 0.44507694 -0.30137157 0
-0.75615788 0.44517303 -0.31185913 0
0.83873272 -0.48232746 -0.51319408 0
0.67820549 -0.45385098 -0.49267673 0
0.81309414 -0.37670398 -0.50626469 0
0.53235054 -0.44570827 -0.47503471 0
0.63645172 -0.35279703 -0.48561478 0
0.27981758 -0.42238879 -0.44365311 0
0.3914032 -0.39125061 -0.45732021 0
0.4973011 -0.35654092 -0.46868515 0
0.5986948 -0.27610111 -0.4804945 0
0.60655117 -0.23209357 -0.46612358 0
0.74995327 -0.23884535 -0.50098991 0
0.23799515 -0.31318998 -0.4352932 0
0.35759544 -0.29365468 -0.44996262 0
0.44732475 -0.22454739 -0.45877457 0
0.59011745 -0.15644407 -0.47058487 0
0.67904568 -0.10051966 -0.48074532 0
0.12888336 -0.31736088 -0.41891384 0
0.22058487 -0.25588489 -0.43033218 0
0.31587505 -0.20078421 -0.44333553 0
0.39944363 -0.10183191 -0.45196342 0
0.52467155 -0.040498495 -0.4708643 0
0.69141102 -0.03116107 -0.48944473 0
0.082698822 -0.22258162 -0.41199493 0
0.17203808 -0.15806103 -0.42311668 0
0.2801342 -0.11543918 -0.43665123 0
0.27058411 -0.059819937 -0.43332672 0
0.37481689 -0.021662712 -0.44882011 0
0.51724243 0.025403023 -0.46854591 0
0.66449547 0.098482609 -0.48859215 0
0.048816681 -0.12035227 -0.40497875 0
0.14708996 -0.070853233 -0.41791821 0
0.25692654 0.0028159618 -0.43096256 0
0.35346031 0.054564476 -0.44574833 0
0.48034763 0.14225793 -0.46376419 0
0.61271 0.21725893 -0.47914505 0
0.7326622 0.26588917 -0.49506569 0
0.023116112 -0.043326855 -0.40184021 0
0.086777687 0.050442934 -0.41269207 0
0.20763874 0.10893726 -0.42639446 0
0.31861401 0.14651465 -0.44173908 0
0.44993782 0.22830653 -0.4600296 0
0.58275318 0.27399898 -0.47371769 0
-0.0012121201 0.040635586 -0.39827156 0
0.074005127 0.12248778 -0.40974331 0
0.18147945 0.18927693 -0.42295933 0
0.28474712 0.24910474 -0.4371109 0
0.41221714 0.31128192 -0.45326996 0
0.53566265 0.36301064 -0.46491528 0
0.02729702 0.24932671 -0.40399933 0
0.16211414 0.25634909 -0.41999722 0
0.25199795 0.3491962 -0.43170929 0
0.36735725 0.40304279 -0.44319534 0
0.47737789 0.47843838 -0.45393372 0
0.00085735321 0.33912373 -0.40016556 0
0.11952877 0.35347342 -0.41553307 0
0.17575455 0.42451215 -0.41297531 0
0.30484009 0.46812487 -0.42635632 0
-0.034856796 0.43178201 -0.39847183 0
0.043608665 0.45358038 -0.3879261 0
0.15188599 0.48597527 -0.38728237 0
-0.049906731 0.49620295 -0.39737415 0
0.99824333 -0.46622801 -0.53411865 0
0.99295998 -0.42991686 -0.53118896 0
0.9671278 -0.35182548 -0.52864933 0
0.53124237 -0.41014886 -0.35818958 0
0.50567341 -0.35814095 -0.3210907 0
0.5520916 -0.28480005 -0.36802578 0
0.58256435 -0.20577335 -0.35794449 0
0.60409641 -0.17618918 -0.41325474 0
0.59429073 -0.088901758 -0.39140511 0
0.65003204 -0.056495428 -0.43743896 0
0.76027966 0.035907269 -0.46554947 0
0.96545887 0.14150023 -0.52156162 0
0.80558395 0.14843559 -0.50413895 0
0.92289639 0.21667933 -0.51507378 0
0.73587227 0.29336429 -0.48927021 0
0.87437916 0.31399679 -0.50532818 0
0.84320641 0.38494802 -0.497262 0
0.67348194 0.41301942 -0.47727489 0
0.78197765 0.49308491 -0.48727798 0
0.48386765 -0.4550662 -0.24519825 0
0.52601528 -0.34281707 -0.26855278 0
0.55816936 -0.26486683 -0.29937458 0
-0.99564362 0.11311269 -0.27012825 0
-0.96188259 0.25420022 -0.28045845 0
-0.98491859 0.49118757 -0.28520489 0
-0.26745796 -0.49877334 -0.36027622 0
-0.18424416 -0.47236562 -0.37529945 0
-0.078055382 -0.41968226 -0.39145947 0
-0.39206409 -0.46242261 -0.34171391 0
-0.31838608 -0.38765335 -0.35583401 0
-0.23152256 -0.34784913 -0.37061977 0
-0.10709286 -0.32945108 -0.38825321 0
-0.12047577 -0.28172588 -0.38652229 0
-0.63802719 -0.49231648 -0.2994442 0
-0.55951118 -0.43324733 -0.3138876 0
-0.48307419 -0.37009811 -0.32723141 0
-0.38363838 -0.34954643 -0.34311485 0
