# .PCD v0.7 - Point Cloud Data file format
VERSION 0.7
FIELDS x y z intensity
SIZE 4 4 4 4
TYPE F F F F
COUNT 1 1 1 1
WIDTH 1295
HEIGHT 1
VIEWPOINT 0 0 0 1 0 0 0
POINTS 1295
DATA ascii
0.75632381 0.017554283 -0.34117317 0
0.86406231 0.0073957443 -0.34317183 0
0.96580315 0.043623924 -0.33974475 0
0.5234251 0.11957645 -0.35829508 0
0.63190365 0.11972141 -0.35234049 0
0.76234531 0.085856438 -0.34767994 0
0.8536129 0.098250389 -0.34546679 0
0.9616518 0.11111641 -0.34286344 0
0.51607037 0.20042801 -0.36842805 0
0.62882996 0.23753929 -0.36040005 0
0.74820423 0.20442104 -0.35240939 0
0.83956909 0.1982832 -0.34887448 0
0.95630264 0.21016788 -0.34887558 0
0.51537418 0.30013847 -0.37673518 0
0.61571503 0.32262421 -0.37104964 0
0.73671341 0.31218624 -0.35876653 0
0.82652283 0.31176281 -0.35545197 0
0.93470287 0.30203819 -0.35074043 0
0.51511955 0.41031647 -0.3876968 0
0.61706352 0.39861298 -0.37708509 0
0.74406242 0.41760921 -0.37043494 0
0.81046963 0.41755581 -0.36166838 0
0.9567318 0.36750412 -0.36035898 0
0.73334312 0.47652149 -0.37383345 0
0.65506077 -0.47682953 0.95545685 0
0.56859303 -0.41649246 0.95648515 0
0.57834721 -0.33773708 0.94766819 0
0.98453903 -0.48086452 1.1301496 0
0.32572937 -0.44736958 -0.36668497 0
0.42771339 -0.48570061 -0.3678503 0
0.52243614 -0.48729038 -0.36348632 0
0.61767197 -0.4753933 -0.36167672 0
0.94735909 -0.48642826 -0.37468183 0
0.32098198 -0.37335491 -0.36486736 0
0.42107582 -0.39508533 -0.36473587 0
0.5175848 -0.38348007 -0.3624084 0
0.61383629 -0.38317585 -0.36179835 0
0.69584656 -0.38343048 -0.35625014 0
0.80357456 -0.36481094 -0.35035801 0
0.30852699 -0.29358578 -0.36073205 0
0.41176414 -0.30166435 -0.36260974 0
0.5100317 -0.26904774 -0.3629438 0
0.59720707 -0.28710556 -0.35820991 0
0.6826725 -0.28981113 -0.35437539 0
0.78221035 -0.27445316 -0.34961879 0
0.93673897 -0.31081104 -0.35097793 0
0.32487106 -0.17268944 -0.35927799 0
0.40299606 -0.16456795 -0.36468095 0
0.52071762 -0.16778755 -0.35946509 0
0.62432384 -0.19748592 -0.35472006 0
0.72784805 -0.19659138 -0.34784403 0
0.83025551 -0.20808887 -0.34158915 0
0.88386536 -0.21599007 -0.3470419 0
0.31292725 -0.073248863 -0.36289385 0
0.466959 -0.085910797 -0.3570075 0
0.53796768 -0.097967148 -0.35825968 0
0.65050793 -0.094331741 -0.35353988 0
0.74817085 -0.06348896 -0.34851819 0
0.86838722 -0.10999298 -0.34472671 0
0.8712101 -0.054229736 -0.34813297 0
0.98025417 -0.056427956 -0.34072325 0
0.26095963 0.043026924 -0.36079636 0
0.30705738 0.025032997 -0.36435342 0
0.42429829 0.010803223 -0.3655228 0
0.55007076 0.023898125 -0.35985893 0
0.632514 0.0029554367 -0.35343105 0
0.74567795 0.044811249 -0.3533414 0
0.85316658 -0.011591911 -0.34356683 0
0.9138546 0.030374527 -0.34519669 0
0.97745991 0.044745445 -0.34545571 0
0.25184822 0.13464832 -0.3651337 0
0.34251022 0.11401463 -0.36248839 0
0.43915558 0.092311859 -0.3610754 0
0.54094696 0.12154484 -0.36330533 0
0.642272 0.12568188 -0.36445996 0
0.73670673 0.13074684 -0.35623741 0
0.85571766 0.10974503 -0.3525165 0
0.8662138 0.13391685 -0.35747188 0
0.2323637 0.20525455 -0.36545396 0
0.32139397 0.20988083 -0.3644599 0
0.45436668 0.22534275 -0.37424886 0
0.54281139 0.19070816 -0.36790809 0
0.6241188 0.20355701 -0.36445051 0
0.72671032 0.21289253 -0.35970765 0
0.84793472 0.23011208 -0.35937139 0
0.21136379 0.30598927 -0.36915073 0
0.33032799 0.31363297 -0.37553635 0
0.51573753 0.30229187 -0.38008282 0
0.62419319 0.31588459 -0.37287816 0
0.70826626 0.28394508 -0.36068639 0
0.82906628 0.31264687 -0.36142063 0
0.94464207 0.32682037 -0.35783884 0
0.96755409 0.28613949 -0.36047843 0
0.20606804 0.42098331 -0.37928203 0
0.33748436 0.41282082 -0.38689649 0
0.45878983 0.4611187 -0.39677477 0
0.50026703 0.39186668 -0.39108816 0
0.6022253 0.42682648 -0.38584268 0
0.72401619 0.43613338 -0.37824911 0
0.80829906 0.3857317 -0.36311269 0
0.21196365 0.49947929 -0.39004317 0
0.60017395 0.4982481 -0.39257979 0
0.84604073 0.47146416 -0.37824509 0
0.59418774 -0.3833952 0.95753241 0
0.63479233 -0.44730091 0.94768643 0
0.66892815 -0.47175789 1.0481455 0
0.7812233 -0.49785137 1.0596403 0
0.66726112 -0.38208199 1.066201 0
0.77886581 -0.38557053 1.0671365 0
0.19157791 -0.48342133 -0.36590391 0
0.28815269 -0.49775219 -0.36299756 0
0.38347816 -0.4967947 -0.36028284 0
0.48207569 -0.48169994 -0.35738054 0
0.68816185 -0.47387981 -0.34006572 0
0.99091434 -0.44522476 -0.37269387 0
0.067481041 -0.38889027 -0.35866323 0
0.17341805 -0.39734173 -0.36045802 0
0.26981163 -0.38872433 -0.35890988 0
0.36698914 -0.36718178 -0.35699332 0
0.46630573 -0.41653824 -0.35207096 0
0.59545231 -0.42353535 -0.35284039 0
0.69382286 -0.35975552 -0.34729171 0
0.81026173 -0.40328407 -0.337843 0
0.97845078 -0.3369236 -0.34505206 0
0.078914642 -0.28477192 -0.35468596 0
0.19102287 -0.29244995 -0.35742974 0
0.25615597 -0.28292656 -0.35699916 0
0.38305187 -0.25929928 -0.35364711 0
0.46851254 -0.28721428 -0.35815158 0
0.58032608 -0.30474854 -0.35206211 0
0.67930126 -0.28804111 -0.34555516 0
0.78591537 -0.30658054 -0.33765718 0
0.87497902 -0.24910831 -0.33017761 0
0.053954124 -0.17277336 -0.35854232 0
0.15487957 -0.1831646 -0.3595641 0
0.30166912 -0.19753933 -0.3520861 0
0.43667126 -0.14190006 -0.35462087 0
0.44762611 -0.18723583 -0.35562861 0
0.55454159 -0.20647812 -0.34813163 0
0.66133404 -0.19628716 -0.34470427 0
0.76316452 -0.17785358 -0.33803993 0
0.87239456 -0.16275311 -0.33385152 0
0.035748482 -0.048462868 -0.35808507 0
0.092939377 -0.080331802 -0.3595762 0
0.21348953 -0.10455418 -0.35818338 0
0.32417965 -0.097820282 -0.35398909 0
0.41445827 -0.065184593 -0.3525365 0
0.52388477 -0.06791687 -0.34750074 0
0.59429836 -0.0867033 -0.34959361 0
0.65820599 -0.087824821 -0.35091361 0
0.74499035 -0.063150406 -0.33882946 0
0.8633709 -0.086730003 -0.33333933 0
0.015118599 0.0059127808 -0.35478318 0
0.1247797 0.01048851 -0.3598046 0
0.21610546 0.025886536 -0.35935962 0
0.30670738 0.019285202 -0.35630247 0
0.39474392 0.019321442 -0.35240954 0
0.50658798 0.037460327 -0.35071713 0
0.61948204 -0.0089635849 -0.34437004 0
0.73950958 0.028554916 -0.34208509 0
0.86822128 0.034305573 -0.34177822 0
0.011704445 0.12024689 -0.36209926 0
0.10168743 0.098964691 -0.35922822 0
0.18422985 0.10594273 -0.35582256 0
0.28011417 0.10999489 -0.35537484 0
0.38384819 0.09920311 -0.355546 0
0.49845219 0.10326004 -0.35277191 0
0.60944462 0.099751472 -0.34833205 0
0.73191738 0.12204838 -0.34609252 0
0.86021423 0.10471153 -0.34387535 0
0.99154949 0.13627338 -0.33659014 0
-0.012537956 0.20189953 -0.36172697 0
0.072544098 0.21528339 -0.36073771 0
0.17793083 0.20721436 -0.35607138 0
0.25995827 0.18972301 -0.35661107 0
0.35638046 0.19531631 -0.35595602 0
0.52050209 0.20326328 -0.36441383 0
0.60861778 0.20954895 -0.35539675 0
0.71910381 0.20760441 -0.34908623 0
0.84636211 0.18829441 -0.34606069 0
0.99275494 0.24533939 -0.34568533 0
-0.00079345703 0.32200241 -0.37519971 0
0.088270187 0.32008934 -0.36212251 0
0.22242451 0.30982018 -0.35808325 0
0.36613655 0.31747055 -0.36753789 0
0.52824402 0.3354435 -0.37619367 0
0.61987782 0.31792831 -0.36636108 0
0.7126627 0.31100178 -0.35590419 0
0.82219028 0.33447933 -0.35232145 0
0.84497452 0.28535748 -0.35387522 0
0.97608757 0.30511761 -0.34629565 0
0.0046730042 0.40678692 -0.38543183 0
0.083832741 0.4166975 -0.37442937 0
0.2237854 0.40168285 -0.36690676 0
0.37827682 0.4038496 -0.3777734 0
0.52792358 0.41649628 -0.38301048 0
0.62984657 0.43101788 -0.37842384 0
0.7171669 0.40769768 -0.36474627 0
0.8106432 0.40903091 -0.35646769 0
0.16482925 0.49856281 -0.3867335 0
0.38221741 0.48454285 -0.38660419 0
0.53508663 0.48270893 -0.39110014 0
0.85013199 0.48589611 -0.37060961 0
0.62115097 -0.41982269 0.99093783 0
0.70279408 -0.43907833 1.0079858 0
0.55424976 -0.29957867 0.92144883 0
0.6889267 -0.41464329 1.0573624 0
0.7775507 -0.38725853 1.0821587 0
0.67891502 -0.33330727 1.0768726 0
-0.068132401 -0.49627781 -0.37028688 0
0.49562931 -0.48956299 -0.36287135 0
-0.17265415 -0.41224861 -0.36845469 0
-0.083380699 -0.40846634 -0.36291191 0
0.019810677 -0.39602947 -0.36497205 0
0.11783981 -0.40549278 -0.36244348 0
0.18498802 -0.43058586 -0.36689952 0
0.28938389 -0.42205715 -0.36184329 0
0.36617851 -0.41565132 -0.36817378 0
0.49191189 -0.3614912 -0.36682606 0
0.60981846 -0.38338947 -0.35886505 0
0.71718597 -0.40138435 -0.35262248 0
0.94543362 -0.40937614 -0.35617003 0
-0.17029667 -0.32837391 -0.36990616 0
-0.075453758 -0.341506 -0.36788106 0
0.0085992813 -0.29162216 -0.36370078 0
0.1125555 -0.30498695 -0.36394903 0
0.21778679 -0.32522678 -0.36357632 0
0.33411789 -0.31717014 -0.36004806 0
0.4740057 -0.31029606 -0.36296228 0
0.58906078 -0.28677559 -0.35692483 0
0.69467545 -0.30476665 -0.35020164 0
0.81751251 -0.29911518 -0.3399179 0
-0.18628979 -0.21596909 -0.3665936 0
-0.092593193 -0.21085835 -0.36557597 0
-0.0098466873 -0.17788696 -0.36218414 0
0.10750103 -0.20629215 -0.36660734 0
0.2074213 -0.20691109 -0.36515063 0
0.31738758 -0.17909908 -0.36227092 0
0.42735672 -0.16191578 -0.35686189 0
0.45157528 -0.21655941 -0.36095837 0
0.57293892 -0.16992664 -0.35918021 0
0.67330742 -0.19999695 -0.3502714 0
0.8005991 -0.20803928 -0.34092465 0
0.97640991 -0.18454552 -0.34023738 0
-0.19723892 -0.13103008 -0.36635214 0
-0.11980247 -0.085887909 -0.36266854 0
-0.009349823 -0.06521225 -0.36883086 0
0.08637619 -0.084618568 -0.36602965 0
0.19542503 -0.089905739 -0.36779594 0
0.30198288 -0.085231781 -0.36318046 0
0.43722725 -0.056698799 -0.36773348 0
0.55165863 -0.069045067 -0.35989246 0
0.65201569 -0.087907791 -0.35192388 0
0.79368877 -0.10730171 -0.34427306 0
0.95786381 -0.073255539 -0.34244168 0
-0.2142067 -0.019177437 -0.36601147 0
-0.12936878 -0.0024766922 -0.36494979 0
-0.033248901 -0.0050144196 -0.3651123 0
0.064811707 0.018271446 -0.36626518 0
0.17476559 -0.0090742111 -0.3667081 0
0.28362942 0.0041217804 -0.36409977 0
0.3992033 -0.0086641312 -0.35991278 0
0.52040195 0.010381699 -0.35710159 0
0.63935089 -0.011859894 -0.35357594 0
0.79208565 0.034858704 -0.35162964 0
0.93163013 0.011759758 -0.33839467 0
0.95042801 0.0047531128 -0.3442809 0
-0.18527317 0.089650154 -0.37975886 0
-0.12460232 0.10063648 -0.37276736 0
-0.023244858 0.12288284 -0.36815336 0
0.071746826 0.10581875 -0.36541384 0
0.15295029 0.068229675 -0.36620098 0
0.25381947 0.11491871 -0.36447284 0
0.35870743 0.12187481 -0.35944852 0
0.51823235 0.10164452 -0.36178139 0
0.62159443 0.13821793 -0.3579897 0
0.63879299 0.10413265 -0.36088306 0
0.78781033 0.11720943 -0.35590836 0
0.9312706 0.082428932 -0.34331527 0
-0.13521767 0.19967175 -0.38891304 0
-0.020148277 0.21403599 -0.37155208 0
0.12012768 0.20559502 -0.36905482 0
0.21649647 0.20575428 -0.36266062 0
0.23262596 0.17616081 -0.36412969 0
0.35978317 0.2438736 -0.36953077 0
0.52754784 0.19688129 -0.36960503 0
0.62449837 0.23577976 -0.36487898 0
0.63462162 0.22905731 -0.36836511 0
0.7749567 0.1844883 -0.35722458 0
0.91500854 0.24744701 -0.35189319 0
0.93730545 0.19887352 -0.35423771 0
-0.12252235 0.29263115 -0.39998886 0
-0.01211071 0.3181982 -0.38617694 0
0.089382172 0.30741882 -0.37073448 0
0.1967411 0.27996826 -0.36485359 0
0.36748981 0.28549099 -0.37289116 0
0.56712818 0.29457951 -0.37574169 0
0.63255787 0.34375381 -0.37453416 0
0.75975609 0.31178093 -0.36376998 0
0.92143822 0.34637451 -0.3624841 0
-0.12058926 0.38626289 -0.41210806 0
-0.013926506 0.37917423 -0.39327034 0
0.064806938 0.41012478 -0.38553455 0
0.18609047 0.38189697 -0.37149161 0
0.3909893 0.38790131 -0.38641316 0
0.53497791 0.38043404 -0.38477162 0
0.64479923 0.42121887 -0.38414907 0
0.75829124 0.41950798 -0.37170774 0
0.94464684 0.40182781 -0.37005892 0
-0.11205292 0.48977566 -0.42581749 0
0.16738415 0.48897266 -0.39525953 0
0.64130688 0.48268795 -0.38827828 0
0.76363277 0.47695732 -0.37779865 0
0.58801079 -0.40383339 0.95608902 0
0.61994934 -0.38226128 1.052762 0
0.71224308 -0.45530796 1.0542681 0
0.7500391 -0.34611034 1.0862451 0
0.97251415 -0.48746395 -0.37958694 0
-0.48487854 -0.48980808 -0.36152753 0
-0.079753876 -0.49821091 -0.36491299 0
0.3346405 -0.4708252 -0.36656779 0
0.45900917 -0.4930191 -0.36078048 0
0.60999393 -0.48397636 -0.35288998 0
-0.48344231 -0.41228771 -0.3517454 0
-0.3401041 -0.4094944 -0.35451162 0
-0.20070076 -0.41082954 -0.36320218 0
-0.077675819 -0.3845787 -0.36883277 0
0.038126945 -0.40381908 -0.36391771 0
0.18196678 -0.38864613 -0.36745685 0
0.29388809 -0.39961147 -0.35689253 0
0.44186401 -0.4203167 -0.35848656 0
0.58704376 -0.38223171 -0.35111511 0
0.73145962 -0.38444424 -0.3439289 0
0.99082565 -0.40624142 -0.34739575 0
-0.49907494 -0.31274319 -0.35530263 0
-0.34560776 -0.3016758 -0.35491702 0
-0.21705246 -0.32141685 -0.35927099 0
-0.10272694 -0.33075619 -0.36091441 0
0.01872921 -0.32507133 -0.35999486 0
0.14447308 -0.3268795 -0.35820729 0
0.28112793 -0.27919292 -0.35979572 0
0.4297533 -0.28532887 -0.36298054 0
0.57189083 -0.27953815 -0.35307291 0
0.69633961 -0.29200649 -0.33937949 0
0.8469696 -0.32913876 -0.32967451 0
-0.47539234 -0.17814064 -0.36103007 0
-0.35409546 -0.19141197 -0.35520145 0
-0.24301529 -0.17198467 -0.35781929 0
-0.19403458 -0.21161652 -0.36013374 0
-0.10696411 -0.21552658 -0.36528751 0
0.014242172 -0.20142555 -0.36557585 0
0.13833714 -0.20512104 -0.36311644 0
0.25518131 -0.19715786 -0.35658303 0
0.38390541 -0.18838024 -0.35550085 0
0.55351448 -0.14857006 -0.35714486 0
0.57320499 -0.19059277 -0.35996169 0
0.67350769 -0.20062733 -0.33959699 0
0.84179783 -0.2037487 -0.33781272 0
-0.48409367 -0.11621475 -0.3641797 0
-0.37207222 -0.099389076 -0.36149848 0
-0.24462795 -0.08609581 -0.36275104 0
-0.14035988 -0.067477226 -0.3636744 0
-0.13191414 -0.11836147 -0.36282611 0
-0.018546104 -0.12107372 -0.35982975 0
0.11057854 -0.13762951 -0.35842291 0
0.24126625 -0.083472252 -0.36038527 0
0.37162113 -0.0899086 -0.35950372 0
0.52519512 -0.08757019 -0.35389778 0
0.65656853 -0.054013252 -0.34695816 0
0.67212772 -0.11244202 -0.34642908 0
0.83218479 -0.098397255 -0.34016371 0
0.99382687 -0.084892273 -0.33374339 0
-0.50461102 -0.011307716 -0.37084907 0
-0.40564346 -0.019218445 -0.36757424 0
-0.26976681 -0.0020418167 -0.36521623 0
-0.15878582 0.0046834946 -0.36297163 0
-0.042683601 0.0031080246 -0.36152658 0
-0.029603958 -0.047107697 -0.36161131 0
0.090996742 0.0014877319 -0.36308903 0
0.22365189 -0.007733345 -0.36109552 0
0.34799099 -0.019692421 -0.35823402 0
0.50253201 -0.0053720474 -0.35499421 0
0.64902496 0.020090103 -0.34903538 0
0.82536888 0.01452446 -0.34464502 0
-0.49840832 0.053089142 -0.37642694 0
-0.38096523 0.082544327 -0.3721967 0
-0.28585148 0.053231239 -0.3712706 0
-0.170825 0.1175251 -0.3787916 0
-0.079847336 0.10124969 -0.36910859 0
0.049263954 0.087269783 -0.35865596 0
0.20728207 0.072162628 -0.36322919 0
0.31416035 0.10903549 -0.3602097 0
0.49188042 0.1098032 -0.36207017 0
0.64688301 0.10541344 -0.35434145 0
0.81335831 0.086038589 -0.34584814 0
0.98356628 0.095285416 -0.34247586 0
-0.4989109 0.20046043 -0.38685417 0
-0.41514683 0.18639088 -0.38313299 0
-0.2923317 0.19861221 -0.39065957 0
-0.18218231 0.1963644 -0.39283863 0
-0.086719513 0.19133568 -0.3753255 0
0.042271614 0.1975832 -0.36682621 0
0.17901325 0.16939354 -0.36439762 0
0.28296661 0.21291256 -0.36189237 0
0.51247501 0.19804096 -0.36995608 0
0.64988422 0.22043228 -0.36396101 0
0.81680107 0.21224689 -0.35691333 0
0.97447586 0.23268127 -0.35073566 0
-0.4932003 0.30370045 -0.39740285 0
-0.37727642 0.2899332 -0.40114427 0
-0.26012135 0.26538372 -0.40322718 0
-0.18440914 0.30113125 -0.40648314 0
-0.11126328 0.28704071 -0.39288807 0
-0.0033721924 0.30409813 -0.37838981 0
0.12605762 0.3025856 -0.36435181 0
0.16865826 0.27305126 -0.3715736 0
0.26842022 0.29193497 -0.36558226 0
0.52164173 0.29367447 -0.37768131 0
0.65048981 0.30992508 -0.36900824 0
0.79953194 0.31699753 -0.36125234 0
0.96373844 0.31480503 -0.35486975 0
-0.46708965 0.3956337 -0.41368788 0
-0.34852791 0.37025833 -0.41579804 0
-0.33897495 0.40511894 -0.42191306 0
-0.19168186 0.39796352 -0.42198309 0
-0.095293999 0.39696693 -0.40613741 0
0.011904716 0.38301086 -0.38487372 0
0.12080288 0.38836479 -0.37018996 0
0.2815237 0.37372398 -0.37334639 0
0.52794552 0.37485409 -0.38496339 0
0.66058636 0.42667198 -0.37967676 0
0.78902435 0.40271759 -0.36592445 0
-0.44704247 0.49760246 -0.43049577 0
-0.21354675 0.48660278 -0.4360939 0
-0.0058727264 0.49411964 -0.40778807 0
0.18084717 0.49815369 -0.3912634 0
0.53325653 0.48452091 -0.39504945 0
0.79450321 0.46715927 -0.37190136 0
-0.54363918 -0.37158871 -0.34904096 0
-0.46134377 -0.30214882 -0.34848294 0
-0.47544289 -0.24135685 -0.35404328 0
-0.51609421 -0.12386036 -0.36254561 0
-0.51274872 0.063725471 -0.3722901 0
0.0059719086 0.19221401 -0.35719189 0
0.57527924 -0.41264057 0.95728397 0
0.82725811 -0.49038029 1.0525846 0
0.97911644 -0.48879147 1.0989482 0
0.67306614 -0.38150883 1.0734749 0
0.77707577 -0.44144917 1.0732503 0
0.99689293 -0.41993332 1.0956872 0
-0.3192234 -0.49535751 -0.34559318 0
0.013345718 -0.49703503 -0.35588971 0
0.1541481 -0.49648952 -0.35327891 0
0.29830837 -0.48842907 -0.34210148 0
-0.6306591 -0.4137516 -0.38559547 0
-0.55458641 -0.43115139 -0.3609871 0
-0.4715147 -0.42282677 -0.33986336 0
-0.32992554 -0.41447353 -0.3431848 0
-0.14844608 -0.3984108 -0.35283914 0
-0.0072050095 -0.41378689 -0.35170451 0
0.11086941 -0.37540817 -0.34695351 0
0.14015102 -0.37908459 -0.35708448 0
0.29478455 -0.39322281 -0.34799993 0
0.48020649 -0.39477921 -0.34551403 0
0.66082764 -0.40488625 -0.34213555 0
0.78528214 -0.40563965 -0.32624072 0
-0.61974525 -0.31494045 -0.36820138 0
-0.54961014 -0.34528255 -0.35170403 0
-0.34683418 -0.342453 -0.33951339 0
-0.16969872 -0.32193661 -0.34918723 0
-0.031114578 -0.3226757 -0.34803715 0
0.10727882 -0.31295204 -0.34965247 0
0.2732935 -0.31261826 -0.34645042 0
0.44342804 -0.29766273 -0.34129977 0
0.62268353 -0.30418015 -0.33737779 0
0.76401138 -0.29316521 -0.32852715 0
-0.64313221 -0.22321224 -0.3765398 0
-0.54951572 -0.20979118 -0.35551223 0
-0.21196175 -0.25205421 -0.33961648 0
-0.17296696 -0.21603107 -0.35467595 0
-0.043363571 -0.20488358 -0.35170752 0
0.083997726 -0.20791626 -0.34924352 0
0.26377583 -0.21029854 -0.35047492 0
0.41193867 -0.21882915 -0.33839598 0
0.59548664 -0.24283695 -0.33399835 0
0.73285961 -0.21327782 -0.32602334 0
0.93474483 -0.18057537 -0.32017335 0
-0.64706612 -0.1242342 -0.38592783 0
-0.54141045 -0.10429859 -0.35999125 0
-0.44778252 -0.1195364 -0.35150537 0
-0.34338474 -0.129282 -0.34780279 0
-0.22298431 -0.14303875 -0.34434479 0
-0.11368275 -0.063687325 -0.34084052 0
-0.065044403 -0.097275734 -0.35272804 0
0.063746452 -0.10286903 -0.35045063 0
0.23515797 -0.11521149 -0.34875104 0
0.39049244 -0.12182808 -0.34056914 0
0.58302975 -0.10056305 -0.34229493 0
0.7147665 -0.11189842 -0.32923055 0
0.93054008 -0.092204094 -0.32319978 0
-0.64368629 -0.027903557 -0.38833687 0
-0.56033325 -0.017245293 -0.36671218 0
-0.43352509 -0.0079097748 -0.3603062 0
-0.33686543 -0.033946037 -0.35265231 0
-0.22594547 -0.034924507 -0.34987891 0
-0.11406326 0.0029850006 -0.34622115 0
-0.077315331 -0.049145699 -0.35271734 0
0.052897453 -0.0032329559 -0.35520464 0
0.20412636 -0.021711349 -0.34729466 0
0.38370037 0.0049514771 -0.34949383 0
0.54822254 -0.041372299 -0.33790433 0
0.702878 0.03493309 -0.33480117 0
0.71338749 -0.0049781799 -0.33574933 0
0.92999363 -0.016983986 -0.32761353 0
-0.63798523 0.083408356 -0.3922807 0
-0.53777695 0.095785141 -0.36936051 0
-0.43990135 0.065711021 -0.36152852 0
-0.3315258 0.069578171 -0.35940924 0
-0.21109009 0.046822548 -0.35792655 0
-0.14389706 0.089470863 -0.35916248 0
0.018251419 0.0847435 -0.35313529 0
0.18041611 0.10009575 -0.35161319 0
0.20524025 0.07324028 -0.35581866 0
0.34269524 0.096224785 -0.34697494 0
0.54528618 0.081027985 -0.34711984 0
0.70465755 0.11427689 -0.34103727 0
0.92259121 0.079902649 -0.3318392 0
-0.65959835 0.17977047 -0.40375096 0
-0.55640221 0.19098663 -0.3799037 0
-0.43086243 0.19210148 -0.37292972 0
-0.288167 0.17571163 -0.37500432 0
-0.15415764 0.19519424 -0.37789023 0
-0.034630775 0.18009281 -0.35683036 0
0.13776875 0.19111156 -0.34969547 0
0.29519749 0.1780138 -0.34290913 0
0.5492754 0.17019463 -0.35082445 0
0.68574905 0.18060398 -0.34053111 0
0.91922855 0.1929493 -0.33935356 0
-0.64313793 0.28751469 -0.40949887 0
-0.54442787 0.29122925 -0.38632342 0
-0.41862679 0.23542118 -0.37802652 0
-0.38056374 0.32051086 -0.39408126 0
-0.23785686 0.2556324 -0.39068341 0
-0.1426115 0.27027702 -0.38495755 0
-0.06962204 0.26164532 -0.37213159 0
0.037981033 0.31405067 -0.36099309 0
0.1014061 0.30491924 -0.35254651 0
0.28920078 0.26685715 -0.35039583 0
0.30449963 0.3011055 -0.35408309 0
0.56799984 0.29739571 -0.36283034 0
0.69382381 0.28644466 -0.34937349 0
0.89841652 0.31132126 -0.34338769 0
0.91935444 0.26817703 -0.34553567 0
-0.65109158 0.37887478 -0.41823643 0
-0.58384705 0.37300301 -0.39865488 0
-0.47964191 0.40296745 -0.402087 0
-0.36443233 0.34497643 -0.3988173 0
-0.19939804 0.34810829 -0.40662166 0
-0.11916256 0.384799 -0.3995907 0
-0.043761253 0.392272 -0.38767707 0
0.019594193 0.37397861 -0.37229255 0
0.12977409 0.43874931 -0.36911327 0
0.34704781 0.4093914 -0.36991918 0
0.59121037 0.42448807 -0.37783492 0
0.70745754 0.38585281 -0.35900936 0
0.89151287 0.37892723 -0.34765086 0
-0.65135384 0.4812336 -0.4319008 0
-0.58828259 0.47891808 -0.40904263 0
-0.46025753 0.47662258 -0.41395468 0
-0.32612801 0.43507099 -0.41566655 0
-0.16123772 0.47493267 -0.41944805 0
-0.061861992 0.49968529 -0.40756282 0
0.048107147 0.46531391 -0.38558581 0
0.17233753 0.483778 -0.37887725 0
0.37245464 0.48396111 -0.37882727 0
0.58975124 0.49318123 -0.3815738 0
-0.550704 -0.34297657 -0.33973822 0
-0.48348904 -0.32936859 -0.33744922 0
-0.36235046 -0.27695274 -0.33731401 0
-0.46668816 -0.23501301 -0.34253427 0
-0.3598156 -0.22819805 -0.33997327 0
-0.45432568 -0.13992119 -0.3479771 0
-0.53294277 -0.0011777878 -0.35826686 0
-0.02989769 0.14853954 -0.34539053 0
0.56681728 -0.39517784 0.9438203 0
0.69019508 -0.42665482 1.0114529 0
0.60951614 -0.36095333 0.97105277 0
0.7889452 -0.39766216 1.1092913 0
0.91331673 -0.47190762 1.1453171 0
-0.65985394 -0.4955368 -0.41453719 0
0.25232029 -0.48181057 -0.36245286 0
-0.67334747 -0.46989155 -0.41007885 0
-0.60415268 -0.41603851 -0.38407147 0
-0.51976109 -0.3967514 -0.35579944 0
-0.38473892 -0.44128609 -0.34343874 0
-0.18405437 -0.3949976 -0.35604817 0
0.014723778 -0.43434238 -0.35696274 0
0.22247601 -0.4479084 -0.35664892 0
0.41581821 -0.41798115 -0.35674587 0
0.61660767 -0.40977001 -0.354855 0
0.99943447 -0.43993855 -0.36460075 0
-0.68603611 -0.33017731 -0.405718 0
-0.60508633 -0.32973003 -0.38142765 0
-0.51481056 -0.32102203 -0.34840599 0
-0.39539051 -0.31266594 -0.34757888 0
-0.20846939 -0.27855778 -0.35675991 0
-0.0095777512 -0.30903816 -0.35784572 0
0.17892265 -0.2996788 -0.35737681 0
0.36937904 -0.31374836 -0.3515465 0
0.57667065 -0.30289745 -0.35142267 0
0.76231956 -0.31628513 -0.33885676 0
0.93521118 -0.25679111 -0.32281688 0
-0.69210148 -0.21698761 -0.39714801 0
-0.58897209 -0.21990108 -0.37249637 0
-0.5068779 -0.21654892 -0.35431525 0
-0.39329433 -0.23033428 -0.34981409 0
-0.24858475 -0.18998623 -0.35218069 0
-0.069288254 -0.23720646 -0.34563127 0
-0.023612022 -0.21810722 -0.36046594 0
0.34433365 -0.20092678 -0.35436749 0
0.53128624 -0.24719906 -0.34393829 0
0.70784855 -0.21496296 -0.33296502 0
0.93641853 -0.16953659 -0.32791629 0
-0.68855095 -0.10248089 -0.40613416 0
-0.60643196 -0.12778759 -0.38162535 0
-0.51151657 -0.095199585 -0.36834013 0
-0.38133621 -0.12156487 -0.35582069 0
-0.2669735 -0.10389614 -0.35213962 0
-0.069984436 -0.097349167 -0.35724032 0
0.12473297 -0.10059452 -0.35763434 0
0.16976166 -0.13799858 -0.36719513 0
0.30596733 -0.090735435 -0.35342929 0
0.50103855 -0.12570286 -0.34784582 0
0.67913914 -0.11242676 -0.33502486 0
0.94039917 -0.080244064 -0.33471814 0
-0.70235538 -0.023778915 -0.41256365 0
-0.60438919 -0.0015201569 -0.38873616 0
-0.51550674 -0.030826569 -0.36904043 0
-0.37542343 -0.035423279 -0.3606773 0
-0.25221634 0.01817894 -0.36254847 0
-0.087766647 -0.0056505203 -0.36026534 0
0.084583282 -0.0064191818 -0.3554318 0
0.26351452 0.0057201385 -0.35115626 0
0.47301674 0.0086135864 -0.35411489 0
0.67818451 -0.030824661 -0.34051168 0
0.92872238 0.0077400208 -0.33682844 0
-0.79579926 0.058427811 -0.44384339 0
-0.70521069 0.073591232 -0.4190141 0
-0.6245327 0.082204819 -0.39473504 0
-0.51189423 0.074271202 -0.37620336 0
-0.36792183 0.046046257 -0.36735657 0
-0.36113358 0.13060093 -0.37466064 0
-0.20320129 0.10946083 -0.37613201 0
-0.10352039 0.085206032 -0.36187524 0
0.055683136 0.075330734 -0.35588434 0
0.2246294 0.13029003 -0.35381794 0
0.25095177 0.087796211 -0.35595548 0
0.42358017 0.10565853 -0.3516095 0
0.45665073 0.080155373 -0.35701913 0
0.67995834 0.089544296 -0.34978554 0
0.92403126 0.12514687 -0.34418413 0
-0.81162071 0.14258194 -0.45151007 0
-0.7262907 0.17030048 -0.43156478 0
-0.62249184 0.16543579 -0.40095773 0
-0.50211906 0.1833086 -0.38382012 0
-0.34272003 0.17263985 -0.3792164 0
-0.16519737 0.19915581 -0.38936898 0
-0.075460434 0.21342754 -0.37474224 0
0.018064499 0.19634819 -0.35898942 0
0.044996262 0.15874672 -0.36150634 0
0.21250153 0.20508003 -0.35857946 0
0.42284393 0.1885004 -0.35850915 0
0.44376469 0.19773483 -0.3584888 0
0.67593479 0.19933319 -0.3572678 0
0.90465736 0.15670872 -0.34103382 0
-0.79598331 0.2587204 -0.46552777 0
-0.71796036 0.27565384 -0.44030344 0
-0.59791851 0.27044201 -0.40287608 0
-0.48302555 0.26424789 -0.3873724 0
-0.45908546 0.29986858 -0.39411291 0
-0.28840637 0.24866962 -0.39451456 0
-0.24771786 0.32386494 -0.40907276 0
-0.14918423 0.27702427 -0.39773357 0
-0.017355919 0.26825809 -0.37308076 0
0.037836075 0.31651974 -0.36979935 0
0.18027592 0.30224705 -0.36150262 0
0.49725246 0.29585457 -0.37444127 0
0.67884731 0.28774738 -0.36257589 0
0.90143776 0.29781342 -0.35243696 0
-0.72063732 0.37869453 -0.45020753 0
-0.61769199 0.36789036 -0.41908297 0
-0.40689468 0.39278603 -0.41208217 0
-0.21065426 0.38268757 -0.41971904 0
-0.14173794 0.34711933 -0.4030771 0
-0.043560982 0.3701725 -0.39164302 0
0.062829018 0.4249754 -0.38303712 0
0.17073059 0.41073132 -0.36810389 0
0.51920509 0.38931656 -0.38395584 0
0.68549919 0.37639236 -0.36833259 0
0.88345718 0.37875843 -0.35515347 0
-0.73358822 0.47301197 -0.46464276 0
-0.61316967 0.46897888 -0.42631498 0
-0.19043732 0.484231 -0.43263522 0
-0.11826324 0.48177147 -0.41916645 0
-0.0320158 0.44265366 -0.39914832 0
0.097844124 0.47487926 -0.39209649 0
0.23576832 0.49516106 -0.38332981 0
0.6990242 0.48395157 -0.37882683 0
0.66017246 -0.42821217 0.98434627 0
0.81748772 -0.41127777 1.0941318 0
-0.55500126 -0.48974228 -0.38000485 0
-0.45071793 -0.47292233 -0.35456425 0
0.090324402 -0.47860622 -0.36347932 0
0.31893158 -0.49527836 -0.36455792 0
0.54057121 -0.4764595 -0.35607237 0
-0.63064575 -0.39362144 -0.39420411 0
-0.55089188 -0.36957359 -0.36209652 0
-0.41424561 -0.36301899 -0.35272357 0
-0.13642311 -0.39667702 -0.36180723 0
0.040660858 -0.38637638 -0.35553136 0
0.2727747 -0.39456463 -0.36106068 0
0.53008747 -0.36575603 -0.36231494 0
0.74267769 -0.39473629 -0.34848592 0
-0.66650867 -0.30759811 -0.39344415 0
-0.56898499 -0.28744125 -0.36532137 0
-0.16620922 -0.30433559 -0.36048335 0
0.060468674 -0.32965374 -0.36563733 0
0.24125576 -0.2894125 -0.36204508 0
0.48115826 -0.29196548 -0.35547259 0
0.69143867 -0.30858421 -0.34137422 0
0.7238903 -0.33047962 -0.34850791 0
0.87520695 -0.23629379 -0.32738543 0
-0.70959568 -0.20613003 -0.40439045 0
-0.64389515 -0.15890026 -0.39548904 0
-0.56267166 -0.20425034 -0.3664206 0
-0.23110676 -0.17194843 -0.35428697 0
-0.19268131 -0.21602345 -0.36054876 0
-0.010965347 -0.19895172 -0.35558364 0
0.014676094 -0.23338699 -0.35984939 0
0.19072247 -0.20891762 -0.35381547 0
0.21483421 -0.23425388 -0.3586967 0
0.4390192 -0.21624184 -0.35138968 0
0.67380905 -0.2164011 -0.34479743 0
0.87614441 -0.15355968 -0.33256921 0
-0.71805859 -0.11506844 -0.40500888 0
-0.65317249 -0.10160637 -0.39392009 0
-0.57487297 -0.11737061 -0.37419468 0
-0.41043854 -0.10564709 -0.36012182 0
-0.25706005 -0.090734482 -0.35404217 0
-0.029905319 -0.08343029 -0.36054069 0
0.16965008 -0.090237617 -0.35858512 0
0.38978767 -0.073353767 -0.35269526 0
0.42219162 -0.11133671 -0.35714465 0
0.63739395 -0.10000706 -0.34610689 0
0.86732197 -0.0581007 -0.33490455 0
-0.73736382 0.008600235 -0.41605741 0
-0.64857388 0.004899025 -0.40074393 0
-0.57035255 -0.011850357 -0.37865257 0
-0.40291977 0.026024818 -0.36641115 0
-0.25551796 0.019133568 -0.35854658 0
-0.064103127 0.037945747 -0.36243981 0
0.12516499 0.028718948 -0.3583357 0
0.3655014 -0.016892433 -0.35184547 0
0.58216 0.022912979 -0.34273756 0
0.60256577 -0.025218964 -0.34450868 0
0.86343956 0.043046951 -0.34024027 0
-0.74175358 0.10341072 -0.42594489 0
-0.65148163 0.094884872 -0.40520608 0
-0.56352901 0.10381603 -0.38459355 0
-0.39840889 0.099673271 -0.37144893 0
-0.22342014 0.058774948 -0.36464697 0
-0.084452629 0.13743877 -0.36584172 0
0.079110146 0.080403328 -0.35222423 0
0.33537579 0.092744827 -0.355252 0
0.58175755 0.10686874 -0.34869811 0
0.8597765 0.13411045 -0.34581032 0
-0.74418068 0.17610264 -0.42967665 0
-0.66390228 0.18504715 -0.40749657 0
-0.56590557 0.19812679 -0.38723311 0
-0.36630535 0.224473 -0.38446331 0
-0.16486454 0.1949358 -0.38548252 0
-0.069347382 0.20045853 -0.37083402 0
0.064896584 0.16898251 -0.35790402 0
0.26886272 0.2269659 -0.3536807 0
0.30594444 0.19792938 -0.35902426 0
0.59028816 0.20969391 -0.3532984 0
0.59922886 0.19886398 -0.35813624 0
0.84212303 0.17663956 -0.34387839 0
-0.74490738 0.2701807 -0.4416005 0
-0.65481853 0.29244137 -0.41781795 0
-0.55794716 0.3170166 -0.39565933 0
-0.29985428 0.29748058 -0.3998667 0
-0.14717102 0.28176785 -0.39273903 0
-0.047183037 0.29921722 -0.37943769 0
0.046257019 0.31204987 -0.36436477 0
0.26459694 0.33322906 -0.36319804 0
0.61204243 0.31091118 -0.36492243 0
0.84204292 0.32394886 -0.3564539 0
-0.75129223 0.3912878 -0.46021196 0
-0.68649769 0.38834572 -0.43521538 0
-0.59881687 0.39163971 -0.41046676 0
-0.48677635 0.40486717 -0.40778482 0
-0.25356293 0.35485458 -0.41168502 0
-0.11601734 0.40169907 -0.40828648 0
-0.068035126 0.41516876 -0.40042913 0
0.062894821 0.38986683 -0.37137917 0
0.32194138 0.40354729 -0.37324503 0
0.63352108 0.41569138 -0.37700009 0
0.81938553 0.41209698 -0.35830492 0
-0.73833656 0.47627068 -0.46172667 0
-0.0082597733 0.46238708 -0.39819992 0
0.12359905 0.49674988 -0.39043367 0
-0.44573212 -0.35188389 -0.34337398 0
-0.44991016 -0.31462002 -0.34297994 0
-0.42809963 -0.21550083 -0.35204452 0
-0.41154957 -0.059673309 -0.3600761 0
-0.26187134 -0.032144547 -0.35408616 0
-0.41890049 0.09642601 -0.3639839 0
0.02856636 0.20384121 -0.35331726 0
0.5936594 -0.43610477 0.97188771 0
0.72583103 -0.45019436 0.9862743 0
0.60609245 -0.34657192 0.9646281 0
0.71615219 -0.42213154 1.0702153 0
-0.12467575 -0.4972744 -0.35682964 0
0.070119858 -0.49912643 -0.35169005 0
-0.62570381 -0.40873814 -0.38102794 0
-0.56419849 -0.44462204 -0.36876106 0
-0.45904446 -0.43785191 -0.34112826 0
-0.15182972 -0.38205624 -0.35826972 0
0.067620277 -0.38227654 -0.36032572 0
0.33497429 -0.44101906 -0.35412377 0
0.60529518 -0.39780521 -0.35059252 0
0.78714752 -0.37142658 -0.32885295 0
-0.65218353 -0.32797432 -0.39072037 0
-0.54819107 -0.31865883 -0.36317334 0
-0.4753027 -0.35552979 -0.34121659 0
-0.16250515 -0.30216408 -0.3625879 0
0.030355453 -0.31472588 -0.35564628 0
0.28167057 -0.31037617 -0.35161582 0
0.31388569 -0.36567402 -0.35503748 0
0.57285976 -0.34316158 -0.34650263 0
0.75625706 -0.30956173 -0.32669041 0
-0.64598656 -0.21771622 -0.38523239 0
-0.55400467 -0.23662186 -0.36295125 0
-0.44904709 -0.21061802 -0.35136971 0
-0.23968029 -0.21276379 -0.35153428 0
-0.19272041 -0.23492813 -0.36105016 0
0.0027608871 -0.20916176 -0.35759369 0
0.26355934 -0.22624111 -0.35438192 0
0.53721142 -0.23244286 -0.3480204 0
0.73639107 -0.21260929 -0.33104914 0
0.9938488 -0.16792774 -0.32670978 0
-0.66080666 -0.13079739 -0.39285582 0
-0.55457401 -0.11176968 -0.367807 0
-0.44169617 -0.12472248 -0.35506728 0
-0.2676115 -0.12271309 -0.3521294 0
-0.024449348 -0.14928341 -0.35612428 0
0.2366457 -0.12032032 -0.35692704 0
0.44826984 -0.066296577 -0.34471396 0
0.50257969 -0.095898628 -0.35385853 0
0.73092842 -0.096796989 -0.3411065 0
0.98782349 -0.10140133 -0.3287698 0
-0.64992332 -0.02232933 -0.39873528 0
-0.55234241 -0.025927544 -0.37308109 0
-0.43326664 -0.022603035 -0.36136737 0
-0.26272297 -0.017972946 -0.35780233 0
-0.057816505 -0.057097435 -0.35622546 0
0.18286324 -0.016982079 -0.35336968 0
0.43320465 0.032822609 -0.35124707 0
0.71093464 -0.0091485977 -0.34110153 0
0.97870445 -0.042452812 -0.3297067 0
-0.7456131 0.06016922 -0.42446673 0
-0.65684319 0.066473007 -0.40519822 0
-0.55671692 0.07418251 -0.37781429 0
-0.42689896 0.089453697 -0.36902729 0
-0.23556614 0.067856789 -0.3667582 0
-0.086658478 0.086448669 -0.36194298 0
0.13409901 0.069354057 -0.35093102 0
0.40095901 0.092988014 -0.35015866 0
0.69992542 0.087928772 -0.34479085 0
0.9799118 0.062625885 -0.33772975 0
-0.74829197 0.15462208 -0.42907411 0
-0.65201187 0.14470387 -0.40331709 0
-0.57069588 0.15233707 -0.37889245 0
-0.41569042 0.19845295 -0.37946817 0
-0.38076305 0.22300625 -0.38453421 0
-0.16855335 0.16777134 -0.38309929 0
-0.068598747 0.18990612 -0.36951086 0
0.085111618 0.21177387 -0.35549217 0
0.12225914 0.17883778 -0.35989767 0
0.37772179 0.17775154 -0.35403919 0
0.69788456 0.18452549 -0.35194692 0
0.96519279 0.17135143 -0.34195048 0
-0.74379063 0.25131035 -0.4372524 0
-0.65094471 0.25655937 -0.41356605 0
-0.55763531 0.27346897 -0.39224041 0
-0.32308483 0.29145908 -0.39878449 0
-0.13941956 0.28580666 -0.39527556 0
-0.042433739 0.2890377 -0.38013068 0
0.077326775 0.31199265 -0.3618463 0
0.45584488 0.28151226 -0.3695637 0
0.68994808 0.24343586 -0.35393882 0
0.70003033 0.31364441 -0.35908014 0
0.94270039 0.26803207 -0.34387478 0
-0.73806477 0.36137295 -0.4478119 0
-0.65234184 0.36103249 -0.42402953 0
-0.55630112 0.37068367 -0.39940181 0
-0.24667454 0.36367607 -0.41452 0
-0.11726761 0.38071346 -0.40554747 0
-0.026762009 0.36292362 -0.38651857 0
0.10199356 0.40190506 -0.37089363 0
0.51060295 0.39672089 -0.38126761 0
0.71019936 0.38559532 -0.36487406 0
0.93558693 0.34769344 -0.34918773 0
-0.72919369 0.4529171 -0.45832679 0
-0.65543461 0.44856739 -0.43549138 0
-0.51600838 0.44535351 -0.41198373 0
-0.47116756 0.4935751 -0.42165893 0
-0.19490719 0.48937988 -0.43443018 0
-0.057556152 0.44307709 -0.40291557 0
0.16440105 0.45254517 -0.38069603 0
0.72931862 0.48445225 -0.37588224 0
-0.47355652 -0.32512093 -0.34039751 0
0.63759422 -0.47548199 0.98258996 0
0.62543774 -0.35989761 0.96513176 0
0.75299263 -0.40403557 1.0843432 0
-0.4895649 -0.49512959 -0.35410511 0
0.011522293 -0.49289322 -0.35675684 0
0.33103561 -0.48999596 -0.35947824 0
0.60243511 -0.46527481 -0.34938133 0
-0.645998 -0.43922615 -0.39032122 0
-0.5750351 -0.42262173 -0.37433746 0
-0.52042103 -0.43941784 -0.35064402 0
-0.36469364 -0.42742825 -0.34613118 0
-0.043073654 -0.38485909 -0.35082072 0
-0.0080652237 -0.41876698 -0.35743788 0
0.27380943 -0.36657906 -0.35828307 0
-0.65455532 -0.32086945 -0.39596903 0
-0.60064316 -0.30563736 -0.37480035 0
-0.52958775 -0.30736542 -0.35623109 0
-0.39287758 -0.36366653 -0.34452865 0
0.23166656 -0.32832718 -0.35168055 0
0.57932472 -0.30103207 -0.3583321 0
0.77425861 -0.34140968 -0.33593789 0
-0.68558788 -0.22920895 -0.3925232 0
-0.60197926 -0.21360874 -0.37862104 0
-0.53200245 -0.22806835 -0.35781544 0
-0.40182018 -0.21798706 -0.34957898 0
-0.058795929 -0.23608875 -0.36017635 0
0.20316887 -0.20247841 -0.35566938 0
0.52339458 -0.20181465 -0.35539719 0
0.73882389 -0.1913805 -0.34168872 0
-0.68307209 -0.11743259 -0.39831078 0
-0.60791492 -0.12014198 -0.38019758 0
-0.51985645 -0.11577702 -0.36719343 0
-0.13684559 -0.10686874 -0.35313812 0
-0.1032896 -0.14909172 -0.35714322 0
0.17343426 -0.072134972 -0.36096534 0
0.45973301 -0.10726261 -0.35100093 0
0.69054413 -0.094172478 -0.33987978 0
-0.76261234 0.0035104752 -0.4206647 0
-0.6831665 -0.035819054 -0.40246364 0
-0.6082077 -0.0080509186 -0.3860268 0
-0.52271175 -0.0078020096 -0.3716571 0
-0.37772942 -0.013381958 -0.36245948 0
-0.16089153 -0.012318611 -0.35491154 0
0.12295246 0.010389328 -0.35755786 0
0.40834904 -0.0067920685 -0.3499465 0
0.65981197 0.038991928 -0.34183028 0
0.67071056 -0.028666496 -0.34052581 0
-0.75337124 0.098976135 -0.42909816 0
-0.680933 0.052196503 -0.4084892 0
-0.61266613 0.065615654 -0.38903245 0
-0.36814213 0.10363197 -0.37059504 0
-0.13380146 0.10021305 -0.36581093 0
0.08200264 0.12370872 -0.36027217 0
0.35758209 0.092182159 -0.34900045 0
0.64952374 0.10395527 -0.34367815 0
0.99655533 0.11742115 -0.33330718 0
-0.74588108 0.20741653 -0.43770275 0
-0.68430424 0.17617512 -0.41520274 0
-0.61318111 0.15355396 -0.39490372 0
-0.53332043 0.17173958 -0.37939405 0
-0.37422943 0.14083958 -0.37025622 0
-0.30184269 0.20603752 -0.38395143 0
-0.10649204 0.18712997 -0.37714022 0
0.033997536 0.19831371 -0.35731485 0
0.32811069 0.15622139 -0.34956807 0
0.64524937 0.1760931 -0.34757987 0
0.99768543 0.22570038 -0.34255543 0
-0.67378712 0.32141685 -0.42782623 0
-0.57675171 0.26468372 -0.39301664 0
-0.23792934 0.25440979 -0.39517564 0
-0.085861206 0.26954174 -0.38359696 0
0.049484253 0.32621002 -0.36654982 0
0.29983425 0.25148296 -0.35414419 0
0.37363911 0.32883453 -0.36762729 0
0.67068291 0.28342056 -0.35968891 0
0.99040794 0.31802464 -0.34848592 0
-0.70846558 0.36004448 -0.43987584 0
-0.60774136 0.3742733 -0.41159314 0
-0.48051071 0.34084702 -0.39666259 0
-0.41596222 0.41568279 -0.41231737 0
-0.17386246 0.39016151 -0.41566896 0
-0.045799255 0.41945171 -0.40022445 0
0.078453064 0.41235638 -0.37455142 0
0.46243572 0.40304756 -0.38121462 0
0.68615913 0.37326908 -0.36713651 0
-0.66573143 0.49000645 -0.44296908 0
-0.60092735 0.48632812 -0.42180115 0
-0.15371418 0.49410915 -0.42508397 0
-0.034879684 0.48229313 -0.40411931 0
0.50533581 0.47703362 -0.39026672 0
0.70322895 0.48463345 -0.3764846 0
-0.42663479 -0.33529758 -0.33866552 0
-0.39947796 -0.16167927 -0.34996283 0
-0.5415678 0.056574821 -0.36896986 0
0.58319187 -0.48342037 0.9606865 0
0.58847237 -0.4084549 0.95601755 0
0.80009937 -0.43039131 1.086625 0
-0.55347347 -0.48788452 -0.38340256 0
-0.40791702 -0.4836216 -0.3341741 0
-0.59134007 -0.41957664 -0.37736925 0
-0.52072525 -0.41135979 -0.36106968 0
-0.43977928 -0.39647198 -0.33555391 0
-0.015683174 -0.44393158 -0.3458879 0
0.28686142 -0.40406799 -0.34316209 0
0.63007164 -0.38930511 -0.3484661 0
-0.59303856 -0.33367348 -0.36463207 0
-0.53971767 -0.36708641 -0.35897374 0
-0.048677444 -0.32877254 -0.34828591 0
0.24456024 -0.26238728 -0.34720621 0
0.58483982 -0.30507088 -0.34514293 0
0.84109402 -0.28275871 -0.32497683 0
-0.64962482 -0.19331646 -0.3737655 0
-0.59222126 -0.22110558 -0.37141547 0
-0.094557762 -0.2181921 -0.34800556 0
0.21772289 -0.19452953 -0.34715122 0
0.52284241 -0.18549156 -0.34394255 0
0.79529858 -0.23093033 -0.31966698 0
-0.58313847 -0.10399342 -0.37254176 0
-0.42144394 -0.10504723 -0.34978756 0
-0.14039707 -0.11123753 -0.34815344 0
0.18480015 -0.12732029 -0.34618354 0
0.4826479 -0.10278034 -0.34463352 0
0.78471184 -0.11017418 -0.3279568 0
-0.71989632 0.0032558441 -0.40583113 0
-0.61232376 -0.01875782 -0.38161817 0
-0.17824268 -0.027609825 -0.34939894 0
0.117589 0.010115623 -0.34602296 0
0.16581821 -0.028756142 -0.35231093 0
0.44034576 -0.013743401 -0.34554517 0
0.78176308 -0.028113365 -0.33263844 0
-0.72672749 0.066989899 -0.40749258 0
-0.59878063 0.095944405 -0.38620779 0
-0.55233669 0.066644669 -0.3784042 0
-0.40468311 0.093964577 -0.36319557 0
-0.14556026 0.072263718 -0.35913065 0
0.08006382 0.081700325 -0.3459748 0
0.38838577 0.079057693 -0.34449315 0
0.7683239 0.086223602 -0.33717617 0
-0.70992851 0.18570518 -0.41990662 0
-0.60536289 0.16989422 -0.38930321 0
-0.38926601 0.17107964 -0.36913013 0
-0.11546612 0.18193722 -0.36703709 0
0.051416397 0.17361641 -0.35041332 0
0.33378601 0.18544483 -0.34503493 0
0.7559557 0.22199535 -0.34486789 0
-0.70421696 0.27408123 -0.42706835 0
-0.61068058 0.27063847 -0.39442563 0
-0.26449585 0.29162025 -0.39374861 0
-0.097999573 0.25484276 -0.37152103 0
0.035921097 0.25100708 -0.35366237 0
0.055747986 0.32704544 -0.35932949 0
0.3488884 0.26443577 -0.35159102 0
0.73773766 0.2847681 -0.34535521 0
-0.70225906 0.37631321 -0.43465936 0
-0.63568878 0.37905121 -0.41359824 0
-0.55350685 0.41962624 -0.40206814 0
-0.18519878 0.37790394 -0.41063198 0
-0.056890488 0.38704872 -0.39016858 0
0.49605083 0.3951416 -0.37565768 0
0.75482178 0.39733124 -0.35312688 0
-0.69249439 0.48074436 -0.44537348 0
-0.60052967 0.447752 -0.40910977 0
-0.17237186 0.43590927 -0.41588143 0
-0.041973114 0.44752884 -0.39595652 0
0.12650871 0.46946621 -0.37875912 0
-0.45768929 -0.34174252 -0.33390802 0
-0.44316959 -0.27159977 -0.33982801 0
-0.4387064 -0.22017288 -0.34104934 0
-0.42774868 -0.15650272 -0.3463923 0
-0.42162895 -0.031319618 -0.35142487 0
0.70938969 -0.45237827 1.0203797 0
0.57013607 -0.38364124 0.95033371 0
0.83981133 -0.45032692 1.0871372 0
0.99934864 -0.34805679 1.7542582 0
-0.48073959 -0.49880028 -0.36261809 0
0.76432991 -0.49634933 -0.33354086 0
-0.58047295 -0.41731739 -0.38789725 0
-0.50305462 -0.42540646 -0.36311579 0
-0.41250229 -0.44856071 -0.33618212 0
0.045647621 -0.46912575 -0.34490591 0
0.38869953 -0.46417999 -0.34590259 0
0.74237537 -0.39000607 -0.33862907 0
-0.60661793 -0.37234974 -0.38400373 0
-0.54007721 -0.35200691 -0.35822073 0
0.031435013 -0.3379755 -0.35444129 0
0.36111832 -0.34484768 -0.35202652 0
0.69473743 -0.34596062 -0.33168909 0
-0.61932087 -0.25617409 -0.38959193 0
-0.53843212 -0.24607849 -0.36451134 0
-0.41769695 -0.21715736 -0.34529835 0
-0.010084152 -0.27811527 -0.35084698 0
0.30820656 -0.2215004 -0.35294491 0
0.67500877 -0.23734188 -0.33822107 0
0.99513721 -0.24168682 -0.31781822 0
-0.62926292 -0.16953087 -0.3912797 0
-0.53969479 -0.14961243 -0.36852375 0
-0.40209866 -0.10975933 -0.35277656 0
-0.082460403 -0.14632034 -0.34845915 0
-0.026794434 -0.15914154 -0.35939533 0
0.24880409 -0.14638329 -0.34681743 0
0.65395546 -0.10038757 -0.34772441 0
0.99114799 -0.104702 -0.3255609 0
-0.53442383 -0.035661697 -0.37651041 0
-0.39188576 -0.015990257 -0.35915214 0
-0.11899376 -0.026314735 -0.35179922 0
0.20482254 -0.057139397 -0.34692457 0
0.58632088 -0.018549919 -0.34200829 0
0.96755981 0.003452301 -0.32599714 0
-0.62791443 0.055025101 -0.40432227 0
-0.53487682 0.060245514 -0.38220742 0
-0.39421368 0.053324699 -0.36049867 0
-0.095727921 0.073254585 -0.35976586 0
0.12548065 0.079442024 -0.34621611 0
0.18558311 0.044726372 -0.35433894 0
0.58446789 0.10817242 -0.34918225 0
-0.62974072 0.1799469 -0.41144073 0
-0.55150604 0.18477726 -0.38534883 0
-0.37808037 0.15843678 -0.37156084 0
-0.063523293 0.17481804 -0.37086603 0
0.086866379 0.15988255 -0.347996 0
0.59480667 0.17234421 -0.35196596 0
0.96898556 0.17610741 -0.34044579 0
-0.62743855 0.28357887 -0.4176707 0
-0.33521175 0.24255085 -0.38320532 0
-0.23466492 0.27913666 -0.39433831 0
-0.037827492 0.26567364 -0.37813303 0
0.083311081 0.24218273 -0.35374507 0
0.6178503 0.27690983 -0.36194998 0
0.94165611 0.27583694 -0.34143397 0
-0.61682415 0.38726044 -0.42762247 0
-0.53624439 0.37061691 -0.40179187 0
-0.16013336 0.32568741 -0.40419659 0
-0.014264107 0.35341644 -0.3852894 0
0.10849667 0.32566166 -0.36201289 0
0.13516045 0.41494274 -0.37162885 0
0.63393497 0.36265659 -0.36911866 0
0.92442703 0.37013245 -0.34553337 0
-0.62349701 0.42542648 -0.42773676 0
-0.53422928 0.44937611 -0.40685588 0
-0.12811661 0.44935226 -0.4172186 0
0.0093774796 0.43828297 -0.39430079 0
0.20966339 0.46712303 -0.38052574 0
0.65193367 0.47902298 -0.37801602 0
-0.4556179 -0.40618038 -0.32982457 0
-0.43993282 -0.33512783 -0.335917 0
0.5990839 -0.41705894 0.94266665 0
-0.61237431 -0.44049263 -0.38283744 0
-0.5022974 -0.41546917 -0.3672097 0
-0.23688221 -0.41957951 -0.35534415 0
0.18325424 -0.44547939 -0.36082244 0
0.58406067 -0.41511345 -0.35207587 0
-0.62478447 -0.29694653 -0.39132899 0
-0.54356766 -0.3561554 -0.3612611 0
-0.3782692 -0.28626633 -0.3438412 0
-0.31708241 -0.35141277 -0.34770572 0
0.10742474 -0.32088566 -0.35911858 0
0.53090382 -0.35055733 -0.34758228 0
0.85669899 -0.35132885 -0.32888389 0
-0.65154648 -0.22194386 -0.38870072 0
-0.55521774 -0.23337746 -0.36380246 0
-0.37784576 -0.22721386 -0.34524018 0
0.048215866 -0.20769882 -0.35815832 0
0.49821568 -0.23726654 -0.35359478 0
0.80270767 -0.20977306 -0.33180261 0
-0.64060688 -0.097896576 -0.3985568 0
-0.55099583 -0.12099934 -0.37062216 0
-0.36189461 -0.14334488 -0.35267565 0
0.0064411163 -0.13126659 -0.35734963 0
0.4476099 -0.11928749 -0.35692403 0
-0.62417889 -0.028071404 -0.38866213 0
-0.5474577 -0.040787697 -0.37615025 0
-0.34959221 -0.038661957 -0.35928291 0
-0.080164909 0.0039815903 -0.3538039 0
-0.03060627 -0.040657043 -0.3591989 0
0.39779472 -0.06914711 -0.3525466 0
0.78606319 -0.054505348 -0.34064639 0
-0.66297626 0.046910286 -0.39902103 0
-0.55463696 0.076047897 -0.38063201 0
-0.34384918 0.048553467 -0.36381966 0
-0.098241806 0.071678162 -0.35562345 0
0.30823898 0.091367722 -0.35198477 0
0.36536789 0.025936127 -0.35623193 0
0.76976013 0.057120323 -0.34369251 0
-0.66429996 0.11529255 -0.40310913 0
-0.56138992 0.13216877 -0.3820985 0
-0.29002666 0.14312935 -0.37634555 0
-0.064325333 0.17378139 -0.36735862 0
0.27648544 0.18562984 -0.35651785 0
0.74895382 0.16900539 -0.34656781 0
-0.65341282 0.22978592 -0.41342592 0
-0.5572052 0.25423908 -0.39208338 0
-0.17600727 0.23221016 -0.3949987 0
-0.15490246 0.30395126 -0.40186009 0
-0.039006233 0.25444603 -0.37497482 0
0.23076916 0.25496101 -0.35578781 0
0.74517918 0.29351997 -0.35635242 0
-0.64596081 0.35449314 -0.42255849 0
-0.52764416 0.36945534 -0.40149474 0
-0.14236927 0.35680962 -0.40420184 0
-0.0052537918 0.36859226 -0.38507959 0
0.20395756 0.35228539 -0.36226773 0
0.76006889 0.37915421 -0.36313441 0
-0.63609505 0.49193287 -0.4337756 0
-0.36008453 0.49237633 -0.4299114 0
-0.1164217 0.44471073 -0.4146336 0
0.024503708 0.46214676 -0.39280173 0
0.38413715 0.42795753 -0.38053244 0
0.7854681 0.49849606 -0.37420905 0
0.60416317 -0.4275732 0.96278894 0
0.61737061 -0.33321571 0.95707047 0
0.99679375 -0.31128502 1.7569124 0
-0.50417423 -0.44150925 -0.36407769 0
-0.17423534 -0.49293041 -0.35650843 0
0.33651733 -0.48589993 -0.35956466 0
-0.54706955 -0.3919735 -0.35798302 0
-0.37012386 -0.33897591 -0.34162077 0
-0.27375031 -0.39419746 -0.3511959 0
0.24799252 -0.35366249 -0.35774639 0
0.69200802 -0.38515472 -0.34411302 0
-0.55841064 -0.27421188 -0.36256614 0
0.19279003 -0.28597355 -0.35379675 0
0.65573502 -0.30368614 -0.34450543 0
-0.56508923 -0.19173813 -0.36375102 0
-0.36562729 -0.1379509 -0.35665154 0
0.12623882 -0.14614868 -0.35550079 0
0.61718082 -0.21048355 -0.3459515 0
0.98175812 -0.14309025 -0.3251299 0
-0.55652237 -0.061717987 -0.37376374 0
-0.35689163 -0.074446678 -0.36069 0
0.53824425 -0.013445854 -0.35121101 0
0.58203888 -0.10385799 -0.34997857 0
0.97202301 -0.049250603 -0.32880285 0
-0.67418957 0.019126892 -0.39956263 0
-0.55058479 0.070614815 -0.38357827 0
-0.35287285 0.024236679 -0.36370549 0
0.028321266 0.014214516 -0.35456112 0
0.48672295 0.077381134 -0.35262817 0
0.97358131 0.078609467 -0.33920625 0
-0.66551685 0.12212658 -0.40909088 0
-0.5615015 0.15886974 -0.38580045 0
-0.32849026 0.15966606 -0.37648675 0
-0.046093941 0.12189293 -0.35294309 0
0.51966572 0.11951923 -0.35276422 0
-0.65936852 0.23019886 -0.41726369 0
-0.57524586 0.23596096 -0.38694292 0
-0.18448162 0.20829678 -0.39050058 0
-0.022573471 0.19348621 -0.35905659 0
0.5436058 0.22415543 -0.36135578 0
0.95819759 0.23850632 -0.34813544 0
-0.65346813 0.32518673 -0.42379281 0
-0.56966686 0.31225204 -0.39348319 0
-0.14918995 0.32502365 -0.40123984 0
0.025759697 0.34240341 -0.37459478 0
0.57188988 0.33892822 -0.37341732 0
-0.6503315 0.38655376 -0.42814329 0
-0.54932308 0.40053463 -0.4025726 0
-0.1070919 0.4643755 -0.41631109 0
0.58842659 0.42634678 -0.37991998 0
0.93885422 0.38858128 -0.35625973 0
-0.63592911 0.49119377 -0.4386211 0
0.097221375 0.48586082 -0.39212528 0
-0.40136147 -0.28077412 -0.33978468 0
0.64640999 -0.49049759 0.96172941 0
0.58227444 -0.37614059 0.94146025 0
0.79712486 -0.4672308 1.0644524 0
-0.54891396 -0.48330402 -0.37228507 0
-0.35929489 -0.47516251 -0.35096973 0
0.3054924 -0.4614315 -0.36355177 0
0.70414639 -0.44457817 -0.34165257 0
-0.57655334 -0.41172886 -0.37146124 0
0.22752857 -0.38218021 -0.35843617 0
0.67808151 -0.32755756 -0.34828684 0
