# .PCD v0.7 - Point Cloud Data file format
VERSION 0.7
FIELDS x y z intensity
SIZE 4 4 4 4
TYPE F F F F
COUNT 1 1 1 1
WIDTH 1333
HEIGHT 1
VIEWPOINT 0 0 0 1 0 0 0
POINTS 1333
DATA ascii
0.70104074 -0.056242466 0.29727674 0
0.78802967 -0.016746283 0.33174652 0
0.86638641 0.019141197 0.35601968 0
0.98101568 0.076928854 0.396415 0
0.31772041 -0.069230795 0.16586578 0
0.38878584 -0.052778959 0.23565477 0
0.53327608 -0.031287432 0.2324983 0
0.57849312 -0.012375593 0.27762371 0
0.65148592 0.01396966 0.33005404 0
0.7347703 0.027128458 0.35953379 0
0.22132063 -0.031321526 0.14929175 0
0.29080915 -0.018630028 0.17626582 0
0.35275698 0.0078966618 0.2248349 0
0.42417955 0.05049777 0.25846571 0
0.52663994 0.070473194 0.25431573 0
0.59703588 0.0677917 0.29582369 0
0.16148281 0.064628839 0.14946538 0
0.23468542 0.055092812 0.18012574 0
0.3061161 0.083273649 0.23781464 0
0.38268805 0.12949252 0.28382331 0
0.47754574 0.13985801 0.28459936 0
0.55029249 0.23766947 0.27079603 0
0.65381908 0.30100989 0.3847571 0
0.73740721 0.33055043 0.36954743 0
0.7781496 0.35234809 0.37229735 0
0.11153555 0.11621785 0.1487951 0
0.1881361 0.13673472 0.18780749 0
0.2635107 0.15933061 0.24367701 0
0.35306787 0.18115044 0.29916394 0
0.53576231 0.30800343 0.33859992 0
0.61354065 0.35420918 0.355968 0
0.7079792 0.37731194 0.36070299 0
0.75354433 0.39971209 0.38758826 0
0.099964142 0.17591548 0.16129686 0
0.14528704 0.20374775 0.19332734 0
0.20036221 0.28181386 0.24760811 0
0.54154062 0.38101459 0.33646488 0
0.57341099 0.39229941 0.33902445 0
-0.05398345 0.28283679 0.1392598 0
0.010576725 0.3160826 0.16311999 0
0.097465515 0.34085214 0.21005546 0
0.17096663 0.35319495 0.24948053 0
0.23360109 0.38013959 0.26774007 0
-0.17315602 0.29556465 0.11655979 0
-0.11279273 0.32595634 0.15162273 0
-0.038340092 0.36504531 0.19795026 0
0.05041647 0.39817619 0.22446573 0
0.12201595 0.42702079 0.25140765 0
-0.1639781 0.40393829 0.20087244 0
-0.089436054 0.41732216 0.22632092 0
0.030896187 0.4599818 0.25842071 0
-0.2387929 0.45634985 0.20790672 0
0.91033602 -0.25973177 0.38568673 0
0.94148493 -0.22305059 0.39510214 0
0.87703228 -0.19309711 0.42654824 0
0.93061256 -0.15853477 0.41968679 0
0.64907598 -0.13566899 0.35130998 0
0.6903162 -0.12456083 0.37707284 0
0.8426981 -0.14223886 0.46660072 0
0.90349054 -0.078371525 0.47294915 0
0.92906332 -0.013177156 0.47970489 0
0.61164856 -0.088711739 0.37943828 0
0.67350912 -0.07602191 0.40113115 0
0.76365328 0.0051457882 0.41188133 0
0.88326693 0.027164221 0.45703787 0
0.89792299 0.050658703 0.50293016 0
0.5820756 -0.026355982 0.3789542 0
0.64105415 0.022880554 0.38604161 0
0.72632694 0.058614731 0.39877978 0
0.8809762 0.099387407 0.51197135 0
0.0015134811 -0.13374639 0.22672942 0
0.047457218 -0.11205745 0.23561242 0
0.36604357 -0.0068073273 0.31981486 0
0.40075159 0.04063797 0.34681663 0
0.59887171 0.12239981 0.38798869 0
0.6588397 0.17400908 0.44044086 0
0.73097229 0.22432899 0.45951754 0
-0.024525642 -0.073871374 0.22377448 0
0.027607918 -0.043670177 0.25940034 0
0.06528616 0.001875639 0.2876066 0
0.30763578 0.080856085 0.30861276 0
0.36462259 0.12658119 0.35015985 0
0.48372936 0.18034124 0.37842506 0
0.55176592 0.20740604 0.39393282 0
0.62115145 0.23188114 0.44582129 0
0.72422695 0.23584294 0.45313585 0
0.012741089 0.028618097 0.25677434 0
0.060722351 0.0824821 0.29575673 0
0.13613701 0.14830065 0.33191174 0
0.24503374 0.18134499 0.29257444 0
0.31449842 0.21390319 0.3176685 0
0.42987967 0.26976752 0.38839334 0
0.52250195 0.29026103 0.41295391 0
0.57913065 0.30839825 0.44114387 0
0.058847427 0.16440225 0.28670862 0
0.11585712 0.22087932 0.31069905 0
0.19799185 0.25169468 0.34541088 0
0.28227758 0.31485963 0.36911744 0
0.37187624 0.32856107 0.36097869 0
0.45188475 0.3899641 0.42404786 0
-0.26500964 0.14858592 0.24048904 0
-0.21095204 0.14477456 0.25355399 0
0.13489008 0.29394031 0.29883969 0
0.17819929 0.32598376 0.31070259 0
0.25579643 0.36573792 0.37904209 0
0.32162285 0.42550302 0.38468209 0
0.43324614 0.45590281 0.39155337 0
-0.29164219 0.21284866 0.24314927 0
-0.28222871 0.26801217 0.25271961 0
-0.063254356 0.40187752 0.25139064 0
0.016434669 0.39051175 0.26458761 0
0.25769854 0.45921993 0.36106598 0
-0.16792607 0.41861141 0.22791643 0
-0.074119806 0.44007123 0.25549585 0
-0.014275789 0.4546001 0.27247739 0
0.81341267 -0.18599963 0.47157088 0
0.64130163 -0.1663959 0.46172047 0
0.69146776 -0.1499486 0.48716095 0
0.78884602 -0.11728787 0.51267087 0
0.85354233 -0.066007614 0.50473046 0
0.59778214 -0.10451055 0.45679557 0
0.66019058 -0.071289301 0.46497121 0
0.76032495 -0.046659708 0.53936589 0
0.84648609 0.011146307 0.53251684 0
0.88405561 0.058908463 0.51450253 0
0.56957245 -0.042565107 0.44025949 0
0.60936785 0.006793499 0.48552662 0
0.65278339 0.053040028 0.54800737 0
0.84612131 0.076795578 0.54028469 0
0.88012028 0.13803005 0.52327597 0
0.09459877 -0.11447978 0.32616574 0
0.12161207 -0.078902483 0.35073012 0
0.17320108 -0.044142723 0.38968217 0
0.51163101 0.08512187 0.50688899 0
0.56969118 0.10667229 0.51463532 0
0.62865019 0.14259458 0.51340806 0
0.070132732 -0.062164068 0.31760305 0
0.10203028 -0.014673948 0.35061646 0
0.1713829 0.023089886 0.39288202 0
0.26485872 0.09126687 0.43358088 0
0.34710884 0.1263411 0.47638261 0
0.42124939 0.1517837 0.50706565 0
0.51949453 0.14838576 0.53149015 0
0.62632179 0.2422955 0.50469637 0
0.68270826 0.24624968 0.57096499 0
0.092104912 0.064748287 0.3604477 0
0.14645767 0.10691357 0.37620422 0
0.22985458 0.15896988 0.40503639 0
0.31221056 0.19413424 0.44395727 0
0.38624334 0.2092073 0.47884154 0
0.50805902 0.33262062 0.48034933 0
0.57033014 0.32560444 0.50319803 0
0.6261816 0.34184575 0.55963981 0
0.15255022 0.1809051 0.36798912 0
0.20161152 0.23653889 0.41491777 0
0.28251934 0.27886033 0.42107004 0
0.33197784 0.36716056 0.46965924 0
0.4714036 0.39164281 0.48627263 0
0.5141511 0.38003755 0.50839323 0
0.22892904 0.34781098 0.45910099 0
0.32072735 0.42924428 0.45334381 0
0.41411972 0.46268582 0.4843477 0
0.3148737 0.48769212 0.45574081 0
0.96717691 -0.010627747 0.69286644 0
0.74316597 -0.019889593 0.57747138 0
0.95024204 0.01611805 0.67864311 0
0.62446499 0.04976964 0.55964947 0
0.71238136 0.062978983 0.59290212 0
0.74332905 0.058370352 0.59276521 0
0.48306847 0.1017139 0.5414893 0
0.56133366 0.084863901 0.54893005 0
0.66227388 0.099560261 0.58376575 0
0.4668808 0.15409184 0.54468 0
0.49616766 0.13950896 0.54604828 0
0.71349573 0.30176568 0.62165725 0
0.74463892 0.32936049 0.65267289 0
0.73721266 0.39269805 0.66611648 0
0.77333689 0.42852378 0.71562111 0
0.1743679 0.27778792 0.51433599 0
0.23798752 0.31476116 0.55453593 0
0.28529739 0.3323648 0.58314908 0
0.47491407 0.34294105 0.62563491 0
0.75642824 0.4756403 0.72742033 0
0.15885592 0.30132771 0.51007289 0
0.21303844 0.33265233 0.53958362 0
0.28373623 0.35541463 0.57862449 0
-0.13200474 0.34816265 0.51047486 0
-0.2116344 0.3748703 0.51303446 0
-0.17424035 0.39656627 0.50396597 0
-0.22073936 0.45126009 0.48705548 0
-0.21401644 0.45597827 0.50647646 0
-0.23414278 0.3791995 0.52412987 0
0.89695168 -0.21204376 0.027927831 0
0.96982813 -0.20539308 0.038640946 0
0.85984278 -0.15219069 0.025361404 0
0.93812656 -0.14509559 0.047321886 0
0.83198023 -0.090306282 0.036078095 0
0.65932226 0.0043544769 0.0085043013 0
0.62575102 0.070923805 0.013797507 0
0.54822636 0.13032365 -0.0140533 0
0.59553194 0.15624881 0.013591558 0
0.63696766 0.22004986 0.037466168 0
0.52135706 0.20525908 -0.022932097 0
0.56247187 0.24048495 -0.0014986396 0
0.62637901 0.27671194 0.030844912 0
-0.070362568 0.096990705 -0.013805613 0
0.098759174 0.15326762 -0.0092745274 0
0.11986399 0.16043377 0.00030791759 0
0.5625248 0.30774641 -0.0020375401 0
-0.16881037 0.1688062 -0.030913249 0
-0.097036839 0.15141082 -0.0244032 0
-0.16719079 0.21550822 -0.028265119 0
-0.13164759 0.24407971 -0.025054976 0
-0.22329116 0.3464812 -0.02328828 0
-0.11083484 0.31579053 -0.0078805387 0
0.88683558 -0.11676764 0.053627089 0
0.93393564 -0.096404552 0.065860048 0
0.64107466 -0.11927843 0.059288502 0
0.69253397 -0.092291594 0.098969281 0
0.84022713 -0.05370903 0.078411534 0
0.8873415 -0.028926849 0.10430889 0
0.95726109 0.0018925667 0.095345408 0
0.55653381 -0.11154079 0.045563146 0
0.59910059 -0.067560434 0.080480576 0
0.67009068 -0.048426628 0.12370855 0
0.79168034 -0.005286932 0.091527641 0
0.8742857 0.029561996 0.098595023 0
0.92274427 0.072552681 0.10918762 0
0.30213451 -0.063976288 0.04770337 0
0.34044456 -0.034959793 0.069764182 0
0.56943035 -0.010487795 0.081488535 0
0.63168001 0.076434851 0.077270031 0
0.67573166 0.13062072 0.062133446 0
0.26117611 0.006349802 0.039978355 0
0.31787634 0.022542 0.070875809 0
0.43669558 0.080330372 0.068214223 0
0.49298191 0.11477375 0.097933799 0
0.62240744 0.14620018 0.068882003 0
0.69124365 0.19182396 0.069392368 0
0.74886227 0.2403636 0.096084028 0
0.034159184 0.017766476 0.029762447 0
0.085165501 0.023690224 0.06767045 0
0.21114206 0.081214428 0.03025192 0
0.27714252 0.10563922 0.069575787 0
0.37889385 0.17104506 0.096277013 0
0.44616508 0.17668295 0.11108972 0
0.67648554 0.27113414 0.058674976 0
0.72520781 0.36552072 0.088665202 0
-0.01347208 0.079842806 0.024454802 0
0.039100647 0.092302561 0.071899101 0
0.16286612 0.16322207 0.024512142 0
0.23340034 0.1903398 0.066797346 0
0.3337245 0.23734045 0.10399126 0
0.40234947 0.24013758 0.12412322 0
0.72805643 0.4118247 0.11524558 0
-0.057819843 0.17215157 0.019812852 0
-0.0028605461 0.18743789 0.073767632 0
0.13209963 0.23180866 0.026328459 0
0.18880749 0.27608013 0.054917991 0
0.26726913 0.33426547 0.098118141 0
0.32710075 0.39160442 0.065445334 0
-0.19073296 0.23140895 0.018821627 0
-0.12438178 0.26070881 0.039966375 0
-0.054875374 0.28181589 0.073003292 0
0.17681408 0.40195382 0.055315852 0
0.22226715 0.42707968 0.091672838 0
0.36273766 0.46554422 0.058818161 0
-0.22474837 0.29066014 0.047796935 0
-0.16702175 0.30948818 0.079226196 0
-0.073746681 0.42218661 0.026202798 0
0.15850067 0.46748209 0.031697184 0
0.19029474 0.48396957 0.06402415 0
-0.059568167 0.47808313 0.04216145 0
0.86005878 -0.10401702 0.16867155 0
0.93879652 -0.08488965 0.18104467 0
0.74728441 -0.085196018 0.23034441 0
0.81590176 -0.071314573 0.21797861 0
0.88843393 -0.030358791 0.18583924 0
0.97005033 -0.028430223 0.2506355 0
0.52315569 -0.075063944 0.14999177 0
0.56755066 -0.047140598 0.17396978 0
0.67845535 -0.012503862 0.15374222 0
0.75399303 0.012313843 0.17484219 0
0.86885643 0.050614595 0.18233103 0
0.87822342 0.12705421 0.20096236 0
0.3278861 -0.043490171 0.16997328 0
0.47699356 -0.0064854622 0.16123368 0
0.52759552 0.00028944016 0.17645642 0
0.6407218 0.0457201 0.19440854 0
0.7244873 0.08003664 0.20798223 0
0.77767181 0.13964248 0.23689742 0
0.91380501 0.19800091 0.22530824 0
0.96303129 0.23848581 0.23902701 0
0.25107622 0.012441158 0.15451477 0
0.31070757 0.016767979 0.18225512 0
0.42030716 0.064634562 0.17927323 0
0.49268675 0.098748446 0.17539285 0
0.58019638 0.1401999 0.18375994 0
0.67175722 0.22502589 0.23300503 0
0.74698353 0.23678827 0.24474324 0
0.86535788 0.25514364 0.2177704 0
0.93219042 0.3166976 0.21872988 0
0.10269356 0.058793306 0.11107886 0
0.18570709 0.083842278 0.15128332 0
0.26246214 0.1002152 0.19112289 0
0.39004755 0.15265346 0.14683415 0
0.46564674 0.18753195 0.15298304 0
0.54267216 0.25405717 0.19251426 0
0.64117336 0.28918862 0.22434533 0
0.70303154 0.35441327 0.23410326 0
0.84821463 0.35381484 0.23023979 0
0.9178443 0.40623808 0.21190684 0
0.076722145 0.11766219 0.12038256 0
0.14157486 0.15200901 0.15967859 0
0.22024488 0.18200183 0.20066138 0
0.33309984 0.27322626 0.12952413 0
0.42084551 0.24997473 0.13926439 0
0.51980734 0.30479932 0.21275485 0
0.56846237 0.34987164 0.22718944 0
0.7047534 0.41909289 0.21424697 0
0.76585245 0.41414571 0.22169197 0
0.03758812 0.20920527 0.1182778 0
0.1044836 0.21687078 0.16211782 0
0.16268015 0.24459052 0.19106942 0
0.2984395 0.33414507 0.12530917 0
-0.11524439 0.29621971 0.10827367 0
-0.032274246 0.31509149 0.1311968 0
0.038477421 0.34832358 0.16495305 0
0.12416792 0.39217257 0.19392827 0
0.26785994 0.3883431 0.12546711 0
-0.14802456 0.33370268 0.12052134 0
-0.079966307 0.36385 0.15911748 0
0.0025472641 0.39155436 0.19473681 0
0.1066184 0.42752397 0.20747073 0
-0.13132191 0.42336476 0.19068949 0
0.8176446 -0.24995542 0.2776432 0
0.82914495 -0.24225163 0.28696197 0
0.97478628 -0.19675756 0.34738272 0
0.80086994 -0.210217 0.27741358 0
0.83037472 -0.16155148 0.30365127 0
0.94736195 -0.12419081 0.3467429 0
0.71600676 -0.085530043 0.26738456 0
0.79625225 -0.068562031 0.29659832 0
0.88695383 -0.013132811 0.30173931 0
0.97713089 -0.00065779686 0.29922244 0
0.59112263 -0.049392223 0.26629955 0
0.65913725 -0.028690577 0.29618439 0
0.75751209 -0.011969566 0.32098007 0
0.85874939 0.020834923 0.32425714 0
0.95070601 0.16095018 0.28465986 0
0.98746061 0.17262387 0.27782103 0
0.38301373 -0.021725416 0.27700031 0
0.41351748 -0.0011496544 0.24659753 0
0.56270027 0.028407812 0.25703803 0
0.60775089 0.039019346 0.29027414 0
0.66654348 0.089644909 0.3222425 0
0.92530918 0.20459628 0.29356629 0
0.96181917 0.21963549 0.27310658 0
0.044241905 -0.076306343 0.22604978 0
0.082154751 -0.053057432 0.21798591 0
0.3334446 0.037933111 0.26381165 0
0.38806438 0.056541443 0.25800657 0
0.49741411 0.11085033 0.26121598 0
0.58164454 0.13241315 0.27323103 0
0.65146399 0.1715498 0.30517972 0
0.77935886 0.28361011 0.25668386 0
0.84669781 0.28604555 0.2615588 0
0.92334652 0.2843709 0.26756537 0
-0.063376427 -0.064882755 0.21591567 0
0.0063614845 -0.018607855 0.24662465 0
0.062198639 0.019412994 0.25335175 0
0.2832799 0.12829852 0.25225401 0
0.34827089 0.14811659 0.27691934 0
0.43267298 0.15904903 0.29137701 0
0.5444231 0.24183011 0.25381395 0
0.60202122 0.26513767 0.27798438 0
0.72177172 0.35200644 0.32611871 0
0.77503633 0.36078763 0.34617448 0
-0.038793564 0.054176927 0.24118659 0
0.050563812 0.10838556 0.27150035 0
0.10205889 0.1525631 0.27141026 0
0.23745298 0.19925213 0.27747571 0
0.30723286 0.21875906 0.29397726 0
0.58033323 0.40576148 0.33986336 0
0.68587732 0.40127802 0.32996273 0
0.74420881 0.4507885 0.33151817 0
-0.18276048 0.13992465 0.25447455 0
-0.09478569 0.17577636 0.27455878 0
0.057932377 0.1850611 0.2758559 0
0.10198164 0.23636949 0.2883141 0
0.16538 0.2980721 0.29532164 0
0.22673321 0.35129189 0.27035818 0
0.47536421 0.47785163 0.25873649 0
-0.21600223 0.18109834 0.25639483 0
-0.13418293 0.21034598 0.28223222 0
0.045364857 0.37402022 0.21066539 0
0.13852072 0.38316202 0.2455778 0
0.22360373 0.39757562 0.26037103 0
0.28821802 0.46554065 0.29471371 0
-0.28062654 0.32037354 0.2559877 0
-0.18285775 0.35501695 0.27599502 0
-0.080582619 0.39977098 0.21629304 0
-0.0041930676 0.4085511 0.22501768 0
0.097742558 0.43539751 0.24040765 0
-0.28673339 0.39605951 0.25823212 0
-0.21174169 0.43830085 0.23499373 0
-0.15483999 0.45942402 0.23094814 0
0.90799284 -0.24118733 0.39296779 0
0.94886541 -0.19428778 0.37900847 0
0.87535381 -0.17947197 0.43535364 0
0.9332366 -0.12759542 0.40289837 0
0.98337698 -0.07954216 0.41804028 0
0.68808937 -0.09078598 0.38042393 0
0.91644669 -0.023923874 0.37084809 0
0.95602655 0.0017535686 0.37743315 0
0.59955502 -0.052731037 0.38104761 0
0.65430164 -0.040575743 0.3986702 0
0.7502799 0.014511824 0.37563467 0
0.82622051 0.05267477 0.38757625 0
0.40566921 0.0013701916 0.33694959 0
0.58227921 -0.0015673637 0.36988661 0
0.63025618 0.038875103 0.37556496 0
0.71573591 0.078945875 0.39928445 0
0.79079533 0.098156214 0.40567768 0
0.11260653 -0.051455259 0.33895671 0
0.39370108 0.066799402 0.34347218 0
0.59189224 0.15333796 0.38358149 0
0.65312433 0.18158174 0.40975848 0
0.74759007 0.2387712 0.44693822 0
0.079253674 0.026051283 0.32284743 0
0.16180992 0.077143431 0.38496643 0
0.22664833 0.12443709 0.40614522 0
0.36014318 0.14229965 0.34271526 0
0.39319181 0.19137573 0.3731916 0
0.53965569 0.23293662 0.38519102 0
0.61251116 0.26582432 0.40828061 0
0.68661594 0.33468795 0.38870594 0
0.79383039 0.37127209 0.38202912 0
0.97714996 0.49229956 0.41456962 0
0.074071407 0.10255742 0.30995038 0
0.13196945 0.15237641 0.35547957 0
0.20977449 0.19900179 0.386208 0
0.29586601 0.23551774 0.36925974 0
0.39771032 0.22914767 0.38498163 0
0.50745678 0.33389783 0.39489883 0
0.58957338 0.36019897 0.36609435 0
0.66506767 0.4017005 0.36809069 0
0.74795151 0.42742252 0.38225156 0
0.11265612 0.22356153 0.33441806 0
0.18088913 0.27337861 0.33917946 0
0.2551446 0.31983876 0.36817688 0
0.30732965 0.38812757 0.41073135 0
0.43236446 0.43103886 0.43101215 0
0.54066372 0.45240283 0.39819431 0
-0.13125753 0.24233568 0.29946804 0
-0.060578346 0.25620472 0.29664135 0
0.2539463 0.40203285 0.3525334 0
0.43268204 0.48807073 0.36919481 0
-0.066635847 0.40676355 0.38159195 0
-0.028514624 0.4131819 0.38891691 0
-0.082389593 0.45575368 0.39014399 0
0.83971739 -0.13602638 0.4749893 0
0.89304256 -0.10891533 0.46468607 0
0.70231056 -0.075240612 0.46959102 0
0.81404209 -0.089549541 0.49135029 0
0.8895936 -0.032402039 0.49910921 0
0.92506647 0.010105371 0.48963273 0
0.59015036 -0.026318312 0.44662434 0
0.65461588 -0.025153875 0.45756322 0
0.71985912 -0.010939598 0.4612675 0
0.87449741 0.048545361 0.52951896 0
0.89738226 0.080562353 0.51435888 0
0.61159039 0.049920321 0.45745918 0
0.68078566 0.12675667 0.4632383 0
0.60785294 0.14476466 0.47624394 0
0.65786552 0.19003367 0.47830245 0
0.73237181 0.2279036 0.47987658 0
0.26319933 0.14117026 0.42554554 0
0.33718157 0.1846168 0.45492545 0
0.39053011 0.20033884 0.47435099 0
0.61987019 0.28670883 0.48904783 0
0.63415289 0.34376287 0.52498484 0
0.037205219 0.16033316 0.41969582 0
0.1209693 0.1475451 0.40650216 0
0.26289845 0.17799878 0.42446762 0
0.31195736 0.22093081 0.43859017 0
0.37329388 0.24576902 0.46491647 0
0.50871563 0.33881807 0.46309093 0
0.56242132 0.35547829 0.49336478 0
0.62162161 0.38802409 0.54623294 0
0.04965353 0.17137051 0.41997567 0
0.0904603 0.23737967 0.42828345 0
0.27236223 0.35928869 0.50684744 0
0.32517624 0.3488512 0.44173467 0
0.46176529 0.41635489 0.46093222 0
0.4923811 0.43437719 0.50189364 0
0.01967144 0.34590209 0.44837314 0
0.32312107 0.42641783 0.43666881 0
0.4085722 0.49174929 0.46505368 0
0.45504332 0.49499726 0.49829239 0
-0.088015318 0.40850258 0.4707675 0
-0.019003153 0.40374732 0.44026107 0
-0.21686554 0.4717164 0.46478677 0
-0.15125394 0.46236825 0.46814007 0
-0.068892717 0.46976066 0.45966011 0
0.63372087 0.29985738 0.54987794 0
-0.22027731 0.45697141 0.4965719 0
-0.16881919 0.44514143 0.49832636 0
-0.20922732 0.49369836 0.51137507 0
0.87081242 0.35640454 -0.14981365 0
0.85639715 0.42691779 -0.15953256 0
0.8784771 0.46570444 -0.14426897 0
0.98783636 -0.056868076 -0.13658404 0
0.93305683 0.037193537 -0.13065968 0
0.90204287 0.12984633 -0.13207054 0
0.96180344 0.15219951 -0.10655411 0
0.92046213 0.23763108 -0.12094589 0
0.89633369 0.33833241 -0.13428156 0
0.90919352 0.38791013 -0.12672651 0
0.9064393 0.4450438 -0.12824608 0
0.22853041 0.36481571 -0.062869117 0
0.29463053 0.40521884 -0.08323811 0
0.36673164 0.40538549 -0.085978821 0
0.25090647 0.44595623 -0.089020088 0
0.86726189 -0.22276282 -0.0052274019 0
0.6643281 -0.05702877 -0.023324281 0
0.69798851 -0.051703691 -0.0025824159 0
0.63793039 -0.019927263 -0.023972899 0
0.66180611 0.0063772202 -0.0014561564 0
0.27343893 -0.050740719 0.0014586896 0
0.59140921 0.073724508 -0.02584599 0
0.6235342 0.092077255 0.00075772405 0
0.230299 0.0027914047 0.0030882359 0
0.56682205 0.13697457 -0.021873653 0
0.60095501 0.18896747 -0.00048097968 0
0.66130877 0.22637105 0.030372456 0
0.0074496269 0.02270627 -0.0019011796 0
0.11808062 0.10300779 -0.019600838 0
0.18084955 0.094647646 0.0046781003 0
0.58056593 0.25652909 -0.012899831 0
0.59706163 0.32948828 0.028359011 0
-0.031772614 0.10514128 -0.0001270771 0
0.096970558 0.14252281 -0.021348849 0
0.18833447 0.161098 0.024100542 0
0.57417774 0.3486557 0.01806213 0
-0.13616037 0.17697442 -0.016194269 0
-0.087110519 0.20544899 -0.00050002337 0
0.042960167 0.21484625 -0.044852257 0
0.23563099 0.34537935 0.042915821 0
-0.17701983 0.23644292 0.0027151406 0
-0.091524601 0.24817729 0.0015790015 0
-0.039915562 0.31514096 0.018944994 0
0.24787331 0.41008091 0.046754166 0
-0.21864796 0.3198874 -0.020638809 0
-0.010300636 0.4421159 0.040165842 0
0.91252756 -0.19964361 0.026589572 0
0.98949194 -0.17624807 0.049474567 0
0.66107845 -0.20002198 0.050433859 0
0.87431622 -0.13367391 0.033569723 0
0.95044565 -0.084340572 0.072516069 0
0.6435833 -0.12430811 0.062413916 0
0.72145605 -0.12209773 0.086329386 0
0.84550571 -0.057452202 0.05134362 0
0.91768646 -0.019647837 0.08327423 0
0.98394489 0.0064592361 0.10432051 0
0.60363102 -0.066629171 0.077339187 0
0.68596268 0.025506973 0.03657487 0
0.29979515 -0.054449797 0.024496421 0
0.35976315 -0.028714657 0.068918556 0
0.49125147 0.05080843 0.061935753 0
0.53436995 0.072666883 0.090750009 0
0.67101908 0.10459399 0.039788961 0
0.72126722 0.14727664 0.066770762 0
0.79356384 0.18848681 0.097718999 0
0.081365585 -0.048421383 0.022500098 0
0.12299538 -0.025209427 0.058884576 0
0.26450205 0.013576984 0.029799223 0
0.32456493 0.044324636 0.068349093 0
0.45581341 0.10316849 0.082005754 0
0.49604988 0.12111497 0.10448875 0
0.71230125 0.20564389 0.059144869 0
0.76590347 0.2412138 0.0870184 0
0.89276648 0.32739305 0.13378379 0
0.90721846 0.37834477 0.148449 0
0.040901661 0.022703886 0.03000702 0
0.098598003 0.037802935 0.079452977 0
0.21971035 0.099637508 0.037729576 0
0.28016043 0.12575531 0.064751729 0
0.38370848 0.19656229 0.10826646 0
0.4404068 0.19352055 0.12194143 0
0.74860716 0.32244849 0.074527159 0
0.90054226 0.45146942 0.13230155 0
0.0055322647 0.10109544 0.036695793 0
0.050292969 0.13183558 0.086016849 0
0.17585135 0.18412137 0.059746742 0
0.23884392 0.20324039 0.059587345 0
0.3285532 0.2702179 0.11245877 0
0.39677382 0.2548728 0.12604624 0
-0.067943573 0.22013402 0.054420143 0
0.0087633133 0.23330116 0.087971881 0
0.070030689 0.28204942 0.13477619 0
0.28707886 0.36558414 0.10752636 0
0.31365967 0.41225672 0.14372164 0
-0.18197322 0.2524153 0.049501494 0
-0.11500859 0.26996446 0.081896633 0
-0.033513069 0.29607809 0.11877574 0
0.052466393 0.29898131 0.1346074 0
0.27289152 0.42610574 0.10489 0
-0.15055394 0.33441854 0.099707901 0
-0.074489832 0.35759676 0.14664543 0
0.88461399 -0.10641336 0.15992816 0
0.92460632 -0.084537029 0.16977465 0
0.55759859 -0.12741852 0.14257808 0
0.65503454 -0.10198379 0.12154329 0
0.72128582 -0.079110146 0.1313763 0
0.80961037 -0.04732132 0.15786318 0
0.89840984 -0.022909641 0.16254361 0
0.52969313 -0.059719324 0.15632512 0
0.5922389 -0.056190252 0.15977018 0
0.68302631 -0.016513824 0.14775792 0
0.76162434 0.020409346 0.18372256 0
0.90227365 0.063399553 0.18797539 0
0.97100258 0.18099761 0.21926048 0
0.30945969 -0.041805744 0.14871886 0
0.35756731 -0.038815975 0.17503178 0
0.48604631 0.0046834946 0.16503233 0
0.53968334 0.034437656 0.18276295 0
0.6200099 0.097411871 0.1953443 0
0.83873224 0.21802521 0.234874 0
0.9017911 0.22293925 0.2195584 0
0.99861956 0.22212338 0.23766735 0
0.16122913 0.0099227428 0.12541184 0
0.25980139 0.018591166 0.1571649 0
0.32358503 0.024607897 0.18712576 0
0.43013144 0.076798677 0.15327686 0
0.50976324 0.12663627 0.15517884 0
0.58268833 0.1544137 0.15342566 0
0.69442701 0.23528385 0.22778498 0
0.73319006 0.23555136 0.23787829 0
0.87646055 0.27472878 0.23376705 0
0.97957754 0.36792016 0.22503681 0
-0.0010247231 -0.034085989 0.20254733 0
0.12952566 0.061589956 0.12353387 0
0.19100952 0.084303379 0.15069591 0
0.27596617 0.12731647 0.20123592 0
0.38028193 0.15476108 0.15361296 0
0.47710133 0.19474411 0.14182615 0
0.57862806 0.25810266 0.2095858 0
0.66956711 0.28158212 0.22649613 0
0.70527935 0.28608131 0.24189557 0
0.83423853 0.3492465 0.23252252 0
0.10287952 0.11969829 0.13017884 0
0.14442539 0.16838646 0.15837131 0
0.22556067 0.18304729 0.19496074 0
0.36848783 0.28274083 0.1496243 0
0.37199545 0.30487251 0.15279199 0
0.039670944 0.28507304 0.14974847 0
0.097759247 0.28858924 0.16047955 0
0.1902585 0.32657719 0.21734916 0
0.23533154 0.33281207 0.23017691 0
-0.10364676 0.31310344 0.15244153 0
-0.023395061 0.32963455 0.17092252 0
0.061437607 0.34954703 0.19448861 0
0.14372063 0.38041401 0.21672921 0
-0.13950062 0.39451909 0.20211424 0
-0.0767138 0.38495111 0.21264155 0
0.020060539 0.39752769 0.2348554 0
0.10971165 0.43608224 0.24544686 0
-0.18373227 0.44827175 0.22295196 0
-0.1403892 0.46535408 0.21880192 0
0.84107399 -0.26220465 0.27446154 0
0.86425161 -0.24861193 0.28745729 0
0.80888605 -0.17402458 0.28988662 0
0.83315849 -0.16990423 0.28160152 0
0.92555094 -0.071553707 0.23385057 0
0.64730167 -0.10324931 0.25590983 0
0.7329874 -0.090602398 0.27458483 0
0.81458473 -0.076813459 0.26239115 0
0.91265249 -0.041535616 0.26996994 0
0.99373817 -0.0050122738 0.29469308 0
0.61827612 -0.0545609 0.25754827 0
0.66788626 -0.024981499 0.28494895 0
0.84912729 0.12050033 0.23583636 0
0.96277905 0.1355927 0.28662676 0
0.39940453 -0.049975157 0.25720924 0
0.44263363 -0.013493061 0.24510333 0
0.57480383 0.033833981 0.24475686 0
0.62376404 0.052654982 0.28194332 0
0.78679991 0.19287825 0.24336724 0
0.93964005 0.21653724 0.27805257 0
0.98230982 0.24893093 0.26489931 0
-0.030653954 -0.11016512 0.21095063 0
0.056609154 -0.089453697 0.23969623 0
0.10677052 -0.058572769 0.22297595 0
0.34373999 0.050546408 0.26144364 0
0.40315962 0.056386709 0.26084429 0
0.48805618 0.10437799 0.28060436 0
0.580966 0.14844012 0.25108743 0
0.64294863 0.2233789 0.27691254 0
0.79617119 0.25209546 0.27031893 0
0.86235666 0.27765179 0.28230172 0
-0.035040855 -0.052396178 0.22126363 0
0.028115749 -0.022260666 0.23859771 0
0.092899799 0.015774012 0.27047944 0
0.29476357 0.12406421 0.27968454 0
0.36068201 0.15534377 0.29379404 0
0.56633234 0.26726794 0.28059715 0
0.63970423 0.31801653 0.30760533 0
0.74043798 0.33324337 0.33244276 0
0.79269457 0.36545801 0.33685401 0
-0.11717558 0.07388103 0.24877171 0
-0.020739079 0.075728893 0.25421426 0
0.074232578 0.12472463 0.27596694 0
0.13607788 0.16765475 0.30504972 0
0.24208212 0.21078515 0.30104861 0
0.32387161 0.24572539 0.32365406 0
0.5573163 0.34903359 0.29141995 0
0.62133837 0.35599875 0.34456718 0
0.66832209 0.39225507 0.35816807 0
0.76427841 0.4459641 0.30915704 0
-0.16864038 0.13610995 0.25272849 0
-0.089002132 0.16276968 0.27543271 0
0.0012540817 0.22041321 0.28868955 0
0.13722992 0.23858476 0.28540248 0
0.19551325 0.2770288 0.29658622 0
0.27455139 0.33518815 0.30128241 0
-0.24591637 0.24642551 0.24637645 0
-0.10181165 0.24746549 0.2884838 0
-0.065941095 0.31590128 0.289065 0
0.056162834 0.3476392 0.31904835 0
0.12897348 0.38995326 0.26207274 0
0.26029062 0.40895438 0.27090234 0
0.32343292 0.43111229 0.29713148 0
-0.2492106 0.32401145 0.25783268 0
-0.15780878 0.34437668 0.27151299 0
-0.088109732 0.40822852 0.27292782 0
0.013097286 0.4210583 0.26526135 0
0.092791557 0.43906212 0.26848641 0
-0.26402617 0.38922608 0.25126058 0
-0.21117234 0.41134953 0.26085764 0
-0.10778999 0.46481943 0.2656039 0
-0.031286478 0.48615229 0.28507274 0
0.97410011 -0.27993131 0.3753652 0
0.89859629 -0.24213219 0.31203428 0
0.98769474 -0.20997238 0.36292106 0
0.84764338 -0.17362523 0.3075701 0
0.96171093 -0.12399936 0.3609024 0
0.67120838 -0.1361835 0.36926749 0
0.71459675 -0.095917463 0.38058954 0
0.81403685 -0.054575205 0.32973897 0
0.91235018 -0.020550728 0.35038114 0
0.62878704 -0.064693928 0.36702877 0
0.68038511 -0.031347752 0.36407474 0
0.77301979 0.0092411041 0.36515743 0
0.85745573 0.034270525 0.38860571 0
0.39269495 -0.019578218 0.31689811 0
0.43389606 0.0012042522 0.33778518 0
0.65315294 0.070662022 0.36917675 0
0.71192312 0.097712994 0.39756435 0
0.15312767 -0.062576056 0.34630555 0
0.2269659 -0.030973196 0.39561093 0
0.41057825 0.063040733 0.3401528 0
0.60895586 0.15231323 0.3917169 0
0.6684041 0.18185854 0.41073033 0
0.78376532 0.21250296 0.43700698 0
0.84507799 0.31352282 0.36936495 0
0.12436199 0.027584314 0.33983201 0
0.20109558 0.070666075 0.38435775 0
0.26134014 0.11926484 0.4064942 0
0.38325262 0.15844011 0.37202805 0
0.42344379 0.18609715 0.37585035 0
0.57014561 0.24439168 0.38276118 0
0.6382308 0.28611064 0.39067394 0
0.73272038 0.32961297 0.38565701 0
0.81045055 0.3566153 0.37787384 0
0.076040268 0.14113021 0.41859597 0
0.15603018 0.14998174 0.37727788 0
0.23598099 0.19434047 0.37379393 0
0.30984354 0.22978902 0.40348676 0
0.37887621 0.27624869 0.36091828 0
0.51955986 0.32069731 0.44008625 0
0.60796309 0.3401072 0.35862452 0
0.67728043 0.43149781 0.38618737 0
0.12570047 0.23608923 0.41425997 0
0.20242023 0.25681472 0.37435186 0
0.2923336 0.31581974 0.36937755 0
0.47856855 0.40306163 0.44603869 0
0.66468382 0.46855092 0.41841859 0
-0.0023694038 0.33903849 0.34988841 0
0.063433647 0.33850515 0.39982963 0
0.13094187 0.35384405 0.40071982 0
-0.055186749 0.38206923 0.40460676 0
0.0023527145 0.39731407 0.41109067 0
0.11552143 0.41580033 0.41268325 0
-0.11367488 0.44485486 0.45046175 0
0.93127728 -0.2196362 0.42072174 0
0.97243023 -0.20134068 0.40868521 0
0.88335705 -0.17360115 0.46209109 0
0.94835424 -0.12779999 0.45415992 0
0.65193844 -0.14042044 0.46210694 0
0.72318745 -0.10856485 0.45417374 0
0.8410306 -0.10764647 0.4930723 0
0.92786694 -0.048425198 0.49796361 0
0.9516387 0.012044668 0.49258605 0
0.63181925 -0.074403286 0.43304259 0
0.68109083 -0.044263601 0.45513174 0
0.75911188 -0.03069973 0.46362567 0
0.91710424 0.026713133 0.51188374 0
0.93274784 0.037890196 0.5071609 0
0.65724611 0.027797461 0.47446746 0
0.70456791 0.11922526 0.47379565 0
0.77201176 0.15693426 0.45787212 0
0.3451004 0.071184158 0.45703593 0
0.42015696 0.10380077 0.49506557 0
0.52333212 0.10273933 0.51509154 0
0.61000156 0.11757588 0.50357503 0
0.68092299 0.17816257 0.4833535 0
0.7590189 0.20290947 0.466106 0
0.079336166 0.045661688 0.43457553 0
0.3108983 0.10559464 0.43625566 0
0.37605429 0.1449194 0.46355829 0
0.44431114 0.16517901 0.49195737 0
0.57054853 0.28587627 0.46198601 0
0.64235926 0.27258325 0.49412584 0
0.015277386 0.040495276 0.44620019 0
0.059424877 0.10448766 0.45184433 0
0.12832355 0.16119099 0.47740465 0
0.19683886 0.21174264 0.47571707 0
0.36267614 0.21967101 0.44419062 0
0.53215027 0.33982277 0.47279763 0
0.57578802 0.34423232 0.49921298 0
-0.005232811 0.23027611 0.49436009 0
0.10705662 0.22256422 0.45974636 0
0.202075 0.26294923 0.49049622 0
0.26799583 0.33243704 0.52017295 0
0.36729622 0.35456109 0.53288263 0
0.49643469 0.42205453 0.48541716 0
0.52215958 0.39707446 0.50870937 0
-0.18708992 0.23252666 0.52620441 0
-0.12479997 0.24870455 0.52507937 0
-0.032573223 0.29246473 0.50648546 0
0.039124012 0.30652869 0.46809828 0
0.47554493 0.47696757 0.48624223 0
-0.21343255 0.24922574 0.52935994 0
-0.16245365 0.33494675 0.53094423 0
-0.075014114 0.36540687 0.49710903 0
-0.017948389 0.3825289 0.4754346 0
-0.18676615 0.3914187 0.51400256 0
-0.13217354 0.4254905 0.48107827 0
0.84116936 -0.076514482 0.53198409 0
0.88771772 -0.030017138 0.52804685 0
0.70178318 0.014755964 0.52251756 0
0.74836445 0.027349472 0.54262435 0
0.84944582 0.036952972 0.56115353 0
0.6288619 0.058401585 0.53220081 0
0.72076702 0.058789492 0.53627288 0
0.76362038 0.14825249 0.56689417 0
0.53586483 0.10272956 0.53375626 0
0.62049389 0.1230576 0.53662473 0
0.73124599 0.17690039 0.54511094 0
0.75392914 0.20583725 0.575279 0
0.67596102 0.27097678 0.5632453 0
0.74889421 0.30988908 0.61973488 0
0.25853634 0.24034047 0.55577469 0
0.42299843 0.30455947 0.57687443 0
0.46754169 0.32858992 0.59414375 0
0.77673292 0.46745849 0.63866663 0
0.21824265 0.28888392 0.55712205 0
0.29070854 0.32356668 0.57040423 0
0.37865734 0.33910108 0.57594132 0
0.4422698 0.3624258 0.58560455 0
0.21424007 0.36652327 0.55652177 0
-0.23957539 0.30212426 0.54217827 0
0.03841114 0.45439553 0.57819313 0
0.0039448738 0.49346364 0.60564375 0
0.88344574 0.11778307 -0.13346873 0
0.90718889 0.16602087 -0.120942 0
0.87120724 0.20129681 -0.14019874 0
0.89683151 0.25412488 -0.12565294 0
0.94629478 0.30245042 -0.096857235 0
0.89603806 0.33159256 -0.1267211 0
0.93821621 0.37850881 -0.10151014 0
0.85660076 0.42832375 -0.14931838 0
0.91014433 0.46471667 -0.11535816 0
0.96049595 -0.18293762 -0.15966751 0
0.95886326 -0.069559336 -0.14145511 0
0.92792797 0.027900696 -0.13008358 0
0.91030979 0.095817804 -0.12093759 0
0.95335007 0.15896153 -0.10311101 0
0.94995403 0.26197433 -0.09367162 0
0.54340696 0.21082282 -0.020782143 0
0.55865526 0.2433784 -0.017413676 0
0.35700083 0.35100341 -0.08414498 0
0.39860821 0.32295632 -0.069661841 0
0.049577713 0.237782 -0.032703146 0
0.30594492 0.39653635 -0.073528454 0
0.36100388 0.40945554 -0.060171306 0
-0.19125795 0.25795114 -0.034532547 0
0.28255129 0.43697882 -0.057530537 0
0.3163805 0.44404435 -0.051510409 0
-0.22372389 0.33370888 -0.020838767 0
-0.18283153 0.3260293 -0.01733467 0
0.86919498 -0.21555018 0.013097674 0
0.84489536 -0.1506629 0.018276721 0
0.62686396 -0.19179797 0.01622355 0
0.82428265 -0.06603694 0.042790845 0
0.63096952 -0.023984909 -0.022544041 0
0.66719913 0.0026519299 0.012518436 0
0.28377295 -0.070024967 0.016238019 0
0.59577608 0.052723169 -0.019407406 0
0.63448524 0.080843925 0.019039527 0
0.70391798 0.13356471 0.06631659 0
0.07824707 -0.057282209 0.025306717 0
0.095720768 -0.025559425 0.034057677 0
0.2433877 0.0042541027 0.020331293 0
0.28401518 0.054456234 0.05377315 0
0.56112289 0.13228655 -0.02019006 0
0.59882402 0.18218136 0.0071177334 0
0.6838665 0.20726562 0.052456915 0
0.74644232 0.23772359 0.086285099 0
0.021614552 0.010932922 0.015147433 0
0.10102177 0.076686144 -0.0067469776 0
0.19602776 0.088929892 0.018613026 0
0.25358295 0.12586308 0.057487786 0
0.57931328 0.23760653 -0.0048439652 0
0.63663673 0.30522561 0.039095104 0
0.74032259 0.32906032 0.072503924 0
0.87365103 0.44961548 0.12709996 0
-0.022315025 0.089843512 0.018528178 0
0.090003967 0.13261485 -0.018380269 0
0.165483 0.14477205 0.015982062 0
0.22505474 0.17363048 0.057805076 0
0.29255342 0.24988246 0.084658772 0
-0.14949322 0.17994928 -0.018566966 0
-0.081690311 0.19317269 0.016017616 0
-0.019273281 0.21600163 0.059238225 0
0.27845097 0.31607819 0.088806689 0
-0.18210459 0.22862434 0.030032083 0
-0.10936046 0.24410844 0.035206363 0
-0.036597252 0.30384254 0.040413678 0
-0.21221566 0.30272794 0.033751547 0
-0.18929791 0.31526363 0.083662838 0
0.014544487 0.42043984 0.053101853 0
0.91860771 -0.20927811 0.030651748 0
0.95659637 -0.18693066 0.047212631 0
0.88642168 -0.14349413 0.05714418 0
0.94641399 -0.10280776 0.070060462 0
0.59519339 -0.16238546 0.058441877 0
0.64143324 -0.13590693 0.063703761 0
0.70862389 -0.11297631 0.10604422 0
0.85374308 -0.070560455 0.095565945 0
0.89952898 -0.029788971 0.10610174 0
0.98513889 -0.011466503 0.09874332 0
0.61215067 -0.071144104 0.091568157 0
0.67958164 -0.039357424 0.14410691 0
0.3049531 -0.059423685 0.043836534 0
0.35523558 -0.036133528 0.072171688 0
0.486413 0.041748047 0.063183561 0
0.52461052 0.052045107 0.088955924 0
0.73547316 0.1297698 0.082059845 0
0.77822828 0.17388368 0.099816844 0
0.089826107 -0.052544355 0.039439887 0
0.11107492 -0.036299944 0.060100853 0
0.25500441 0.0057070255 0.09921886 0
0.32149744 0.032240152 0.07125774 0
0.42308807 0.078594685 0.12208287 0
0.50024176 0.11968899 0.11467557 0
0.55986118 0.15936708 0.15142964 0
0.78711128 0.2412405 0.10558589 0
0.88484144 0.31674862 0.14855699 0
0.052642822 0.013350964 0.054035932 0
0.10011673 0.035134077 0.089149177 0
0.16853762 0.075594187 0.14077376 0
0.2972126 0.12766171 0.083901957 0
0.38584375 0.17517114 0.11830938 0
0.4485631 0.18294024 0.13055976 0
0.89016628 0.41924357 0.14422323 0
0.02025032 0.085789204 0.061462462 0
0.062731266 0.11887348 0.10415927 0
0.13470554 0.16022754 0.15902075 0
0.27763796 0.20129585 0.084576353 0
0.33324862 0.26004386 0.11938052 0
0.38763332 0.27440262 0.15609302 0
0.0230093 0.21601224 0.10104509 0
0.087768555 0.24573076 0.15119642 0
0.31509447 0.33682489 0.13826527 0
-0.10966563 0.28182137 0.10325882 0
-0.030473232 0.29871273 0.13282423 0
0.053848267 0.32898569 0.16584423 0
0.13155079 0.37353969 0.18815696 0
-0.14475083 0.32404637 0.12913089 0
-0.072815657 0.36547601 0.18037876 0
-0.19280171 0.43355584 0.20027402 0
-0.13631892 0.48471892 0.18720309 0
0.93305588 -0.10301995 0.18030329 0
0.75034618 -0.074210882 0.15033747 0
0.81890154 -0.078706503 0.20792225 0
0.89609766 -0.049275637 0.18925881 0
0.99742746 0.013590097 0.2566984 0
0.52397394 -0.094398499 0.1466255 0
0.5735178 -0.060625315 0.18361545 0
0.71015167 -0.025152922 0.16366467 0
0.77189302 0.021651268 0.18407832 0
0.88702917 0.03323698 0.18888059 0
0.96181297 0.15181994 0.27863824 0
0.3116436 -0.063046694 0.14740717 0
0.35461664 -0.053964615 0.18476319 0
0.47396135 -0.016759872 0.17095073 0
0.5491991 0.0075807571 0.21368466 0
0.66578388 0.073741913 0.19336338 0
0.74936342 0.064816713 0.21890402 0
0.8503623 0.13901711 0.23415603 0
0.89247561 0.18720579 0.24350099 0
0.97806072 0.21785259 0.25390869 0
0.067599773 -0.094626188 0.21937078 0
0.10884523 -0.071169138 0.21981023 0
0.26736164 0.00344944 0.15981467 0
0.32714415 0.012223005 0.19026454 0
0.41903591 0.047399044 0.20581374 0
0.51229048 0.087859869 0.21208017 0
0.55385399 0.1819644 0.19162144 0
0.69557238 0.20470572 0.2317147 0
0.78755283 0.24433231 0.24878849 0
0.86054564 0.26344442 0.25059474 0
0.9397521 0.28728104 0.28378525 0
-0.047330379 -0.042717099 0.22350475 0
-0.015084743 -0.046684742 0.22522052 0
0.095086098 -0.013399601 0.23607905 0
0.2179637 0.076263428 0.16707978 0
0.28220892 0.11196852 0.20322756 0
0.34617662 0.11001205 0.22953452 0
0.60531425 0.23633885 0.21050921 0
0.6582098 0.27545023 0.2429722 0
0.76288176 0.33403707 0.23370123 0
0.82078934 0.33764577 0.23350324 0
-0.058475018 0.0012995005 0.23522606 0
0.17292929 0.16072106 0.18679568 0
0.23233366 0.18289471 0.21574448 0
0.52535486 0.31633949 0.29234496 0
0.72750187 0.41889644 0.30075073 0
0.75877666 0.49285841 0.31225929 0
0.8499856 0.49471569 0.32161409 0
-0.23499894 0.10003018 0.23760006 0
-0.18924093 0.11987114 0.24825054 0
0.12370348 0.22767115 0.2644937 0
0.17451382 0.31655717 0.22958635 0
-0.0080595016 0.34700751 0.21068642 0
0.062648296 0.35340655 0.23333414 0
0.14189529 0.37077451 0.23570102 0
0.25268221 0.38012648 0.2876994 0
-0.15148115 0.33658552 0.27610081 0
-0.072067261 0.38399398 0.23938847 0
0.011438847 0.41079545 0.24988674 0
0.10285711 0.44119978 0.26395613 0
-0.26043034 0.3826158 0.26023734 0
-0.18765974 0.41587317 0.23844102 0
-0.12336993 0.43873012 0.25639057 0
-0.032780647 0.47895515 0.28773057 0
0.85391903 -0.25544429 0.28981459 0
0.80842304 -0.2168262 0.28330469 0
0.85762405 -0.18033934 0.3076084 0
0.61820269 -0.14662862 0.24628541 0
0.73333263 -0.095836878 0.27161959 0
0.79838562 -0.094187737 0.29538399 0
0.89430428 -0.047630548 0.3105166 0
0.9935112 -0.019167423 0.30515796 0
0.61595058 -0.069526434 0.2756367 0
0.67590046 -0.053834915 0.29941797 0
0.76567411 -0.021247149 0.34202972 0
0.83039665 0.02122879 0.36324626 0
0.96145391 0.12432837 0.30081409 0
0.43404436 -0.038572073 0.29183823 0
0.59014034 -0.010489702 0.28349358 0
0.62921667 0.024574757 0.30252185 0
0.67968845 0.075938702 0.31830561 0
0.944139 0.15227985 0.29551578 0
0.060499668 -0.10830188 0.28396919 0
0.10736752 -0.10000277 0.31691271 0
0.35605145 0.017191172 0.30687475 0
0.39891672 0.041695595 0.30914837 0
0.48688078 0.088136911 0.27975833 0
0.61018085 0.11943817 0.35281092 0
0.65589666 0.15664768 0.29655051 0
-0.013034821 -0.030346632 0.23817003 0
0.10007668 -0.037020445 0.32327712 0
0.30353546 0.098326445 0.28039014 0
0.36744833 0.12367988 0.31999213 0
0.43571711 0.14382625 0.30897713 0
0.57949018 0.18895149 0.36089951 0
0.6223073 0.27554154 0.38074827 0
0.73242998 0.32396221 0.36592075 0
0.80277634 0.34663892 0.37360179 0
0.99786377 0.44245267 0.4209148 0
-0.023527622 0.039077044 0.24896351 0
0.074877739 0.10062623 0.26397073 0
0.16225433 0.16010904 0.32363421 0
0.24147844 0.18687582 0.30949712 0
0.33252001 0.20770335 0.32315049 0
0.40149403 0.23400021 0.37926155 0
0.60772085 0.34605932 0.35972941 0
0.69342756 0.37460637 0.35770589 0
0.74814224 0.387676 0.38120806 0
-0.14365268 0.13327086 0.26595274 0
-0.088299751 0.14829433 0.27085531 0
-0.021197796 0.19658244 0.28455722 0
0.12899113 0.19763255 0.30816793 0
0.1937623 0.25699854 0.3356092 0
0.26370811 0.30057001 0.35249695 0
0.64783621 0.46751237 0.40581697 0
-0.11341381 0.19688678 0.28597867 0
-0.021785736 0.29422033 0.29391408 0
0.06054163 0.32991171 0.34313017 0
0.11531639 0.34747362 0.36486626 0
0.243083 0.36657262 0.3079232 0
-0.042896748 0.3698715 0.37951332 0
0.0095510483 0.37420046 0.37972394 0
0.11288118 0.39188826 0.39109594 0
-0.086560249 0.41017175 0.39015043 0
0.92905521 -0.25233388 0.38677976 0
0.9716301 -0.2277782 0.3689495 0
0.96054602 -0.15369725 0.38429701 0
0.70355463 -0.11470079 0.37149927 0
0.95049763 -0.055465937 0.37067318 0
0.98774862 -0.027757406 0.37283412 0
0.6172986 -0.085234165 0.38127387 0
0.68029785 -0.065697193 0.4063094 0
0.766572 -0.0010068417 0.38614658 0
0.84618759 0.016778708 0.38746607 0
0.6424017 0.0106709 0.43351004 0
0.71776676 0.059924603 0.41624391 0
0.79979134 0.07759881 0.41152495 0
0.14927673 -0.079385757 0.35295242 0
0.19691515 -0.084420919 0.3842473 0
0.33791208 0.034777403 0.45691255 0
0.48419523 0.073824644 0.37197182 0
0.60483217 0.12712288 0.41339052 0
0.68474627 0.15806365 0.43931437 0
0.76977158 0.19686818 0.44734234 0
0.11855555 0.0050895214 0.37609565 0
0.15743399 0.033910751 0.38047713 0
0.2586236 0.10101748 0.41503906 0
0.3608098 0.13390398 0.44778752 0
0.42357016 0.18426371 0.47882122 0
0.55831766 0.26121044 0.45378965 0
0.6389904 0.24642706 0.44875872 0
0.011436462 0.024166822 0.44345534 0
0.054204464 0.076488733 0.44479287 0
0.12591791 0.11654115 0.41485322 0
0.23832893 0.15879226 0.40350133 0
0.32528067 0.21499062 0.43109858 0
0.39284992 0.19714737 0.46189597 0
0.51955748 0.32771134 0.4630478 0
0.58166599 0.31198025 0.48201525 0
0.053495884 0.1494168 0.44344693 0
0.10712576 0.20613194 0.42959011 0
0.15588236 0.24951458 0.42680377 0
0.27796125 0.28875756 0.44872627 0
0.48489237 0.38612676 0.46361265 0
0.50840425 0.40823913 0.50141406 0
0.053437233 0.30589068 0.44880489 0
0.11857224 0.32143211 0.40911621 0
0.23440027 0.35585499 0.45390195 0
0.33030272 0.39504957 0.5127846 0
0.4513092 0.45167804 0.46652633 0
0.50351 0.47089028 0.52015162 0
-0.060111046 0.36451936 0.47893232 0
0.0025229454 0.36664462 0.44572672 0
-0.18899226 0.41880906 0.46570092 0
-0.1189847 0.42685544 0.47274712 0
-0.046554327 0.43777585 0.47282159 0
-0.20194697 0.46139216 0.48433542 0
-0.18517971 0.47904718 0.46898073 0
0.87112617 -0.18302727 0.45873189 0
0.93089056 -0.14532161 0.45143986 0
0.65574932 -0.14244223 0.46539068 0
0.69552755 -0.17250252 0.47902596 0
0.81848812 -0.12143326 0.51298511 0
0.89753151 -0.086249113 0.49280506 0
0.93993139 -0.023581505 0.48846856 0
0.62680817 -0.13637137 0.45958775 0
0.68710613 -0.071307659 0.46621138 0
0.75952005 -0.028102875 0.49038124 0
0.8706007 -0.006074667 0.53661335 0
0.9167552 0.030813932 0.50716203 0
0.65317631 0.013278246 0.50804287 0
0.71686316 0.048962831 0.54024959 0
0.79363823 0.068664789 0.56333983 0
0.52476501 0.088247299 0.53066349 0
0.58575964 0.094134092 0.53594184 0
0.68142128 0.145401 0.51112992 0
0.7400794 0.18249774 0.56605107 0
0.38359499 0.070927858 0.48480666 0
0.45588398 0.14042544 0.51252884 0
0.52669048 0.16150665 0.56408137 0
0.66342068 0.2518394 0.52744365 0
0.67227602 0.29716802 0.58418238 0
-0.032280445 0.033663034 0.51131177 0
0.037022591 0.08656466 0.51401722 0
0.11297226 0.12311292 0.52803111 0
0.47597885 0.22461724 0.51177859 0
0.59448004 0.33114576 0.52338767 0
0.67682505 0.31681561 0.56993091 0
-0.043056488 0.075072408 0.5303182 0
0.03661108 0.11938238 0.51270884 0
0.11184788 0.16364145 0.5209251 0
0.20574427 0.24880481 0.5311197 0
0.26218081 0.29757452 0.56620377 0
0.37087107 0.33514881 0.56598419 0
0.44425392 0.33886266 0.58392894 0
0.54819107 0.3795135 0.52900571 0
0.77149963 0.4801681 0.60557115 0
-0.1046834 0.24354553 0.52673715 0
-0.046776772 0.25170648 0.51034111 0
0.011124134 0.26721871 0.49262151 0
0.20690823 0.30356073 0.54116988 0
0.25538874 0.34245706 0.54525006 0
0.32397366 0.37256646 0.55556196 0
-0.21570826 0.25514519 0.52797794 0
-0.15088797 0.28748059 0.5303216 0
-0.080399036 0.33729303 0.51808834 0
-0.011056423 0.31794858 0.50007039 0
0.076034546 0.42842877 0.55942732 0
-0.20482445 0.37499666 0.53357351 0
-0.14580059 0.3933022 0.51380569 0
0.04922533 0.49464095 0.60225999 0
0.73028898 -0.15140128 0.56613803 0
0.76689959 -0.10801458 0.55401313 0
0.59804916 -0.16614604 0.54000276 0
0.68688631 -0.072191715 0.58329821 0
0.7658 -0.042891502 0.57850307 0
0.82445574 -0.00022983551 0.59572005 0
0.93685293 0.025923729 0.66681814 0
0.58023453 -0.03149724 0.59890342 0
0.63864708 -0.0058562756 0.59914005 0
0.72854424 0.034858942 0.59594989 0
0.7889142 0.045759916 0.58611238 0
0.60635233 0.082816601 0.59128892 0
0.68705654 0.12695861 0.62903607 0
0.54644251 0.17920232 0.61067384 0
0.62440729 0.22035241 0.66065228 0
0.082564831 0.092000246 0.56247836 0
0.13904858 0.14761639 0.57576758 0
0.49516439 0.29211307 0.64231527 0
0.57451534 0.26098728 0.67293251 0
0.13242054 0.16050434 0.59403569 0
0.19851589 0.25101995 0.63203442 0
0.26591301 0.27692628 0.63914889 0
0.3611064 0.31932139 0.65118217 0
0.43983793 0.32651877 0.65708792 0
0.20216799 0.29013371 0.64486033 0
0.28685617 0.33848715 0.62124413 0
0.31230259 0.33365798 0.67594427 0
0.9664216 -0.038948536 0.6851806 0
0.83848715 0.016783714 0.67781848 0
0.92768812 0.018144608 0.68633503 0
0.87820339 0.12869525 0.72125816 0
0.79212952 0.21192074 0.71443141 0
0.77750587 0.23060966 0.73521876 0
0.76555777 0.29003572 0.75790203 0
0.8885808 0.27681327 0.74323714 0
0.73720932 0.31002164 0.77195323 0
0.39923525 0.29472804 0.70693886 0
0.42833996 0.30069304 0.71478891 0
0.87597656 0.32242203 -0.15276191 0
0.8681016 0.39684844 -0.15741347 0
0.90762472 0.44158006 -0.13245739 0
0.96921635 -0.3140738 -0.19775517 0
0.92640066 -0.22335744 -0.18281986 0
0.88897419 -0.14546061 -0.17222136 0
0.95324373 -0.11172843 -0.15407658 0
0.85762405 -0.068885565 -0.16597193 0
0.91646147 -0.011333942 -0.14350398 0
0.99831915 0.021307707 -0.12128162 0
0.88166332 0.07205534 -0.14913613 0
0.9580636 0.12843275 -0.11258362 0
0.87285042 0.16691756 -0.15417151 0
0.91944122 0.20406151 -0.12769748 0
0.90423489 0.29459429 -0.13585483 0
0.95159864 0.33417869 -0.10845916 0
0.95419788 0.43572712 -0.10420346 0
0.97749281 0.46122551 -0.088266954 0
0.41906166 0.32410836 -0.063140929 0
0.38646078 0.37109518 -0.059083194 0
0.34266138 0.4252646 -0.066956401 0
0.63648939 -0.049187899 -0.038079768 0
0.64926815 -0.037144661 -0.025562435 0
0.62328863 0.049824238 -0.016331315 0
0.55080175 0.12798738 -0.034101307 0
0.59761667 0.13115358 -0.0098826438 0
0.65390682 0.19713831 0.021214709 0
0.12964964 0.0411551 -0.035210043 0
0.15804672 0.074004889 -0.013188809 0
0.5888257 0.20135164 -0.014148116 0
0.65700769 0.26979256 0.026123479 0
-0.040445328 0.052972436 -0.020591766 0
0.092054367 0.11832762 -0.030400306 0
0.13959646 0.11130786 -0.010148555 0
0.45746899 0.31442094 -0.04696326 0
-0.14284086 0.14519107 -0.025855184 0
-0.084220886 0.15798247 -0.0076280981 0
0.066207886 0.19946432 -0.038542345 0
-0.16945052 0.1993947 -0.0058800578 0
-0.1019907 0.20225728 -0.0083503276 0
-0.029286385 0.26061404 0.0067183077 0
0.032365322 0.33674622 0.027219504 0
-0.19775534 0.2797941 -0.025303736 0
-0.17634654 0.32342708 -0.014106631 0
0.040009022 0.372154 0.043796808 0
0.9212532 -0.24297738 0.023917198 0
0.99435902 -0.20992446 0.039490119 0
0.87517548 -0.18414068 0.018082812 0
0.95169401 -0.15543747 0.053994164 0
0.64504576 -0.17865968 0.03318271 0
0.69859695 -0.16069102 0.051264077 0
0.84809208 -0.1075139 0.040107727 0
0.90538836 -0.081362009 0.065136895 0
0.9628768 -0.021143913 0.092376262 0
0.59790754 -0.096278429 0.057805777 0
0.68426704 -0.028582096 0.0055050552 0
0.74214077 -0.011083603 0.026692912 0
0.30047083 -0.088908672 0.010836571 0
0.33119059 -0.093693972 0.036136985 0
0.53922939 0.017155647 0.078136459 0
0.66418839 0.047244787 0.022883043 0
0.71632099 0.092734337 0.059064656 0
0.79724598 0.13902092 0.09549427 0
0.12736177 -0.072450161 0.041843683 0
0.26390266 -0.038535118 0.011027545 0
0.33093977 -0.020700693 0.057286277 0
0.50963259 0.066248894 0.086213902 0
0.65298748 0.12677956 0.023683116 0
0.70593309 0.18334579 0.05186668 0
0.76211691 0.19857264 0.080904692 0
