# .PCD v0.7 - Point Cloud Data file format
VERSION 0.7
FIELDS x y z intensity
SIZE 4 4 4 4
TYPE F F F F
COUNT 1 1 1 1
WIDTH 1290
HEIGHT 1
VIEWPOINT 0 0 0 1 0 0 0
POINTS 1290
DATA ascii
-0.30198407 -0.27533436 -0.37670612 0
-0.19713664 -0.26587009 -0.37588024 0
-0.090253115 -0.27463436 -0.37355232 0
0.014026165 -0.26152039 -0.37284851 0
0.099884748 -0.26281357 -0.37177134 0
0.22094655 -0.27419567 -0.36995411 0
0.29776144 -0.27608871 -0.3680048 0
0.41035461 -0.28575993 -0.36684752 0
-0.38286734 -0.18486691 -0.37872219 0
-0.28503561 -0.16584873 -0.37772369 0
-0.19580531 -0.17487431 -0.37656832 0
-0.0713346 -0.17692566 -0.37444592 0
-0.0023486614 -0.17872429 -0.37386131 0
0.093398094 -0.17702961 -0.37230921 0
0.23050857 -0.15813541 -0.3712759 0
0.32821655 -0.16481972 -0.36831713 0
0.4499867 -0.16611767 -0.36732292 0
0.5504632 -0.18338394 -0.3657589 0
-0.38139391 -0.079849243 -0.37977457 0
-0.2880702 -0.072379112 -0.37802029 0
-0.20106912 -0.054278374 -0.37622643 0
-0.09635973 -0.092142105 -0.37522936 0
0.016529799 -0.068016052 -0.37208557 0
0.10963011 -0.063690186 -0.3724041 0
0.17868614 -0.076944351 -0.37196922 0
0.28112054 -0.061841965 -0.37089062 0
0.38250852 -0.042098999 -0.3693037 0
0.47697258 -0.050894737 -0.36748552 0
0.57939887 -0.082969666 -0.36588764 0
0.69624662 -0.023486137 -0.36193895 0
-0.38366652 0.021697044 -0.3761096 0
-0.28686094 0.046900749 -0.37572813 0
-0.17166376 0.02115345 -0.37518501 0
-0.11736488 0.014235497 -0.3737464 0
0.00015687943 0.030506134 -0.37299252 0
0.10621738 0.033649445 -0.37093449 0
0.19984102 0.021996498 -0.37034845 0
0.27326131 0.063652992 -0.36943722 0
0.42235589 0.053263664 -0.37013865 0
0.50647616 0.047040939 -0.36795807 0
0.58887362 0.0073890686 -0.36564493 0
0.72143793 0.057776451 -0.36224556 0
-0.37679362 0.13852406 -0.37183094 0
-0.28092122 0.14460945 -0.37259912 0
-0.19165564 0.11266804 -0.37381458 0
-0.078362226 0.15835381 -0.37330532 0
0.014416695 0.1394949 -0.37219667 0
0.097418308 0.11032772 -0.37087345 0
0.18069148 0.1297102 -0.3692522 0
0.29154086 0.13546371 -0.36910439 0
0.42229652 0.14226913 -0.36939907 0
0.51389456 0.14315128 -0.36791277 0
0.62239599 0.13828278 -0.36611557 0
0.78260994 0.14876175 -0.36366081 0
0.88019609 0.14664173 -0.35895634 0
-0.38858652 0.24466133 -0.36814213 0
-0.31116843 0.23434544 -0.36912012 0
-0.20497084 0.22008801 -0.37058067 0
-0.0874753 0.22314835 -0.37128782 0
0.029343605 0.24470615 -0.37077475 0
0.12989116 0.22150898 -0.36944675 0
0.20597696 0.22162533 -0.36898899 0
0.31081653 0.22902966 -0.36860514 0
0.42012429 0.23226833 -0.36822605 0
0.5417285 0.24403381 -0.36798906 0
0.63037229 0.23860645 -0.3661108 0
0.75486207 0.19401455 -0.36269188 0
0.77648997 0.25028801 -0.36256599 0
0.89999557 0.23544884 -0.35828161 0
-0.4117353 0.33435726 -0.36492443 0
-0.29562998 0.3242569 -0.3662219 0
-0.19023347 0.32402134 -0.36664057 0
-0.094297171 0.32924366 -0.36714363 0
0.022032499 0.32565212 -0.36827803 0
0.12743855 0.32829094 -0.36819077 0
0.20415878 0.32884407 -0.36734486 0
0.30778527 0.34092331 -0.366189 0
0.42195535 0.30444431 -0.36697674 0
0.48251319 0.36120701 -0.36429453 0
0.60992527 0.31977844 -0.36453629 0
0.74330997 0.29494572 -0.3600235 0
0.7763536 0.35698605 -0.35944462 0
0.89682007 0.34309483 -0.35494566 0
-0.47874308 0.45265198 -0.35741377 0
-0.38475204 0.41431427 -0.36197424 0
-0.26889706 0.42645073 -0.36240768 0
-0.19091988 0.43716812 -0.36201906 0
-0.089424133 0.41168022 -0.36389494 0
0.010705233 0.43338108 -0.36292839 0
0.11340833 0.42841816 -0.36401558 0
0.16803861 0.42986679 -0.36232567 0
0.28616881 0.45090389 -0.36105919 0
0.42586064 0.42578125 -0.36222219 0
0.52361774 0.44169044 -0.35993052 0
0.62950778 0.42000961 -0.35951614 0
0.77310586 0.43934441 -0.35638046 0
0.90523815 0.45685863 -0.35201168 0
0.65561891 0.49971008 -0.35736895 0
0.22552347 -0.4683075 -0.36561584 0
0.35430837 -0.45683098 -0.36467838 0
0.42552233 -0.46707153 -0.36076069 0
0.51654959 -0.4900322 -0.35588169 0
0.6567781 -0.44305706 -0.35284567 0
0.70717859 -0.49705887 -0.3494792 0
0.8070519 -0.45186043 -0.34874058 0
0.91183782 -0.46325874 -0.34380245 0
0.98230767 -0.44844532 -0.3457365 0
0.38007951 -0.37243748 -0.36589098 0
0.50014329 -0.36650944 -0.36424541 0
0.61018181 -0.36380863 -0.36016703 0
0.74190831 -0.35436916 -0.35622883 0
0.83946419 -0.39517975 -0.35036659 0
0.90051484 -0.33334541 -0.35235786 0
0.96991444 -0.35659981 -0.34601164 0
0.52271652 -0.27841949 -0.36570168 0
0.71355748 -0.24702454 -0.35953283 0
0.77177453 -0.28142929 -0.35717869 0
0.89103079 -0.26733589 -0.3518095 0
0.66277647 -0.19391441 -0.36209822 0
0.80784678 -0.15130234 -0.35799551 0
0.92727041 -0.16286755 -0.35260677 0
0.71326947 -0.08846283 -0.36290789 0
0.8495338 -0.040277481 -0.35906315 0
0.94566393 -0.03007412 -0.35306692 0
0.98634124 -0.072636604 -0.35421658 0
0.83469272 0.032362938 -0.35819292 0
0.89406848 0.099328995 -0.35960293 0
-0.65742803 -0.47272491 -0.37826538 0
-0.57403898 -0.47628593 -0.37733507 0
-0.47840786 -0.48672485 -0.37590122 0
-0.4006207 -0.47344303 -0.37489557 0
-0.30041838 -0.4752121 -0.374506 0
-0.19982195 -0.4878788 -0.37292242 0
-0.098523855 -0.47450733 -0.37150574 0
0.02263689 -0.48506355 -0.36944103 0
0.15005803 -0.48256779 -0.36867046 0
0.16828465 -0.43526936 -0.36918211 0
0.31338453 -0.47972202 -0.36608267 0
0.38291359 -0.42176723 -0.36619854 0
0.50444961 -0.45465755 -0.36136866 0
-0.59407449 -0.3915596 -0.37910557 0
-0.507447 -0.36557198 -0.37846279 0
-0.39737701 -0.36859035 -0.37667465 0
-0.26124167 -0.36923027 -0.37574816 0
-0.19039106 -0.38383007 -0.37443256 0
-0.10911179 -0.38449287 -0.37326622 0
-0.02224493 -0.37800312 -0.37241316 0
0.10190034 -0.38522053 -0.37063551 0
0.18522191 -0.35407257 -0.36972713 0
0.28491044 -0.39105225 -0.36795235 0
0.41888952 -0.34629059 -0.36724949 0
0.55405927 -0.35960102 -0.36395693 0
0.68586779 -0.35251999 -0.35939884 0
-0.61118388 -0.29343987 -0.3800354 0
-0.49178052 -0.27369785 -0.37951422 0
-0.38101935 -0.27208328 -0.37860441 0
-0.2860589 -0.26309681 -0.37754059 0
-0.18241668 -0.28049469 -0.37577438 0
-0.069798708 -0.279953 -0.37464523 0
0.002572298 -0.28248501 -0.37335491 0
0.11111116 -0.27338219 -0.37222385 0
0.21259308 -0.28517723 -0.37063932 0
0.33874536 -0.27262306 -0.36948538 0
0.44502687 -0.24871826 -0.36768627 0
0.59437442 -0.2549057 -0.36546946 0
0.69895482 -0.27739143 -0.35968113 0
-0.56783581 -0.19401646 -0.38129711 0
-0.46784592 -0.19178295 -0.38105202 0
-0.38895965 -0.17298508 -0.38001251 0
-0.2781682 -0.17338562 -0.37920189 0
-0.18415093 -0.18216038 -0.37768364 0
-0.090994358 -0.17633629 -0.3758955 0
0.00877285 -0.171175 -0.37429428 0
0.12500334 -0.18971157 -0.37244892 0
0.24829721 -0.17052078 -0.37117004 0
0.37947702 -0.15087223 -0.36992645 0
0.48471975 -0.16987324 -0.36822891 0
0.62728405 -0.15485096 -0.36548948 0
0.74985099 -0.16463375 -0.36075306 0
0.88565707 -0.1761961 -0.3550477 0
-0.55229449 -0.12579155 -0.380867 0
-0.49568176 -0.08873558 -0.38065481 0
-0.41730857 -0.072010994 -0.37977409 0
-0.2944417 -0.06671524 -0.37924337 0
-0.17789865 -0.083545685 -0.3777113 0
-0.083838463 -0.098916054 -0.37487888 0
0.013540506 -0.051464081 -0.37317944 0
0.095211506 -0.083206177 -0.3730135 0
0.20252609 -0.061788559 -0.37355709 0
0.27433515 -0.058109283 -0.37125015 0
0.43441963 -0.048944473 -0.3709178 0
0.49087763 -0.09732914 -0.36787844 0
0.65025568 -0.04579258 -0.36520481 0
0.79996133 -0.046503067 -0.36150312 0
0.9384768 -0.054608345 -0.35623121 0
-0.49213028 0.009349823 -0.37741518 0
-0.38835883 0.043120384 -0.37622261 0
-0.28691721 0.023236275 -0.37777424 0
-0.16778827 0.013414383 -0.37666416 0
-0.079355001 0.014639854 -0.37547827 0
-0.0041759014 0.030103683 -0.37346029 0
0.076152086 0.042814255 -0.37182522 0
0.18741798 0.021951675 -0.3718152 0
0.30064893 0.042861938 -0.37105227 0
0.40520239 0.018725395 -0.36967468 0
0.5288806 0.0090894699 -0.36836863 0
0.68224454 0.031222343 -0.36559248 0
0.82385588 0.03425312 -0.3615489 0
0.95622182 0.029086113 -0.35662031 0
-0.55043411 0.13797665 -0.3717227 0
-0.48867989 0.10293674 -0.37396145 0
-0.39762735 0.11394787 -0.37314558 0
-0.28471088 0.12084866 -0.37412596 0
-0.17688155 0.1424408 -0.37450838 0
-0.066709042 0.11823654 -0.37456465 0
0.021288633 0.12230682 -0.37308788 0
0.093416452 0.13529968 -0.37117195 0
0.19515491 0.13271713 -0.37053013 0
0.31831264 0.14043999 -0.37025738 0
0.42977667 0.16511536 -0.36919594 0
0.46248579 0.1055212 -0.37091398 0
0.57207394 0.12147236 -0.36911154 0
0.69859934 0.11564064 -0.36554909 0
0.83109045 0.090167046 -0.36136007 0
0.85725212 0.15454483 -0.36172199 0
-0.5605433 0.20261097 -0.36914968 0
-0.49890256 0.21028996 -0.36988783 0
-0.39755416 0.22387505 -0.36955833 0
-0.31084299 0.20983124 -0.37158108 0
-0.20331836 0.23174572 -0.37120676 0
-0.071105003 0.22041416 -0.37234259 0
0.027024746 0.22952366 -0.37195396 0
0.11635637 0.21260548 -0.36968851 0
0.2522099 0.26449966 -0.37071466 0
0.33515716 0.23905182 -0.36952448 0
0.43080115 0.21840382 -0.36852169 0
0.57958245 0.21791172 -0.36886168 0
0.72171211 0.22835827 -0.36539268 0
0.82640028 0.22616005 -0.3595643 0
-0.57544994 0.33705044 -0.36327648 0
-0.49970007 0.31659794 -0.366117 0
-0.39413691 0.33308506 -0.36575317 0
-0.28391528 0.3148365 -0.36736012 0
-0.21760392 0.3009243 -0.36696148 0
-0.096560955 0.31412888 -0.36821365 0
0.017896414 0.33707809 -0.36871195 0
0.10694575 0.31225014 -0.3695693 0
0.22371697 0.3305378 -0.3685894 0
0.33385587 0.3145237 -0.36810541 0
0.41469932 0.35731697 -0.36554766 0
0.48237467 0.28510952 -0.3692975 0
0.58503938 0.33254719 -0.36542606 0
0.70389366 0.33807373 -0.36153746 0
0.8517673 0.34845734 -0.35666656 0
-0.60042977 0.43616009 -0.35768175 0
-0.48293614 0.41180706 -0.36149263 0
-0.39330268 0.42573452 -0.36182165 0
-0.28966808 0.43444347 -0.36238527 0
-0.18580484 0.43364429 -0.36340332 0
-0.10919118 0.4155798 -0.36472321 0
-0.015139818 0.41400528 -0.36430216 0
0.088130474 0.42413044 -0.36466742 0
0.22625041 0.4269619 -0.36499977 0
0.31616974 0.40705872 -0.36358404 0
0.36147475 0.47195911 -0.36277103 0
0.48184276 0.44393158 -0.36264849 0
0.60332823 0.4468565 -0.36139297 0
0.69139409 0.44697666 -0.35680819 0
0.86287451 0.44319534 -0.35422277 0
0.63780236 -0.47244644 -0.35660887 0
0.78886461 -0.44412613 -0.35233307 0
0.9186852 -0.45106983 -0.34736395 0
0.64169979 -0.4076395 -0.35753536 0
0.83687305 -0.33876991 -0.35445309 0
0.95426178 -0.37142754 -0.34889555 0
0.8107326 -0.27466393 -0.3532753 0
0.99428582 -0.28033257 -0.34943581 0
-0.84689617 -0.4771595 -0.37717772 0
-0.72489786 -0.48543549 -0.37557507 0
-0.64147139 -0.46785736 -0.37490273 0
-0.53769588 -0.45620728 -0.37430239 0
-0.43294048 -0.46864033 -0.37218952 0
-0.33884025 -0.46611309 -0.37124634 0
-0.26656175 -0.47030735 -0.36983776 0
-0.15312457 -0.47273636 -0.36869526 0
-0.041368246 -0.47224617 -0.36726952 0
0.085364342 -0.46596718 -0.36609364 0
0.20145631 -0.49269867 -0.36472511 0
0.22966433 -0.41977119 -0.36535025 0
0.34044099 -0.4716568 -0.36215115 0
0.50676751 -0.46033382 -0.3581109 0
0.61373568 -0.49202538 -0.35157013 0
0.65734839 -0.43194771 -0.35321522 0
0.82254171 -0.43345165 -0.34868717 0
-0.86179137 -0.39116287 -0.37707043 0
-0.73517323 -0.38268471 -0.37753296 0
-0.62205625 -0.36213303 -0.37644005 0
-0.54153943 -0.3597765 -0.37591124 0
-0.4477849 -0.36839008 -0.37520027 0
-0.34055257 -0.37030792 -0.37299633 0
-0.23720002 -0.36845684 -0.37151051 0
-0.097534657 -0.36000252 -0.37020206 0
0.00025439262 -0.31941605 -0.36835766 0
0.048188925 -0.37666321 -0.36811209 0
0.24833179 -0.35397148 -0.36579704 0
0.39713407 -0.39407635 -0.3641367 0
0.44998717 -0.32697868 -0.36554146 0
0.53443575 -0.38594913 -0.35959435 0
0.69538999 -0.35393429 -0.3548584 0
0.85627699 -0.34969425 -0.3499465 0
-0.80694389 -0.27888775 -0.37690449 0
-0.73957658 -0.26356316 -0.37765074 0
-0.66787338 -0.28200054 -0.37797594 0
-0.55514073 -0.26133156 -0.3778677 0
-0.44017673 -0.25575733 -0.37649536 0
-0.33927417 -0.27113342 -0.37500572 0
-0.24875283 -0.26292992 -0.37393856 0
-0.16202521 -0.26091671 -0.37290096 0
-0.034701586 -0.26955605 -0.37205362 0
0.05997777 -0.24634933 -0.37012196 0
0.17033839 -0.27733135 -0.36836672 0
0.27623749 -0.28081608 -0.36655045 0
0.45470428 -0.2598753 -0.36537647 0
0.58079553 -0.28015137 -0.36149216 0
0.75149298 -0.26026058 -0.35610199 0
0.8895092 -0.26278687 -0.35021496 0
-0.81269717 -0.19629097 -0.37534523 0
-0.73745346 -0.15944576 -0.37643051 0
-0.62625766 -0.17335701 -0.37787819 0
-0.52565908 -0.17953491 -0.37842655 0
-0.43636012 -0.16088963 -0.3783803 0
-0.34245872 -0.16518784 -0.37644911 0
-0.21256876 -0.17650127 -0.37520123 0
-0.14656258 -0.17687321 -0.37332821 0
-0.019972563 -0.18134022 -0.37233686 0
0.076096773 -0.15211868 -0.36992788 0
0.20400524 -0.17927933 -0.36885357 0
0.24269032 -0.12590408 -0.3695631 0
0.34281421 -0.16641235 -0.36766148 0
0.48285484 -0.15912914 -0.3652091 0
0.6082499 -0.20084381 -0.36150837 0
0.66347933 -0.12436199 -0.36226416 0
0.80036998 -0.17124939 -0.35690403 0
0.89231515 -0.20447063 -0.34975863 0
0.95911527 -0.13287449 -0.35123491 0
-0.74928761 -0.056464195 -0.3749609 0
-0.63713646 -0.078124046 -0.37649679 0
-0.52974939 -0.068227768 -0.3769927 0
-0.41912651 -0.082620621 -0.37802219 0
-0.34166098 -0.038252831 -0.37615871 0
-0.22863388 -0.088543892 -0.37576199 0
-0.11654019 -0.048592567 -0.37370014 0
-0.021730185 -0.062636375 -0.37201643 0
0.036581755 -0.058116913 -0.37204313 0
0.12242103 -0.070121765 -0.37007236 0
0.24930787 -0.051435471 -0.36913967 0
0.36166954 -0.042431831 -0.3671298 0
0.5232904 -0.042890549 -0.36535454 0
0.68984842 -0.070486069 -0.36243439 0
0.83232641 -0.0524683 -0.35702133 0
0.93670321 -0.082411766 -0.35018158 0
-0.74571562 0.029118538 -0.37208652 0
-0.64002013 0.022138596 -0.37351274 0
-0.56390429 0.026860237 -0.37330151 0
-0.4603138 0.018937111 -0.37457323 0
-0.36961317 0.039106369 -0.37377787 0
-0.24978423 0.045680046 -0.37490177 0
-0.16417384 0.034126282 -0.37366247 0
-0.068823099 0.057734489 -0.37211657 0
0.022117138 0.030841827 -0.37006903 0
0.14323425 0.005273819 -0.36949253 0
0.25511456 0.048588753 -0.36787558 0
0.38153505 0.030826569 -0.36717892 0
0.5644021 0.043144226 -0.36590195 0
0.6784966 0.040244102 -0.36084032 0
0.71320462 -0.0047111511 -0.36241388 0
0.85705495 0.036950111 -0.356812 0
-0.73044419 0.11547756 -0.36890554 0
-0.63307381 0.11513805 -0.369555 0
-0.50875258 0.12361813 -0.37066317 0
-0.42458463 0.13731766 -0.36999798 0
-0.35265398 0.12137127 -0.37138987 0
-0.24529481 0.11139107 -0.37164497 0
-0.16397333 0.14872932 -0.37142086 0
-0.076704741 0.14270782 -0.37064075 0
0.047810555 0.12433243 -0.36948442 0
0.16488838 0.10318184 -0.36865377 0
0.2812798 0.12983131 -0.3674469 0
0.4062717 0.08781147 -0.36755085 0
0.42279673 0.14873505 -0.3671813 0
0.57777429 0.12794685 -0.36569786 0
0.70515227 0.15055752 -0.36063433 0
0.73650098 0.1111269 -0.36195803 0
0.87264156 0.10007286 -0.35660505 0
0.93207574 0.17638493 -0.35770607 0
-0.74546933 0.21726704 -0.36425018 0
-0.641469 0.21728134 -0.36582422 0
-0.54360867 0.24280357 -0.36567879 0
-0.45977139 0.21441555 -0.36688757 0
-0.34345627 0.23578358 -0.36664486 0
-0.24224377 0.2353344 -0.36851788 0
-0.15222335 0.2380991 -0.36865568 0
-0.059587002 0.23491573 -0.3692174 0
0.031565666 0.23655605 -0.36742115 0
0.17606688 0.228755 -0.36720371 0
0.29643154 0.23355103 -0.36642218 0
0.30786037 0.23630619 -0.36673975 0
0.4429028 0.23332691 -0.36655569 0
0.59915376 0.24309635 -0.36534834 0
0.76937842 0.25486946 -0.36113119 0
0.92405033 0.23599052 -0.35604143 0
-0.75845885 0.31856346 -0.35888338 0
-0.65527225 0.32600212 -0.36030388 0
-0.53860807 0.32857037 -0.36207294 0
-0.45659471 0.33113289 -0.36297894 0
-0.36219907 0.32555103 -0.36384296 0
-0.26444602 0.33375072 -0.36425161 0
-0.175946 0.34396935 -0.36405802 0
-0.05488801 0.33190346 -0.36597633 0
0.065638065 0.34572411 -0.36608028 0
0.18798661 0.32944107 -0.36624718 0
0.3018229 0.33879948 -0.36417341 0
0.42633963 0.34255886 -0.36266232 0
0.6306138 0.33868122 -0.36314201 0
0.78776479 0.35114002 -0.358675 0
0.93110299 0.33163548 -0.35297441 0
-0.74819779 0.42452908 -0.35349178 0
-0.61092782 0.41379833 -0.35694551 0
-0.54143381 0.40405178 -0.35840511 0
-0.47531343 0.44555855 -0.35794353 0
-0.37492657 0.42811298 -0.35962725 0
-0.2694869 0.4234724 -0.36089754 0
-0.14198995 0.43991852 -0.36053133 0
-0.050616741 0.40071678 -0.3635869 0
0.028172255 0.43152523 -0.36089706 0
0.19074941 0.45790577 -0.36106539 0
0.24998879 0.38868141 -0.36313725 0
0.30632257 0.44935131 -0.35962343 0
0.44178796 0.45537758 -0.35841894 0
0.60235834 0.38765144 -0.35982466 0
0.61338353 0.44876194 -0.35761452 0
0.77477598 0.44020271 -0.35468102 0
0.92803741 0.45538902 -0.34873199 0
0.78613567 -0.49067211 -0.34732294 0
0.98642588 -0.45549393 -0.34152699 0
0.98898864 -0.40809917 -0.34187603 0
-0.95917344 -0.47889423 -0.37109566 0
-0.85814905 -0.45427227 -0.37117672 0
-0.7563107 -0.47740459 -0.37000942 0
-0.66750431 -0.46122742 -0.36917782 0
-0.56774306 -0.47449589 -0.36853266 0
-0.49221039 -0.46106434 -0.36728907 0
-0.39312315 -0.46361446 -0.36585522 0
-0.26815629 -0.45718479 -0.36496162 0
-0.16205406 -0.47811413 -0.36340857 0
-0.039595127 -0.4627924 -0.36228466 0
0.075448036 -0.48698235 -0.35991573 0
0.11360884 -0.43324947 -0.36084461 0
0.23592734 -0.46085072 -0.35827541 0
0.41601801 -0.45114708 -0.35575676 0
-0.9672451 -0.38143444 -0.37019014 0
-0.87009931 -0.37034035 -0.37079668 0
-0.77658463 -0.35253239 -0.37194681 0
-0.67410016 -0.36974812 -0.37147141 0
-0.55149245 -0.35584641 -0.36980867 0
-0.44426489 -0.35821056 -0.36859083 0
-0.33164525 -0.37098885 -0.36752272 0
-0.21902418 -0.38779545 -0.36625957 0
-0.14924455 -0.37165165 -0.36513233 0
-0.024915457 -0.37449741 -0.36248922 0
0.0095360279 -0.31617546 -0.36341763 0
0.1580441 -0.35434055 -0.36194324 0
0.30220747 -0.37386417 -0.35992527 0
0.47464323 -0.3405695 -0.35801506 0
0.57703567 -0.35421944 -0.3521843 0
-0.95786762 -0.28610992 -0.36915398 0
-0.87618923 -0.28407097 -0.37011003 0
-0.78467703 -0.26400948 -0.3706274 0
-0.64972973 -0.26696491 -0.37169647 0
-0.57702899 -0.24550152 -0.37190151 0
-0.47069001 -0.26538849 -0.3701911 0
-0.34740734 -0.25927639 -0.36928082 0
-0.26842356 -0.23958683 -0.36938286 0
-0.18739033 -0.27686405 -0.36713552 0
-0.070878506 -0.26821423 -0.36576605 0
0.034147263 -0.26818466 -0.36409044 0
0.18561482 -0.28331947 -0.36262131 0
0.21878648 -0.22226906 -0.36353207 0
0.33428192 -0.2736578 -0.36059284 0
0.4835906 -0.26576614 -0.35789442 0
0.66748357 -0.25459194 -0.35459948 0
0.85190058 -0.21051502 -0.34717274 0
-0.94763994 -0.1608839 -0.36807537 0
-0.88284898 -0.1665287 -0.36842537 0
-0.7764883 -0.1646595 -0.36963797 0
-0.63598394 -0.15634441 -0.37120819 0
-0.54348063 -0.16687584 -0.3724227 0
-0.45671058 -0.15393257 -0.37202978 0
-0.37013745 -0.16999626 -0.37099075 0
-0.27545452 -0.17952728 -0.36931801 0
-0.136338 -0.17866421 -0.36870003 0
-0.017787457 -0.16234207 -0.3670845 0
0.048798561 -0.1338768 -0.3650856 0
0.091444016 -0.20660591 -0.3657341 0
0.23028421 -0.14651775 -0.36305523 0
0.34810448 -0.19074821 -0.36022186 0
0.38689709 -0.13062859 -0.3607626 0
0.55053496 -0.16678715 -0.35875702 0
0.67826438 -0.18963528 -0.35430813 0
0.69545102 -0.13322353 -0.35406017 0
0.88892341 -0.14164734 -0.34762621 0
-0.95771384 -0.059027672 -0.36637211 0
-0.87109518 -0.064229965 -0.36711168 0
-0.7593472 -0.050848961 -0.36827612 0
-0.6669414 -0.066328049 -0.36936378 0
-0.57003713 -0.049209595 -0.36940193 0
-0.46058154 -0.064927101 -0.37114716 0
-0.34586167 -0.080648422 -0.37114477 0
-0.24999094 -0.088195801 -0.3691721 0
-0.14709902 -0.049152374 -0.36630106 0
-0.064476967 -0.093439102 -0.36701441 0
0.0081131458 -0.015686989 -0.3650732 0
0.11686134 -0.061162949 -0.3641777 0
0.26166677 -0.039837837 -0.3628974 0
0.42052698 -0.039540291 -0.3608532 0
0.57592702 -0.076592445 -0.35848379 0
0.60838699 -0.011772156 -0.35870075 0
0.69691634 -0.075390816 -0.35323858 0
0.90882182 -0.07813549 -0.34765863 0
-0.97187567 0.026427269 -0.36324072 0
-0.87701273 0.036133766 -0.36403561 0
-0.77480149 0.026455879 -0.36566639 0
-0.68687654 0.046049118 -0.3659687 0
-0.56745267 0.040752411 -0.36649799 0
-0.439183 0.033769608 -0.36718035 0
-0.34585929 0.032189369 -0.36788559 0
-0.27675056 0.032414436 -0.36817837 0
-0.20329356 0.038146973 -0.3684206 0
-0.10411644 0.054685593 -0.36590624 0
-0.002320528 0.05169487 -0.36351156 0
0.12121725 0.018586159 -0.36287928 0
0.25898147 0.03707695 -0.36157608 0
0.48106122 0.051862717 -0.36186695 0
0.6201427 0.044401169 -0.35838985 0
0.74770594 0.026003838 -0.35349989 0
0.97129607 0.030748367 -0.34865141 0
-0.95280719 0.11937809 -0.35893345 0
-0.87043262 0.13274479 -0.35910606 0
-0.76087022 0.1153841 -0.36204338 0
-0.65726924 0.15945911 -0.36142683 0
-0.59211564 0.10599804 -0.36453962 0
-0.48530459 0.13116837 -0.36376619 0
-0.39761472 0.10830402 -0.36595345 0
-0.28373814 0.15774918 -0.3642354 0
-0.19690394 0.12898254 -0.36613894 0
-0.070487738 0.16068268 -0.36528063 0
0.0186584 0.13492298 -0.36280298 0
0.13963151 0.11958981 -0.36176777 0
0.27842236 0.09565258 -0.36119461 0
0.32514215 0.15805626 -0.36168861 0
0.46630192 0.10090923 -0.36097288 0
0.48373508 0.16728401 -0.36074018 0
0.64346647 0.14200878 -0.35803366 0
0.75004148 0.11172104 -0.35248852 0
0.78407049 0.17941189 -0.35278845 0
-0.97842622 0.21740818 -0.35300589 0
-0.86732221 0.2385149 -0.35444975 0
-0.77207947 0.23639202 -0.35584402 0
-0.65378904 0.2240181 -0.35889578 0
-0.56450272 0.2445631 -0.35888815 0
-0.50600958 0.23235512 -0.36030483 0
-0.39722323 0.22166729 -0.36176395 0
-0.29697108 0.24709988 -0.36170387 0
-0.19231224 0.24779701 -0.36189079 0
-0.084461927 0.25912857 -0.36158943 0
0.059249401 0.22080708 -0.36279202 0
0.14222264 0.19801807 -0.36058712 0
0.22109914 0.28074646 -0.36190557 0
0.33690357 0.24803543 -0.36061001 0
0.50160766 0.25735664 -0.35977697 0
0.6681819 0.28904724 -0.35636568 0
0.68148732 0.23552704 -0.35828495 0
0.82325912 0.26263905 -0.35212135 0
-0.96875215 0.32666779 -0.34813309 0
-0.86277056 0.33047771 -0.35018682 0
-0.77484822 0.33113384 -0.35158348 0
-0.69473696 0.32529831 -0.35284424 0
-0.55492687 0.33984756 -0.35481834 0
-0.37106848 0.33048534 -0.3576746 0
-0.22324872 0.36736393 -0.35639668 0
-0.18522978 0.32183933 -0.35947371 0
-0.084208012 0.35391045 -0.3581562 0
0.034977436 0.31176186 -0.3600235 0
0.16513252 0.31937313 -0.35951424 0
0.33496857 0.3624506 -0.35731268 0
0.50293589 0.34422112 -0.35665798 0
0.71191907 0.37410545 -0.35446215 0
0.83930278 0.35811234 -0.34928226 0
-0.97221589 0.42902279 -0.34183216 0
-0.87163591 0.4399004 -0.34375572 0
-0.7700696 0.42542267 -0.34638548 0
-0.63221478 0.44563007 -0.34804726 0
-0.56797504 0.43721867 -0.34954596 0
-0.47795796 0.43250275 -0.35155487 0
-0.41037321 0.41833496 -0.35389805 0
-0.28421998 0.42140961 -0.35467815 0
-0.21824718 0.46620846 -0.35255766 0
-0.098224163 0.4525032 -0.35342741 0
0.07549715 0.45493793 -0.3555727 0
0.081316233 0.4020195 -0.35824347 0
0.20336509 0.43549538 -0.35648251 0
0.34986138 0.44836903 -0.35409594 0
0.52032185 0.4442749 -0.35285997 0
0.67599392 0.492589 -0.34784937 0
0.69290662 0.42682934 -0.351367 0
0.88541722 0.4704628 -0.34685516 0
0.55029726 -0.45822811 -0.35065651 0
0.74528599 -0.44884396 -0.34489727 0
0.93513775 -0.44614792 -0.33809662 0
0.74987555 -0.39912128 -0.34531879 0
0.79431248 -0.33492088 -0.3468051 0
0.99491715 -0.35317516 -0.3398118 0
0.83669662 -0.26811028 -0.34734344 0
-0.88605928 -0.48230553 -0.38138294 0
-0.78426504 -0.49086857 -0.37986374 0
-0.68061614 -0.49606514 -0.3785038 0
-0.60958743 -0.4807663 -0.37839985 0
-0.48294783 -0.47460365 -0.37760925 0
-0.39538693 -0.49951553 -0.37557507 0
-0.26581216 -0.45836449 -0.374681 0
-0.15873432 -0.48609447 -0.37215996 0
0.0020265579 -0.47910213 -0.37072372 0
0.19364381 -0.44055939 -0.36959267 0
-0.98883104 -0.40079689 -0.37969398 0
-0.87617612 -0.37362099 -0.38065529 0
-0.76071501 -0.38346195 -0.38149309 0
-0.66897559 -0.3788538 -0.38093948 0
-0.58419275 -0.39881802 -0.3791151 0
-0.48083401 -0.4205904 -0.37762165 0
-0.37467504 -0.38085842 -0.37721062 0
-0.23816347 -0.3901968 -0.37540054 0
-0.080071926 -0.3781395 -0.37424469 0
0.058898449 -0.37244797 -0.37212753 0
0.23092151 -0.3614378 -0.37047195 0
0.37457705 -0.36750126 -0.36818314 0
-0.9924922 -0.29994297 -0.37875032 0
-0.88546562 -0.30558395 -0.37980938 0
-0.76590276 -0.29424572 -0.38119602 0
-0.69142365 -0.28127766 -0.38113594 0
-0.56685328 -0.27769661 -0.38170242 0
-0.4821825 -0.27362251 -0.37994194 0
-0.37955213 -0.31001949 -0.37825632 0
-0.26189685 -0.23874187 -0.37936974 0
-0.18471146 -0.28838539 -0.37693167 0
-0.051428318 -0.30303383 -0.37501907 0
-0.034446478 -0.24606133 -0.37551975 0
0.077850103 -0.2933712 -0.37258625 0
0.23675251 -0.28414726 -0.37050819 0
0.44951797 -0.26523304 -0.3699522 0
-0.98920059 -0.18911171 -0.37756395 0
-0.89637685 -0.19533443 -0.37874699 0
-0.7855289 -0.21006775 -0.37965965 0
-0.70108819 -0.17608261 -0.3803153 0
-0.61032772 -0.19209957 -0.38154268 0
-0.50700712 -0.18078518 -0.38162327 0
-0.36953473 -0.18355942 -0.38109589 0
-0.27064586 -0.17281437 -0.37909079 0
-0.15850258 -0.1402235 -0.37693214 0
-0.12995291 -0.18541527 -0.37860584 0
-0.0044412613 -0.16750526 -0.37567139 0
0.15884256 -0.20343876 -0.37466526 0
0.16341496 -0.14145756 -0.37415409 0
0.29943609 -0.18647385 -0.37149143 0
0.42258883 -0.21673679 -0.36846352 0
0.48713493 -0.1478672 -0.36969328 0
0.64626098 -0.21660423 -0.36528969 0
0.672436 -0.15445423 -0.36517239 0
-0.99828887 -0.085402489 -0.37589025 0
-0.88645339 -0.091470718 -0.37761259 0
-0.76974511 -0.08392334 -0.37848568 0
-0.68282747 -0.092852592 -0.37930107 0
-0.60491252 -0.10748386 -0.38008547 0
-0.46921182 -0.062794685 -0.3801527 0
-0.34410667 -0.040762901 -0.38022327 0
-0.29014039 -0.064764023 -0.37961197 0
-0.21295547 -0.082337379 -0.37965965 0
-0.11464286 -0.078671455 -0.37722969 0
-0.00066494942 -0.068213463 -0.37382412 0
0.18621659 -0.061975479 -0.37358093 0
0.32599497 -0.076917648 -0.37114763 0
0.49817014 -0.086708069 -0.36934757 0
0.68758845 -0.093092918 -0.36475468 0
0.91045737 -0.032179832 -0.35837889 0
-0.89929819 0.017473221 -0.37393427 0
-0.78601646 -0.017268181 -0.37721634 0
-0.69456506 0.042508125 -0.37553883 0
-0.59238291 0.0078392029 -0.37709808 0
-0.4706645 0.029170036 -0.37654448 0
-0.35268569 0.033963203 -0.37699699 0
-0.24665761 -0.00036144257 -0.37708855 0
-0.22306824 0.059643745 -0.37686968 0
-0.10586429 -0.005238533 -0.37618732 0
0.080252886 0.035869598 -0.37461376 0
0.17809153 0.01593399 -0.37189722 0
0.33606362 0.010932922 -0.37062263 0
0.5250349 0.0060472488 -0.36921978 0
0.72606421 0.0068235397 -0.36461926 0
0.93602538 0.04317379 -0.35832548 0
-0.98540735 0.11409664 -0.36737728 0
-0.86638784 0.1139822 -0.36952114 0
-0.75782251 0.099075317 -0.37242508 0
-0.6526103 0.10644531 -0.37326336 0
-0.57984471 0.11988926 -0.37264585 0
-0.46067929 0.12372303 -0.37337971 0
-0.34680462 0.12647057 -0.3737359 0
-0.22202301 0.13005257 -0.37430573 0
-0.10441685 0.098718643 -0.37447357 0
0.040831804 0.1013298 -0.37216234 0
0.22092175 0.1127634 -0.37165689 0
0.39889359 0.11767292 -0.37109327 0
0.56970525 0.11588955 -0.36957359 0
0.74648833 0.10434055 -0.36403608 0
0.76402807 0.170331 -0.36382151 0
0.94147658 0.10339546 -0.35766506 0
-0.88713169 0.22423077 -0.36394501 0
-0.76172042 0.20971298 -0.36697388 0
-0.67573738 0.21029854 -0.3681345 0
-0.57613897 0.21162128 -0.36945868 0
-0.45412612 0.22418022 -0.36996269 0
-0.34642315 0.20297718 -0.37093115 0
-0.32301021 0.25417805 -0.36997223 0
-0.19344115 0.24250221 -0.37125969 0
-0.065952063 0.21581841 -0.37302971 0
0.046655655 0.18164253 -0.37103939 0
0.092273235 0.24837017 -0.3715024 0
0.23384023 0.22899246 -0.37019825 0
0.41677094 0.21395206 -0.37005281 0
0.57847166 0.20365429 -0.36905479 0
0.7805171 0.24385834 -0.36258888 0
-0.95869184 0.30752087 -0.35838509 0
-0.88169146 0.31447029 -0.35911751 0
-0.78507972 0.30471706 -0.36138868 0
-0.65569615 0.32653427 -0.36338234 0
-0.58176684 0.30250072 -0.36535263 0
-0.46283984 0.31637192 -0.36635971 0
-0.32186627 0.33267498 -0.36722612 0
-0.23254585 0.30801773 -0.36738873 0
-0.05858326 0.34804916 -0.36850214 0
-0.041395187 0.30226803 -0.37080812 0
0.097512245 0.33535671 -0.36965036 0
0.2460506 0.32482433 -0.36854124 0
0.42089486 0.27762794 -0.36904669 0
0.46576715 0.35218239 -0.36749792 0
0.59474611 0.29662323 -0.3666954 0
0.79411006 0.31117249 -0.36066437 0
-0.85468769 0.44408703 -0.35411549 0
-0.79535246 0.41571426 -0.35624599 0
-0.67419624 0.41035748 -0.35861731 0
-0.58110356 0.44032097 -0.35877085 0
-0.49812174 0.3990078 -0.36226654 0
-0.33564329 0.42904854 -0.36303473 0
-0.19528294 0.39921093 -0.36540937 0
-0.071255922 0.43371964 -0.36429405 0
0.11479187 0.42556 -0.36635828 0
0.24397969 0.43894386 -0.36341047 0
0.27267337 0.3855257 -0.36692429 0
0.41804266 0.42788887 -0.36216307 0
0.62037325 0.41122055 -0.36253023 0
0.81340218 0.43110466 -0.35681629 0
0.99417615 0.39593124 -0.35013199 0
-0.71371722 0.49069786 -0.35296774 0
0.30949187 -0.48539257 -0.36657238 0
0.48442292 -0.45831013 -0.36075783 0
0.69907236 -0.43617725 -0.35490894 0
0.90086675 -0.48533154 -0.34735012 0
0.57381511 -0.35206795 -0.36399651 0
0.77387452 -0.3679409 -0.35735703 0
0.95232534 -0.39618397 -0.34911728 0
0.98721623 -0.32357693 -0.34922028 0
0.61440015 -0.29241467 -0.36510944 0
0.79166675 -0.27787018 -0.35707617 0
0.84015489 -0.16875076 -0.35742664 0
0.87371802 -0.1050787 -0.35787201 0
-0.87287045 -0.48421955 -0.37603092 0
-0.77036357 -0.46900082 -0.37437773 0
-0.63643003 -0.44212437 -0.37188053 0
-0.62228703 -0.4852438 -0.37236881 0
-0.48640847 -0.46017361 -0.37149906 0
-0.36498976 -0.48737812 -0.36918974 0
-0.18046713 -0.45049477 -0.36808586 0
-0.037075996 -0.47246838 -0.36549091 0
0.13870096 -0.45722294 -0.3638382 0
0.3351655 -0.48250008 -0.36092377 0
-0.98915076 -0.40431786 -0.37393093 0
-0.91887856 -0.35596561 -0.37397099 0
-0.81082296 -0.37378597 -0.37523985 0
-0.67715526 -0.36836624 -0.37542057 0
-0.58072305 -0.36552048 -0.37340069 0
-0.45533466 -0.38629246 -0.37225723 0
-0.41203785 -0.32535744 -0.37343693 0
-0.31235743 -0.38130856 -0.37045193 0
-0.12895107 -0.37095833 -0.36935854 0
0.01119113 -0.36401558 -0.36651707 0
0.18349123 -0.3667326 -0.36478138 0
0.37364817 -0.41559982 -0.36181021 0
0.41020799 -0.35030746 -0.36257982 0
-0.97792721 -0.28967667 -0.37289 0
-0.88397217 -0.26828098 -0.3735342 0
-0.77261472 -0.28364182 -0.37485123 0
-0.5573988 -0.27296638 -0.37632656 0
-0.46759987 -0.2652874 -0.37424755 0
-0.39597321 -0.23781872 -0.37390518 0
-0.26046872 -0.27908325 -0.37182617 0
-0.13966298 -0.3187809 -0.36894703 0
-0.069363594 -0.25469685 -0.37087631 0
0.056563854 -0.27582264 -0.36761761 0
0.22615266 -0.27026272 -0.36571407 0
0.44099736 -0.28738403 -0.36322308 0
0.48248005 -0.22060299 -0.36374283 0
0.65696669 -0.26966095 -0.357831 0
-0.9651103 -0.18993282 -0.37158012 0
-0.87371778 -0.18130207 -0.3723712 0
-0.74903488 -0.19361115 -0.37404394 0
-0.63916469 -0.18159103 -0.37466335 0
-0.617553 -0.222229 -0.37608337 0
-0.48601031 -0.16350269 -0.37612724 0
-0.34320569 -0.15109444 -0.37549639 0
-0.24076509 -0.19987774 -0.37239075 0
-0.19141221 -0.13885593 -0.37367916 0
-0.067373991 -0.17603683 -0.37055779 0
0.10123062 -0.18606853 -0.36845112 0
0.26047397 -0.18068695 -0.36594677 0
0.48848224 -0.15839481 -0.36306238 0
0.73212814 -0.15433884 -0.35875511 0
-0.96063757 -0.091207504 -0.37080288 0
-0.88904452 -0.076796532 -0.3711853 0
-0.82715726 -0.10980701 -0.3727026 0
-0.71820235 -0.075130463 -0.37282562 0
-0.59126997 -0.10017395 -0.37481642 0
-0.4521575 -0.057501793 -0.37475824 0
-0.31672525 -0.068065643 -0.37534428 0
-0.20476413 -0.059994698 -0.37162828 0
-0.03063488 -0.052985191 -0.36949062 0
0.1263063 -0.060900688 -0.36701345 0
0.32023787 -0.049388885 -0.36625862 0
0.51556635 -0.053553581 -0.36257839 0
0.72249579 -0.099756241 -0.35749054 0
0.9727869 -0.10113049 -0.35026646 0
-0.90397358 0.033893585 -0.36803436 0
-0.79573464 0.020861626 -0.36944962 0
-0.67557478 0.073233604 -0.36924696 0
-0.56152606 0.024007797 -0.37153387 0
-0.44588876 0.048189163 -0.37083387 0
-0.30144572 0.011089325 -0.37366199 0
-0.14402342 0.042088509 -0.37171221 0
0.0081601143 0.038549423 -0.36898041 0
0.12193537 0.01894474 -0.36532545 0
0.32168555 0.035949707 -0.36516953 0
0.60106826 0.062599182 -0.36389732 0
0.77801156 0.017954826 -0.35744429 0
-0.9559505 0.12273312 -0.3621316 0
-0.84492993 0.15469456 -0.36205482 0
-0.80959725 0.11760521 -0.36540794 0
-0.68685484 0.14038849 -0.36621094 0
-0.55867243 0.14782047 -0.36689186 0
-0.45484018 0.14605618 -0.36672544 0
-0.33615232 0.13592911 -0.36745119 0
-0.30825162 0.084133148 -0.37053013 0
-0.15312409 0.12011337 -0.36958694 0
0.035765409 0.12808704 -0.36823893 0
0.20415139 0.13192177 -0.36600494 0
0.3783555 0.12176609 -0.36544561 0
0.59937525 0.12025642 -0.36320162 0
0.83749175 0.13548756 -0.35764456 0
-0.90514827 0.2082386 -0.3591857 0
-0.79202557 0.22044659 -0.36000204 0
-0.72423601 0.25245285 -0.35927057 0
-0.56921935 0.2430172 -0.36285877 0
-0.45508218 0.22095013 -0.36390114 0
-0.28178382 0.23132038 -0.36595106 0
-0.16428256 0.20036697 -0.3663106 0
-0.11943316 0.27256203 -0.36532688 0
0.052031755 0.25088692 -0.36648512 0
0.21629453 0.2290411 -0.36470079 0
0.37996316 0.21823502 -0.36374426 0
0.61917782 0.22650051 -0.36267042 0
0.85069609 0.24300575 -0.35588837 0
-0.99542356 0.33878517 -0.35061979 0
-0.89694285 0.30786705 -0.35385084 0
-0.80933952 0.30457783 -0.35611534 0
-0.69343185 0.33679867 -0.35641623 0
-0.58192587 0.34623718 -0.3574543 0
-0.42800403 0.30734062 -0.3617692 0
-0.30270028 0.33370018 -0.36136818 0
-0.14244628 0.32562351 -0.36247253 0
0.043844461 0.34201336 -0.36322546 0
0.22715569 0.32441044 -0.36311007 0
0.42076898 0.3217783 -0.36275768 0
0.67446899 0.34878349 -0.36029577 0
0.86793351 0.35174656 -0.35257006 0
-0.96071291 0.4199543 -0.34624434 0
-0.86852932 0.46525669 -0.34591436 0
-0.81313562 0.4162817 -0.35054684 0
-0.70547462 0.42770767 -0.35150623 0
-0.60238719 0.41578865 -0.35322046 0
-0.48053432 0.43006897 -0.35427999 0
-0.42231369 0.39334297 -0.35848951 0
-0.2599926 0.43021297 -0.35951662 0
-0.13897872 0.43883133 -0.35805845 0
-0.1122365 0.38557339 -0.36143208 0
0.044251442 0.43311405 -0.3592124 0
0.2511127 0.43826008 -0.35947752 0
0.41826653 0.42391872 -0.35796452 0
0.64775491 0.41301727 -0.35620832 0
0.85671735 0.42786407 -0.34933329 0
0.53439665 -0.44683933 -0.35416412 0
0.74365282 -0.47268772 -0.34627247 0
0.9540453 -0.47602463 -0.33860302 0
0.60764027 -0.37459373 -0.35653782 0
0.82860518 -0.36319065 -0.34883022 0
0.89339519 -0.24321175 -0.34954309 0
0.92794585 -0.17406654 -0.34974241 0
-0.99461126 -0.47530365 -0.37613726 0
-0.92470217 -0.46128082 -0.37675238 0
-0.81529331 -0.48488426 -0.3757658 0
-0.67551064 -0.47833347 -0.37459898 0
-0.57089138 -0.49136257 -0.37251663 0
-0.38305259 -0.45850754 -0.37140274 0
-0.24502707 -0.4847765 -0.36855412 0
-0.076840639 -0.48743534 -0.36590385 0
0.11991239 -0.48500538 -0.36422825 0
0.34075665 -0.4864893 -0.3601675 0
0.5997622 -0.46279335 -0.35355854 0
0.82436252 -0.4944725 -0.34461403 0
0.87565184 -0.42485237 -0.34605694 0
-0.99422908 -0.39194489 -0.37498808 0
-0.92559242 -0.37850952 -0.37510252 0
-0.76036739 -0.3642168 -0.37702322 0
-0.63674164 -0.40032482 -0.37552691 0
-0.61720371 -0.35004139 -0.37601566 0
-0.51872563 -0.38660336 -0.37372971 0
-0.34434676 -0.37658501 -0.37225819 0
-0.17439866 -0.36558723 -0.3701458 0
0.0039768219 -0.38232422 -0.36778927 0
0.16302705 -0.42292213 -0.36514568 0
0.20634413 -0.35414886 -0.36606979 0
0.42901659 -0.37505341 -0.36293316 0
0.62288594 -0.4055481 -0.35433769 0
0.90033054 -0.35321712 -0.34640884 0
-0.99009132 -0.28634453 -0.37410975 0
-0.88075542 -0.30209255 -0.3751688 0
-0.71242118 -0.26381302 -0.37701941 0
-0.60302639 -0.27958488 -0.37637806 0
-0.45661116 -0.27438927 -0.37535906 0
-0.29011846 -0.28438854 -0.3736372 0
-0.13711596 -0.28172874 -0.370996 0
0.057742596 -0.28777313 -0.3690052 0
0.24794769 -0.28423214 -0.36698198 0
0.44165373 -0.31694698 -0.36295652 0
0.49111104 -0.23729324 -0.36350536 0
0.72367644 -0.28593349 -0.35692215 0
0.94673944 -0.27170086 -0.34654617 0
-0.97613811 -0.19654655 -0.37297964 0
-0.83712626 -0.22607517 -0.37523746 0
-0.82721639 -0.17784786 -0.3747201 0
-0.68754363 -0.16200447 -0.37602186 0
-0.55249953 -0.17249298 -0.37746334 0
-0.42479038 -0.17205524 -0.37626791 0
-0.28360081 -0.21283531 -0.37374592 0
-0.2229321 -0.13954449 -0.37529182 0
-0.11032844 -0.19143105 -0.37134743 0
0.10776258 -0.19273376 -0.36997223 0
0.31730247 -0.18072224 -0.36809587 0
0.48265672 -0.17513752 -0.362257 0
0.77604723 -0.17958355 -0.35709286 0
-0.98193598 -0.075107574 -0.37144709 0
-0.78677845 -0.099143028 -0.37470913 0
-0.65707088 -0.058111191 -0.37482166 0
-0.54863381 -0.074789047 -0.37510967 0
-0.37613368 -0.054423332 -0.37611294 0
-0.20432043 -0.0812006 -0.37467575 0
-0.037199497 -0.058707237 -0.37120914 0
0.094531059 -0.11362171 -0.36824322 0
0.17250395 -0.028828621 -0.36915493 0
0.32579923 -0.091844559 -0.36713696 0
0.54913163 -0.09665966 -0.36327076 0
0.57351756 -0.02316761 -0.36286974 0
0.74622297 -0.11626816 -0.35530233 0
0.82471514 -0.025912285 -0.35641766 0
-0.95086861 0.032316208 -0.36775684 0
-0.77065325 -0.0028533936 -0.3726263 0
-0.66797829 0.013818741 -0.37155342 0
-0.50685859 0.018726349 -0.37300777 0
-0.3839891 0.021510124 -0.37303972 0
-0.20039606 0.002286911 -0.37310839 0
-0.040856361 0.028391838 -0.36925888 0
0.21162772 0.037314415 -0.36916018 0
0.37381911 0.018377304 -0.36729288 0
0.61114979 0.051347733 -0.36292934 0
0.87534118 0.063490868 -0.35655594 0
-0.94682813 0.15479279 -0.36170483 0
-0.92914009 0.11124706 -0.36465168 0
-0.79372454 0.11740017 -0.3666954 0
-0.66097069 0.11740875 -0.36781693 0
-0.49517202 0.1018343 -0.37021637 0
-0.35933256 0.11426926 -0.3703599 0
-0.18432212 0.11672783 -0.37103415 0
-0.0023498535 0.12366772 -0.36868906 0
0.2067697 0.13614273 -0.36709976 0
0.41922808 0.13156033 -0.36697912 0
0.64497232 0.12708092 -0.36291265 0
0.89266419 0.1372118 -0.35590839 0
-0.93073344 0.20619011 -0.35980654 0
-0.78408742 0.24281406 -0.36092424 0
-0.60766292 0.23665714 -0.36520624 0
-0.480582 0.20887852 -0.36669588 0
-0.33282113 0.23562622 -0.36674452 0
-0.19247985 0.2044239 -0.36747789 0
0.034525871 0.22608089 -0.36802387 0
0.20270586 0.228652 -0.36526299 0
0.4082036 0.21670246 -0.36497545 0
0.66922474 0.20164394 -0.36264706 0
0.91013765 0.21306038 -0.35487556 0
-0.91412735 0.3306179 -0.35436821 0
-0.78445959 0.34461975 -0.35588741 0
-0.67060709 0.32436371 -0.35820723 0
-0.63501644 0.27806091 -0.36198854 0
-0.50311828 0.31698895 -0.36171389 0
-0.34717941 0.31604481 -0.36317968 0
-0.15353775 0.31220818 -0.3649106 0
0.015800953 0.31782246 -0.36480236 0
0.2656908 0.31269264 -0.36588001 0
0.43982434 0.33801651 -0.36231375 0
0.68241262 0.3173399 -0.35949898 0
0.93692589 0.33805275 -0.35100985 0
-0.96246409 0.4157362 -0.34822369 0
-0.78971744 0.41669369 -0.35216188 0
-0.64391208 0.43627644 -0.35386372 0
-0.63181472 0.3868494 -0.35676956 0
-0.49561334 0.42758083 -0.35684347 0
-0.34276915 0.40825462 -0.35994434 0
-0.14498043 0.39935684 -0.36199903 0
-0.12371087 0.47094631 -0.35954285 0
0.026120424 0.41524696 -0.36095572 0
0.25895524 0.41195297 -0.36147881 0
0.44581366 0.41251278 -0.35909414 0
0.69437909 0.43241596 -0.35484743 0
0.96607208 0.4607048 -0.34747505 0
0.46862054 0.48578453 -0.35668612 0
-0.9486661 -0.36371803 -0.38567924 0
-0.93364573 -0.40492344 -0.38692236 0
-0.80067086 -0.40617466 -0.38760662 0
-0.64599466 -0.39226818 -0.38628101 0
-0.89634609 -0.28066921 -0.38595867 0
-0.78124237 -0.30513859 -0.38680506 0
-0.6177032 -0.31649017 -0.38710594 0
-0.46082425 -0.30914211 -0.38577223 0
-0.27996516 -0.30169582 -0.38364267 0
-0.8840971 -0.18664074 -0.38478422 0
-0.72558451 -0.19037914 -0.38667917 0
-0.57034063 -0.20064259 -0.38822985 0
-0.40092444 -0.21725655 -0.38752985 0
-0.25401235 -0.20695686 -0.3844161 0
-0.051573038 -0.21630287 -0.382061 0
0.16909313 -0.19716454 -0.37942314 0
-0.85470748 -0.10377979 -0.38441277 0
-0.73088479 -0.1209774 -0.3853755 0
-0.55198574 -0.093011856 -0.38672113 0
-0.40391278 -0.13709736 -0.38737774 0
-0.22627354 -0.11667347 -0.38427544 0
0.0055334568 -0.11283016 -0.38231611 0
0.17573738 -0.12682724 -0.37884426 0
0.36648083 -0.1260376 -0.37520933 0
0.38355517 -0.18569183 -0.37647963 0
-0.86731482 -0.0051460266 -0.38121176 0
-0.82557058 0.0022516251 -0.38255501 0
-0.6972065 -0.030649185 -0.38391447 0
-0.55022597 -0.005856514 -0.38352108 0
-0.37656188 -0.014955521 -0.38542271 0
-0.1894567 -0.011935234 -0.38354588 0
0.0083627701 -0.015856743 -0.38052607 0
0.22884178 -0.022573471 -0.37903118 0
0.43063021 -0.039156914 -0.37625408 0
0.69276643 -0.04291153 -0.37068653 0
-0.89594746 0.091440201 -0.37581253 0
-0.69441199 0.080653191 -0.37983751 0
-0.55244017 0.080079079 -0.38020372 0
-0.36530685 0.10337257 -0.38138199 0
-0.16710758 0.084051132 -0.3826046 0
-0.0035290718 0.075446129 -0.37844753 0
0.25370502 0.0877285 -0.37786198 0
0.45154595 0.064062119 -0.37585878 0
0.69293118 0.031421661 -0.36965036 0
-0.98050022 0.18004513 -0.37145805 0
-0.8561461 0.2103796 -0.37164545 0
-0.79920244 0.16440773 -0.37626266 0
-0.67750931 0.19410706 -0.37602949 0
-0.53974986 0.22743702 -0.37530804 0
-0.52027106 0.17628956 -0.37789869 0
-0.39330006 0.18729687 -0.37720966 0
-0.16768932 0.17049122 -0.37994385 0
0.040880203 0.1785593 -0.3781662 0
0.26677012 0.164464 -0.37697506 0
0.46756005 0.17475605 -0.37510729 0
0.75060296 0.11703777 -0.37039566 0
0.7844789 0.1939497 -0.37054443 0
-0.87719369 0.2767458 -0.36756372 0
-0.72896767 0.31220913 -0.36825562 0
-0.68428063 0.27528667 -0.3718853 0
-0.52327681 0.28964996 -0.37372589 0
-0.38113785 0.3155098 -0.37307835 0
-0.31603098 0.26508522 -0.37735605 0
-0.16236734 0.26896858 -0.37655067 0
0.093108416 0.29175091 -0.37806797 0
0.29723954 0.26833057 -0.3762784 0
0.48708344 0.25306034 -0.37441158 0
0.78220153 0.2746563 -0.3681159 0
-0.85471296 0.39323139 -0.36295652 0
-0.72008419 0.37682915 -0.36554623 0
-0.53525734 0.37317848 -0.36938477 0
-0.39676905 0.40441895 -0.36920881 0
-0.16185188 0.36882305 -0.37294912 0
0.066037893 0.39027977 -0.37330866 0
0.29248214 0.38915348 -0.37178802 0
0.51951313 0.34746552 -0.37156391 0
0.79617119 0.36468887 -0.36552858 0
-0.88473916 0.48910618 -0.35667038 0
-0.73385954 0.48225498 -0.35997295 0
-0.69472098 0.44393539 -0.36342859 0
-0.55574679 0.48560524 -0.36285543 0
-0.41951656 0.49150085 -0.36368275 0
-0.20318007 0.45871162 -0.36747503 0
0.020622492 0.48615932 -0.36716795 0
0.28228474 0.4478178 -0.36886168 0
0.5044899 0.45523643 -0.36627436 0
0.78722644 0.45024776 -0.36178541 0
-0.9848454 -0.48590088 -0.38673115 0
-0.79774356 -0.4700222 -0.38775063 0
0.47330666 -0.49680042 -0.36695194 0
-0.52952194 -0.43052578 -0.38387966 0
-0.38872671 -0.43262482 -0.38066912 0
-0.15912175 -0.38698864 -0.37930441 0
-0.12733364 -0.43446064 -0.38033772 0
0.017028332 -0.47806358 -0.37606335 0
0.098978758 -0.3925972 -0.37816048 0
0.26361823 -0.40688419 -0.37442732 0
0.52032042 -0.42634583 -0.36860228 0
0.73715711 -0.45246315 -0.3585391 0
-0.32227826 -0.36466312 -0.38247824 0
-0.099395514 -0.31289482 -0.38090038 0
0.097615242 -0.33479309 -0.37795353 0
0.29452991 -0.33419323 -0.37506485 0
0.60216975 -0.33786964 -0.37134933 0
0.81321979 -0.36898422 -0.36095238 0
0.093102217 -0.27166557 -0.37770081 0
0.32365632 -0.26641369 -0.37560034 0
0.59821463 -0.24179077 -0.3705759 0
0.85848284 -0.25793839 -0.36104298 0
0.66300917 -0.12217331 -0.37089252 0
0.94227648 -0.11816502 -0.36207533 0
0.97722507 -0.037378311 -0.36234283 0
0.9828074 0.031201363 -0.36188698 0
-0.93792486 -0.41522884 -0.37504959 0
-0.79624319 -0.42377663 -0.37659454 0
-0.72104812 -0.48356247 -0.37406111 0
-0.57578659 -0.47074032 -0.37261248 0
-0.89715481 -0.29225731 -0.37442875 0
-0.78043485 -0.32930088 -0.37608433 0
-0.68339968 -0.37383366 -0.37546253 0
-0.54649472 -0.3954668 -0.37364244 0
-0.41085672 -0.4584465 -0.37132072 0
-0.98956394 -0.14291763 -0.37180901 0
-0.87287021 -0.17584133 -0.37346697 0
-0.74784088 -0.22966671 -0.37560654 0
-0.64594746 -0.27312279 -0.37664413 0
-0.50789189 -0.31053257 -0.37502098 0
-0.4039011 -0.383708 -0.37170649 0
-0.23761845 -0.39369488 -0.36991405 0
-0.23086357 -0.43901443 -0.37000751 0
-0.1003468 -0.4467907 -0.36741829 0
-0.98693347 -0.057770729 -0.37059116 0
-0.91299129 -0.07780838 -0.37207508 0
-0.83797264 -0.095215797 -0.37343693 0
-0.74219918 -0.12744045 -0.37428141 0
-0.60652113 -0.16541195 -0.37651825 0
-0.49882269 -0.20640564 -0.37578201 0
-0.45652413 -0.24539948 -0.37670803 0
-0.31813025 -0.28518867 -0.37440014 0
-0.16887283 -0.32183361 -0.37200785 0
-0.078865767 -0.36532307 -0.36816883 0
-0.97574615 0.041725159 -0.36702967 0
-0.85644388 0.020742416 -0.36987209 0
-0.74720454 -0.030451775 -0.371984 0
-0.60903597 -0.065119743 -0.37444115 0
-0.47661972 -0.097401619 -0.3759222 0
-0.44308519 -0.14473724 -0.37763262 0
-0.32958174 -0.18304539 -0.37457275 0
-0.16363358 -0.24177647 -0.37243938 0
-0.03903389 -0.27476311 -0.36950493 0
0.1411128 -0.32118702 -0.36632919 0
-0.93878436 0.15856171 -0.36146355 0
-0.88243437 0.085071564 -0.36587286 0
-0.76096869 0.06566143 -0.36803913 0
-0.60450602 0.068916321 -0.36995697 0
-0.60877943 0.012598038 -0.37179089 0
-0.49099469 -0.047748566 -0.37354946 0
-0.32518578 -0.10510731 -0.37436247 0
-0.16606236 -0.15982723 -0.3725462 0
-0.025134802 -0.18450069 -0.36975193 0
0.20169497 -0.21079254 -0.36812592 0
-0.91407752 0.22709942 -0.35778236 0
-0.86313844 0.18477726 -0.36189604 0
-0.70700955 0.18545246 -0.36528492 0
-0.59228992 0.15474224 -0.36741924 0
-0.44587302 0.07634449 -0.37082863 0
-0.2847805 -0.0020971298 -0.37400627 0
-0.12928343 -0.0030059814 -0.37134266 0
-0.11566186 -0.086832047 -0.37303638 0
0.045042515 -0.073802948 -0.3704071 0
0.24213052 -0.13734818 -0.3688159 0
-0.97776747 0.36352921 -0.35024071 0
-0.88245916 0.30962181 -0.35521746 0
-0.74493837 0.27986908 -0.35924387 0
-0.62322259 0.2480669 -0.36272287 0
-0.46952033 0.18432713 -0.36615753 0
-0.30910301 0.13719177 -0.36857653 0
-0.25468874 0.092910767 -0.37220764 0
-0.11865258 0.092278481 -0.3703475 0
0.031921387 0.011785507 -0.36866713 0
0.20959234 -0.053920746 -0.36705589 0
0.41622686 -0.1278162 -0.36419058 0
-0.924438 0.44691467 -0.34680367 0
-0.79355597 0.44995022 -0.34936333 0
-0.76126575 0.3805809 -0.35387516 0
-0.66164589 0.38031197 -0.354949 0
-0.59680986 0.34007454 -0.35948992 0
-0.47106433 0.29616928 -0.36225557 0
-0.28622675 0.23164654 -0.36617374 0
-0.096215725 0.18720055 -0.36912537 0
0.053059101 0.11660385 -0.3678441 0
0.2278378 0.049881935 -0.36614609 0
0.47662878 -0.0011367798 -0.36511135 0
-0.63685393 0.43917465 -0.35324955 0
-0.46694756 0.41415215 -0.35757589 0
-0.31413174 0.37200737 -0.3603878 0
-0.28027105 0.3238802 -0.36326599 0
-0.12054133 0.27236176 -0.36528778 0
0.057870388 0.21343613 -0.36671305 0
0.30493903 0.13679504 -0.36736965 0
0.47764683 0.057413101 -0.36476851 0
-0.50667429 0.49100399 -0.3520174 0
-0.31089664 0.46102333 -0.35702372 0
-0.10061741 0.37698746 -0.36245251 0
0.040282726 0.30650902 -0.36453009 0
0.28301692 0.26222324 -0.36491966 0
0.29632187 0.19690418 -0.36623859 0
0.50337386 0.17189312 -0.36467409 0
0.74074316 0.14136982 -0.35995674 0
-0.15779853 0.48590946 -0.35575199 0
0.053192854 0.43983841 -0.35971594 0
0.081703424 0.38233566 -0.36334038 0
0.2828548 0.36946964 -0.36205673 0
0.53244901 0.29282093 -0.36357832 0
0.7304709 0.21356678 -0.3591218 0
0.28386736 0.47201443 -0.35796547 0
0.50992727 0.3890543 -0.35871458 0
0.77364612 0.30220032 -0.35821104 0
0.7445116 0.45322132 -0.35176039 0
0.798527 0.38513088 -0.3565135 0
0.11224341 -0.40914536 -0.36538982 0
0.32793903 -0.42969513 -0.36266994 0
0.52147627 -0.45399284 -0.35557985 0
0.37620068 -0.32586193 -0.36409473 0
0.55268931 -0.38734341 -0.35720062 0
0.7248311 -0.45042133 -0.34836769 0
0.95549655 -0.48603344 -0.33823681 0
0.432266 -0.22073364 -0.36544418 0
0.60892534 -0.30440998 -0.3596611 0
0.76415324 -0.37457371 -0.35021925 0
0.64015007 -0.19853115 -0.35994148 0
0.83848119 -0.26042652 -0.35212231 0
0.66293859 -0.083615303 -0.35949421 0
0.88206744 -0.14303875 -0.35282373 0
0.69948745 -0.0094747543 -0.35993719 0
0.92184806 -0.061966896 -0.35367727 0
0.71675086 0.066667557 -0.3598156 0
0.97184539 0.025994301 -0.35484028 0
0.97275066 0.096616745 -0.35418415 0
0.99619007 0.17844677 -0.35419273 0
0.98711348 0.30185318 -0.35030317 0
