# .PCD v0.7 - Point Cloud Data file format
VERSION 0.7
FIELDS x y z intensity
SIZE 4 4 4 4
TYPE F F F F
COUNT 1 1 1 1
WIDTH 1299
HEIGHT 1
VIEWPOINT 0 0 0 1 0 0 0
POINTS 1299
DATA ascii
0.016628265 -0.21298504 -0.37574959 0
0.098348618 -0.22184277 -0.37462473 0
0.20916653 -0.21502304 -0.37117672 0
0.94548798 -0.26433182 -0.33513546 0
-0.21900272 -0.14308739 -0.3785243 0
0.31561089 0.15028191 -0.35487556 0
0.53186607 0.15483665 -0.35152102 0
0.64523602 0.14414787 -0.34763288 0
0.73965645 0.14461136 -0.34297609 0
0.11136055 0.22988129 -0.35591602 0
0.20392132 0.22707748 -0.35601616 0
0.34350109 0.22789288 -0.35464525 0
0.43404007 0.18188477 -0.35238123 0
0.54940891 0.19243813 -0.35004759 0
0.57629967 0.26024151 -0.34942341 0
0.6829319 0.23239899 -0.34587431 0
0.79193592 0.25432396 -0.34113455 0
0.91698551 0.25302887 -0.33335972 0
-0.0077466965 0.31022644 -0.35501909 0
0.07135582 0.25295925 -0.35566282 0
0.18003845 0.30617428 -0.35562086 0
0.27496624 0.2954464 -0.35599661 0
0.37022686 0.31003475 -0.35376215 0
0.48197842 0.31444359 -0.35180855 0
0.60449409 0.33699322 -0.34867191 0
0.72600937 0.35239983 -0.34464598 0
0.84321308 0.37529945 -0.33942366 0
0.97592449 0.38689137 -0.33273458 0
0.0049114227 0.39947033 -0.35337496 0
0.099772453 0.36060238 -0.35566044 0
0.2094841 0.40856171 -0.35602283 0
0.29709435 0.38046074 -0.35481167 0
0.40505028 0.43005276 -0.35305071 0
0.51896667 0.4308176 -0.35073376 0
0.63083839 0.41766739 -0.34729624 0
0.73835754 0.39260578 -0.34270191 0
0.88146496 0.48401737 -0.33862829 0
0.012685776 0.49183846 -0.35157919 0
0.12002182 0.48720646 -0.35403061 0
0.22388458 0.48046589 -0.35556221 0
0.53067875 0.47749519 -0.34974146 0
0.35406208 -0.49213791 -0.35112047 0
0.46521568 -0.49498272 -0.34543848 0
0.66426182 -0.47943878 -0.33555984 0
0.78074169 -0.47109795 -0.32900763 0
0.8594923 -0.45696163 -0.32317257 0
0.97835827 -0.46263218 -0.31267786 0
-0.24690056 -0.45851231 -0.37983465 0
-0.12753391 -0.43929863 -0.37623501 0
-0.022206306 -0.44598293 -0.373456 0
0.065611839 -0.41901493 -0.37079048 0
0.15689087 -0.43691826 -0.36465788 0
0.26485157 -0.40720463 -0.35722685 0
0.37209129 -0.40418625 -0.3504281 0
0.48031616 -0.39420128 -0.34512997 0
0.55323887 -0.36863327 -0.34259319 0
0.67591476 -0.38352013 -0.33669662 0
0.76798058 -0.36312866 -0.33206558 0
0.94198132 -0.33667088 -0.32150126 0
-0.21510315 -0.35282421 -0.37523603 0
-0.13902855 -0.32692623 -0.37287235 0
-0.046656609 -0.33264351 -0.37181997 0
0.044848442 -0.33536053 -0.36876631 0
0.15842247 -0.31620979 -0.36402941 0
0.25831223 -0.29187393 -0.3584857 0
0.36423588 -0.29232311 -0.35171175 0
0.47722626 -0.30408478 -0.3470521 0
0.5253582 -0.2451334 -0.34533787 0
0.62441921 -0.27858162 -0.34080362 0
0.76281357 -0.24298 -0.33486748 0
0.8549099 -0.29797363 -0.32789421 0
0.94735527 -0.25244808 -0.32282019 0
-0.16269302 -0.23876572 -0.37043333 0
-0.046088219 -0.22281075 -0.36862803 0
0.053033829 -0.21948719 -0.36464262 0
0.13277245 -0.21528435 -0.36160994 0
0.26502514 -0.19033909 -0.35641813 0
0.36440468 -0.17929935 -0.35345411 0
0.458395 -0.18990993 -0.34943295 0
0.54553318 -0.16247082 -0.34593964 0
0.65410137 -0.17746925 -0.34083605 0
0.71666527 -0.1448431 -0.3375535 0
0.82128239 -0.15277481 -0.33267736 0
0.95476151 -0.1449995 -0.32454205 0
-0.1285305 -0.1509304 -0.36675644 0
-0.038905144 -0.12030602 -0.36462212 0
0.035513878 -0.12493038 -0.36264896 0
0.13980293 -0.10685539 -0.35915232 0
0.2024641 -0.098690033 -0.3570056 0
0.32465458 -0.065180779 -0.35540056 0
0.42473698 -0.073559761 -0.35289669 0
0.54654312 -0.041923523 -0.34843016 0
0.64777279 -0.034752846 -0.34478855 0
0.76755333 -0.028676987 -0.33863831 0
0.78333664 -0.012286186 -0.33690548 0
0.89207172 -0.038235664 -0.33005762 0
-0.074856758 -0.047537804 -0.36299086 0
0.022241592 -0.01432991 -0.35860634 0
0.12985802 0.0012292862 -0.355937 0
0.23523617 -0.030594826 -0.3557148 0
0.36009693 0.0071401596 -0.35429239 0
0.46543694 0.0030040741 -0.35194111 0
0.61913586 0.026477814 -0.34647417 0
0.70021248 0.06269455 -0.34379578 0
0.80707645 0.029277802 -0.33592272 0
0.9318428 0.024772644 -0.32814121 0
-0.063141823 0.07179451 -0.35931158 0
0.0065555573 0.058498383 -0.35515928 0
0.10359383 0.083310127 -0.35563898 0
0.20555305 0.10797787 -0.3555603 0
0.28234196 0.069247246 -0.35555696 0
0.3960886 0.087542534 -0.35317707 0
0.5010643 0.081407547 -0.35148859 0
0.85865021 0.13655376 -0.33535576 0
0.97161198 0.11008167 -0.32828236 0
0.99342632 0.14466286 -0.32696247 0
-0.044797897 0.16070938 -0.35613775 0
0.0059118271 0.18422604 -0.35603094 0
0.1298666 0.15244293 -0.3553133 0
0.59597206 0.30034637 -0.35632133 0
0.71196651 0.33222389 -0.35415936 0
0.83080006 0.37887669 -0.34943104 0
0.91977787 0.3543787 -0.34360218 0
0.2897377 0.32757664 -0.36399746 0
0.4182806 0.34614754 -0.36092949 0
0.51327515 0.38080692 -0.35893631 0
0.62284088 0.39832497 -0.35645437 0
0.72483158 0.38989353 -0.35293674 0
0.73522758 0.43738174 -0.35226011 0
0.84963703 0.46027946 -0.3478055 0
0.95973396 0.48633766 -0.34272194 0
0.16054535 0.35394096 -0.36426926 0
0.25772762 0.39655304 -0.36428356 0
0.36846447 0.41328335 -0.36245823 0
0.46593571 0.45539474 -0.3594718 0
0.53415012 0.4890871 -0.35835171 0
0.64501667 0.49621487 -0.3561058 0
0.16536045 0.45295334 -0.36289835 0
0.27125168 0.49742031 -0.36420631 0
0.84156799 -0.46838474 -0.33480406 0
0.95970726 -0.4453516 -0.32524729 0
0.98933315 -0.41208172 -0.3238616 0
0.45676422 -0.49230289 -0.35517931 0
0.54563999 -0.47851753 -0.35020113 0
0.63497066 -0.4563446 -0.34636164 0
0.75078678 -0.44886971 -0.34089565 0
0.82787704 -0.38183594 -0.33741045 0
0.92822552 -0.34004021 -0.33241224 0
0.12409878 -0.49982548 -0.37601519 0
0.22560978 -0.46150589 -0.36903954 0
0.32896614 -0.4490633 -0.36211824 0
0.42669296 -0.42119217 -0.35659361 0
0.52857494 -0.38263702 -0.35198927 0
0.59910774 -0.34003353 -0.34992504 0
0.7083149 -0.3386488 -0.34554577 0
0.79542923 -0.28442955 -0.34113169 0
0.86963463 -0.25482845 -0.33689833 0
0.99269962 -0.24407864 -0.32945967 0
-0.066467285 -0.45092297 -0.3832655 0
-0.010313988 -0.42378235 -0.38032579 0
0.10669231 -0.41788387 -0.37636375 0
0.21398258 -0.36290073 -0.37054825 0
0.30906963 -0.35159302 -0.36371756 0
0.36205196 -0.28410149 -0.3612752 0
0.46891975 -0.28218365 -0.35697842 0
0.55399609 -0.27049065 -0.35273409 0
0.66536617 -0.2259798 -0.34940147 0
0.78626156 -0.20804024 -0.34235477 0
0.86504745 -0.1637516 -0.33838367 0
0.94556141 -0.12112808 -0.3341651 0
-0.011445045 -0.31965637 -0.37781143 0
0.077448845 -0.30667591 -0.37544823 0
0.16983414 -0.28895092 -0.37101984 0
0.26269913 -0.24913788 -0.36627626 0
0.35447216 -0.21753788 -0.36203861 0
0.45789146 -0.18789673 -0.35839558 0
0.56150913 -0.16361809 -0.35478592 0
0.64799595 -0.15425205 -0.35076475 0
0.73768806 -0.093048096 -0.34700108 0
0.87960148 -0.016963005 -0.34074879 0
0.0062913895 -0.26833344 -0.37476492 0
0.043310165 -0.22598743 -0.37242508 0
0.14495564 -0.18645954 -0.36764479 0
0.23184013 -0.1608696 -0.36477232 0
0.32691288 -0.1247263 -0.3628912 0
0.4619503 -0.084665298 -0.36044979 0
0.52595043 -0.082595825 -0.35738993 0
0.61340618 -0.030874252 -0.35466242 0
0.67485714 -0.041996002 -0.35152483 0
0.79781723 0.047950745 -0.34718418 0
0.9080677 0.038864136 -0.33940554 0
0.052912712 -0.12034035 -0.37120342 0
0.098558426 -0.096280098 -0.36695385 0
0.22121239 -0.043683052 -0.36419153 0
0.30925655 -0.035690308 -0.36365223 0
0.40716553 0.013195038 -0.36136484 0
0.50034046 0.0012044907 -0.35973024 0
0.56386471 0.08302784 -0.35813713 0
0.69201756 0.077857018 -0.35325909 0
0.77710819 0.098006248 -0.34829283 0
0.84539795 0.15491581 -0.34500694 0
0.96728802 0.17585087 -0.33845139 0
0.083773613 0.023164749 -0.36476946 0
0.16670227 0.032980919 -0.36427212 0
0.25820827 0.058186531 -0.36383533 0
0.35537529 0.099989891 -0.36263037 0
0.44540024 0.12645245 -0.36010313 0
0.55798721 0.16398907 -0.35798836 0
0.6678648 0.18105507 -0.35573673 0
0.77092266 0.19773865 -0.35077953 0
0.8234272 0.25923347 -0.34789181 0
0.90091896 0.30042648 -0.34453344 0
0.098707199 0.085388184 -0.3635602 0
0.14319801 0.14165401 -0.36400175 0
0.23219872 0.15764427 -0.36378527 0
0.326828 0.19657612 -0.36277485 0
0.43254089 0.22696304 -0.36063957 0
0.48642731 0.27447033 -0.35905695 0
0.59016991 0.26828003 -0.35758066 0
0.68878937 0.25063992 -0.35480499 0
0.1455574 0.265522 -0.36437511 0
0.23258877 0.26358318 -0.36439323 0
0.32355595 0.28757572 -0.36362505 0
0.92860794 -0.48854351 -0.32609701 0
0.82411003 0.09383297 -0.34564066 0
0.93829536 0.14360332 -0.33971834 0
0.97391033 0.23731041 -0.33831835 0
0.75074577 0.14433098 -0.35064697 0
0.86662865 0.20852089 -0.34500933 0
0.89178562 0.28650284 -0.34365082 0
0.99598789 0.30305099 -0.33700705 0
0.63391781 0.11571884 -0.35644865 0
0.70988083 0.20223904 -0.35359955 0
0.79406834 0.27963257 -0.3500309 0
0.81704426 0.37951374 -0.34862852 0
0.93671036 0.42656517 -0.34460878 0
0.94699574 0.49299335 -0.34286022 0
0.49308109 0.12232494 -0.35950279 0
0.57567024 0.18412209 -0.35801268 0
0.62326813 0.28863716 -0.35652494 0
0.71811867 0.31667042 -0.35338068 0
0.73752308 0.42265511 -0.35197783 0
0.83233833 0.46644402 -0.3474021 0
0.42226028 0.17503357 -0.36096001 0
0.49726295 0.25496292 -0.35902452 0
0.53999996 0.32780457 -0.35775661 0
0.64535522 0.40603447 -0.35545731 0
0.45415401 0.32790375 -0.36009836 0
0.46939468 0.42821693 -0.35972738 0
0.56032372 0.44109631 -0.35748148 0
0.89247704 -0.48928547 -0.32903528 0
0.94440842 -0.40392971 -0.32848787 0
0.99213791 -0.34438038 -0.32657051 0
0.82677937 -0.44501019 -0.33590412 0
0.87226105 -0.36219311 -0.33526468 0
0.92252731 -0.28083515 -0.33332539 0
0.67301083 -0.44732761 -0.3448987 0
0.73789406 -0.3971777 -0.34194326 0
0.82229424 -0.29532623 -0.33950758 0
0.86623192 -0.22005939 -0.33780861 0
0.9371767 -0.1437912 -0.33473682 0
0.98708344 -0.079220772 -0.33235598 0
0.52735615 -0.4742384 -0.35161781 0
0.58934307 -0.37650776 -0.34951353 0
0.6717186 -0.28028679 -0.34770012 0
0.73278999 -0.24039078 -0.34528303 0
0.79339314 -0.18184853 -0.34255505 0
0.84465694 -0.076981544 -0.3410902 0
0.88591576 0.015505791 -0.34032917 0
0.40291309 -0.46028137 -0.35791492 0
0.46295357 -0.38413429 -0.35553026 0
0.53630352 -0.31646633 -0.35259485 0
0.58406639 -0.22672176 -0.35252666 0
0.64927197 -0.15240002 -0.3506031 0
0.71462154 -0.098132133 -0.34805822 0
0.78380299 -0.0031099319 -0.34679461 0
0.85483932 0.053369522 -0.34315729 0
0.23141479 -0.48428345 -0.36892462 0
0.3048172 -0.41207886 -0.36368322 0
0.37733173 -0.34298801 -0.35891867 0
0.45400143 -0.25846767 -0.35699749 0
0.50082684 -0.1902504 -0.35650778 0
0.57526016 -0.090981483 -0.35509014 0
0.64189625 -0.038362503 -0.35254002 0
0.71581078 0.04947567 -0.35080481 0
0.19828701 -0.42560863 -0.37143421 0
0.24863338 -0.32326126 -0.36840916 0
0.31148434 -0.26610661 -0.3640604 0
0.35408688 -0.18254662 -0.36193132 0
0.43951893 -0.10625553 -0.35987282 0
0.50540257 -0.076494217 -0.3576169 0
0.57590199 0.033031464 -0.35725594 0
0.32700348 -0.12657452 -0.36276531 0
0.35744286 -0.044384003 -0.36254644 0
0.42371273 0.030611992 -0.36114836 0
0.39552593 0.075086594 -0.36144733 0
0.83491611 -0.4046402 -0.3391757 0
0.51222229 -0.46924114 -0.35409641 0
0.62523174 -0.44736481 -0.34909296 0
0.71680832 -0.41819763 -0.34497499 0
0.80369663 -0.35864639 -0.34117508 0
0.87534046 -0.32432461 -0.3377018 0
0.99445057 -0.26974964 -0.33170509 0
0.24214649 -0.48383045 -0.37023735 0
0.29072475 -0.46861172 -0.36579037 0
0.40127468 -0.41300964 -0.36007214 0
0.50000572 -0.35637093 -0.35548687 0
0.58697033 -0.33873653 -0.35243464 0
0.69410038 -0.32318687 -0.34847498 0
0.76877594 -0.2784214 -0.34461451 0
0.8802557 -0.22487736 -0.33973885 0
0.93670177 -0.18443584 -0.33632326 0
0.29761028 -0.36212063 -0.36613989 0
0.35330105 -0.32205868 -0.36295319 0
0.43974113 -0.27210236 -0.35985851 0
0.55107212 -0.2431488 -0.35540962 0
0.6639185 -0.23243904 -0.35121489 0
0.74901009 -0.16746044 -0.3480525 0
0.82653809 -0.13374424 -0.3440733 0
0.90898514 -0.098972321 -0.33917189 0
0.98081112 -0.072993279 -0.33506584 0
0.34339619 -0.23993206 -0.36410809 0
0.42699242 -0.18621254 -0.361691 0
0.50777531 -0.18010902 -0.3581171 0
0.62431145 -0.13032341 -0.35450268 0
0.69818211 -0.060875893 -0.35231543 0
0.79082966 -0.05199337 -0.34693289 0
0.88145733 0.022994041 -0.34285164 0
0.99072361 0.028943062 -0.33686447 0
0.39419556 -0.090427399 -0.36370468 0
0.47837353 -0.079494476 -0.36100054 0
0.56937695 -0.044944763 -0.35787821 0
0.62760639 0.010883331 -0.35640717 0
0.73961926 0.030079842 -0.35133362 0
0.82374477 0.098519325 -0.34740448 0
0.96055031 0.10284805 -0.33910704 0
0.44139004 0.030096054 -0.36209631 0
0.52991104 0.068573952 -0.36089659 0
0.60958958 0.099665642 -0.35818148 0
0.71517563 0.14140511 -0.3548131 0
0.80925655 0.21896648 -0.35056877 0
0.91157722 0.21970749 -0.3450036 0
0.44529629 0.13098335 -0.3622303 0
0.51007462 0.17331028 -0.36090136 0
0.60132504 0.20361805 -0.35873079 0
0.67924595 0.23656464 -0.35655689 0
0.76157188 0.29083633 -0.35370636 0
0.85988808 0.3470068 -0.35031271 0
0.93769741 0.3465414 -0.34481621 0
0.45800972 0.23824215 -0.36147499 0
0.53679657 0.29659748 -0.35963345 0
0.61717033 0.31784248 -0.35836077 0
0.71921825 0.35711861 -0.35489368 0
0.81549263 0.40616417 -0.35075426 0
0.95475388 0.43690014 -0.34523249 0
0.47181129 0.33971882 -0.36159182 0
0.50678062 0.39960957 -0.36012936 0
0.62289429 0.41978645 -0.35772419 0
0.71257877 0.46737766 -0.35622215 0
0.47092438 0.48669338 -0.36088943 0
0.54757118 0.49906254 -0.35917664 0
0.97641277 -0.46656227 -0.3252368 0
0.85829258 -0.46780682 -0.3353672 0
0.91645145 -0.42410088 -0.33214951 0
0.95511436 -0.3496027 -0.33215284 0
0.36670113 -0.49462891 -0.36084414 0
0.58094215 -0.42623615 -0.35191727 0
0.66400433 -0.37189388 -0.34918642 0
0.77824402 -0.35431004 -0.34361029 0
0.89754391 -0.31159115 -0.33806896 0
0.26577663 -0.46827412 -0.3673234 0
0.37167549 -0.42375183 -0.36181164 0
0.47638512 -0.38657856 -0.35659933 0
0.55452538 -0.35094643 -0.35353565 0
0.64620972 -0.31023502 -0.35049152 0
0.73879051 -0.28496361 -0.34697628 0
0.84743977 -0.20167065 -0.34346724 0
0.9491787 -0.20527744 -0.3370285 0
0.081873894 -0.4480648 -0.37925529 0
0.15571022 -0.41450405 -0.37448502 0
0.24149895 -0.38013268 -0.36950684 0
0.33964634 -0.34229374 -0.36412287 0
0.42072773 -0.29719543 -0.35974503 0
0.51106262 -0.23975658 -0.35741806 0
0.5981741 -0.2316761 -0.35416555 0
0.7067461 -0.18054867 -0.35087061 0
0.78064346 -0.13310909 -0.34789181 0
0.89213181 -0.10238743 -0.34184265 0
0.99852085 -0.095912933 -0.3361268 0
0.1201458 -0.33258343 -0.37459898 0
0.20500946 -0.2687006 -0.37093019 0
0.29931927 -0.25522804 -0.36701393 0
0.38599586 -0.20904922 -0.36257935 0
0.48682117 -0.17437649 -0.35918331 0
0.5754137 -0.12379742 -0.35691786 0
0.68636894 -0.098161697 -0.35324335 0
0.73964024 -0.033806801 -0.35164928 0
0.8178997 -0.037182808 -0.34787941 0
0.93655586 0.01027298 -0.34152842 0
0.15087128 -0.21248531 -0.36995602 0
0.26510525 -0.16048145 -0.36621237 0
0.37034988 -0.10477161 -0.36402321 0
0.4433527 -0.0822649 -0.36226892 0
0.54728413 -0.012969017 -0.36049128 0
0.65032005 -0.039398193 -0.35593557 0
0.71038055 0.047046661 -0.35538769 0
0.83593178 0.070728302 -0.34862566 0
0.97700405 0.1234169 -0.34191751 0
0.17130756 -0.097896576 -0.36522341 0
0.25721073 -0.050069809 -0.36494589 0
0.33653831 -0.032468796 -0.36444473 0
0.41021347 0.026631355 -0.36307383 0
0.50280952 0.042439461 -0.36115313 0
0.60547543 0.089976311 -0.35933685 0
0.70940018 0.1344614 -0.35715866 0
0.79934311 0.14939404 -0.35206938 0
0.87082481 0.20175362 -0.34947014 0
0.96243191 0.24474621 -0.34441996 0
0.2013731 0.034853935 -0.36440563 0
0.28849983 0.078330994 -0.36482096 0
0.37106514 0.11265087 -0.36426878 0
0.4798584 0.15288353 -0.36222601 0
0.53558064 0.18480587 -0.36088419 0
0.63919258 0.23823357 -0.35910034 0
0.74085808 0.26450348 -0.35703707 0
0.84090233 0.29698658 -0.35290003 0
0.94254303 0.3570919 -0.34854555 0
0.24887466 0.15798283 -0.36450243 0
0.31096268 0.21954441 -0.36474705 0
0.42676067 0.24530315 -0.3637743 0
0.55149841 0.25962448 -0.36116219 0
0.6103611 0.32826233 -0.36023951 0
0.70751286 0.35684776 -0.35758018 0
0.75805283 0.38178539 -0.35589457 0
0.86235809 0.39989567 -0.3527956 0
0.96091938 0.44816303 -0.34838295 0
0.23345947 0.25388527 -0.36457729 0
0.30777168 0.31836033 -0.36516714 0
0.39287376 0.30150414 -0.36310863 0
0.48452187 0.34863853 -0.36250925 0
0.57650185 0.4008379 -0.3616395 0
0.67001152 0.43154812 -0.35894251 0
0.77344322 0.48546982 -0.35577679 0
0.24914551 0.39838791 -0.3655076 0
0.35888672 0.42063999 -0.36498642 0
0.446805 0.47097778 -0.36346579 0
0.58233261 0.49488449 -0.36128092 0
0.2515564 0.49136353 -0.3655858 0
0.90921307 -0.41895866 -0.33376455 0
0.61485863 -0.47052288 -0.34890795 0
0.74174118 -0.42990589 -0.34384918 0
0.85009098 -0.39769936 -0.33966112 0
0.99070168 -0.33047962 -0.33167315 0
0.9082613 0.23709774 -0.34601116 0
0.91988468 0.27084255 -0.34530544 0
0.49248028 0.20062256 -0.36401463 0
0.60795689 0.24384308 -0.36098289 0
0.71827412 0.26908112 -0.3568182 0
0.82731152 0.28207016 -0.35156775 0
0.94736099 0.34998417 -0.34590483 0
0.42130852 0.28240967 -0.36483717 0
0.50626183 0.26966572 -0.36285925 0
0.62499619 0.32214546 -0.35994816 0
0.74170208 0.37994576 -0.35502577 0
0.85776806 0.38192558 -0.35151052 0
0.86579418 0.43049908 -0.35004711 0
0.98439026 0.46911049 -0.34559536 0
0.18722439 0.28493118 -0.36805677 0
0.30618572 0.28766823 -0.36741638 0
0.40149593 0.33471584 -0.36517859 0
0.49464607 0.37432671 -0.36249113 0
0.63808727 0.39709759 -0.35888386 0
0.66187286 0.48949432 -0.35945797 0
0.1605835 0.34797478 -0.36762381 0
0.26402473 0.40352249 -0.36786127 0
0.35329437 0.40180016 -0.36641407 0
0.45656013 0.49125099 -0.36412239 0
0.16878128 0.46972561 -0.36682177 0
0.26706028 0.47190857 -0.367486 0
0.80754089 -0.43694305 -0.34180784 0
0.91437531 -0.44068527 -0.3329711 0
0.510355 -0.49146366 -0.35534811 0
0.58817101 -0.44011211 -0.3521018 0
0.70699024 -0.41668701 -0.34828997 0
0.77723122 -0.37162304 -0.3440609 0
0.87901115 -0.32822418 -0.33852386 0
0.98856735 -0.33131313 -0.33114052 0
0.28264713 -0.47620487 -0.36825371 0
0.3895483 -0.43147564 -0.36204147 0
0.54825974 -0.35120964 -0.35551929 0
0.65513325 -0.32576084 -0.35163403 0
0.79323864 -0.26788044 -0.34551668 0
0.79969788 -0.27263832 -0.34352255 0
0.9392662 -0.21434212 -0.33730936 0
0.97422028 -0.15259933 -0.33590364 0
-0.044593811 -0.49056721 -0.38722229 0
0.073677063 -0.46606541 -0.3833065 0
0.14454556 -0.42136097 -0.37819099 0
0.23356915 -0.37814808 -0.37220573 0
0.32850266 -0.3449688 -0.36583138 0
0.42637539 -0.3013382 -0.36140156 0
0.5001421 -0.26890469 -0.35867023 0
0.60861397 -0.2423048 -0.3550539 0
0.71244526 -0.22194958 -0.35025311 0
0.81583309 -0.15794754 -0.3455677 0
0.88463211 -0.095039368 -0.34236002 0
0.040380478 -0.3625946 -0.38248539 0
0.13698483 -0.32667065 -0.37799692 0
0.20570183 -0.27740192 -0.37274027 0
0.28927422 -0.22892284 -0.368433 0
0.35814667 -0.18651009 -0.36614132 0
0.48251438 -0.16179276 -0.36153316 0
0.56090355 -0.14809036 -0.35828638 0
0.67306232 -0.11665249 -0.35445976 0
0.787117 -0.059658051 -0.34911585 0
0.85626602 -0.036003113 -0.34473276 0
0.9396286 0.022861481 -0.34093618 0
0.028101921 -0.29065704 -0.37971687 0
0.089476585 -0.23130608 -0.37653685 0
0.16262245 -0.19756985 -0.37168455 0
0.25699234 -0.13786221 -0.36822844 0
0.36261177 -0.10962391 -0.36689663 0
0.40446377 -0.075276375 -0.3653698 0
0.53614235 -0.042819023 -0.36139154 0
0.6268959 0.0017938614 -0.35867453 0
0.734622 0.027429581 -0.35349751 0
0.83552074 0.047216415 -0.34696293 0
0.98600292 0.13030338 -0.33994865 0
0.069629669 -0.12612152 -0.37270594 0
0.13761044 -0.091927528 -0.37009525 0
0.23964882 -0.066361427 -0.36775064 0
0.31463623 -0.01543045 -0.36730337 0
0.43650055 0.016592979 -0.36489773 0
0.50213718 0.064618111 -0.36283541 0
0.56660748 0.10311508 -0.36185932 0
0.67829418 0.13379574 -0.3582921 0
0.78754425 0.1656456 -0.35226727 0
0.88398933 0.17193413 -0.34684515 0
0.089717865 -0.012807846 -0.36798143 0
0.18635559 0.029917717 -0.36795807 0
0.27952576 0.052362442 -0.36778784 0
0.37832355 0.10770702 -0.36563921 0
0.47668076 0.14674091 -0.36398268 0
0.58392906 0.16223717 -0.36111879 0
0.11289215 0.067058563 -0.36826801 0
0.14568233 0.12552357 -0.36773539 0
0.2422781 0.164114 -0.36755228 0
0.30960083 0.15951157 -0.36780167 0
0.40344143 0.21535015 -0.36447811 0
0.14063454 0.18358707 -0.36833096 0
0.2331152 0.23550129 -0.36728382 0
0.76865482 -0.11693001 -0.34162998 0
0.89697838 -0.12112999 -0.33362865 0
0.54325485 -0.12985992 -0.35228872 0
0.66507053 -0.1213913 -0.34715748 0
0.80414581 -0.043690681 -0.34138918 0
0.81467724 -0.036718369 -0.33957529 0
0.97132111 0.012593269 -0.33140278 0
0.34619904 -0.095890045 -0.35872412 0
0.45901871 -0.085395813 -0.35654163 0
0.57366657 -0.069020271 -0.35245848 0
0.61646557 0.0089578629 -0.35172176 0
0.72663784 -0.0015878677 -0.34564495 0
0.84865761 0.034428596 -0.33915281 0
0.89057922 0.12205029 -0.3382411 0
0.26537609 -0.053692818 -0.36009455 0
0.33363914 -0.0089817047 -0.35911608 0
0.40484238 0.049978256 -0.35769892 0
0.50555801 0.0096902847 -0.35552168 0
0.54431057 0.10725117 -0.35549545 0
0.68100834 0.1477232 -0.3516531 0
0.79540825 0.15192795 -0.34477139 0
0.82814312 0.22568512 -0.34359503 0
0.94019222 0.22938824 -0.33693647 0
0.0043478012 -0.013998032 -0.36391973 0
0.095864296 0.012506485 -0.3608284 0
0.20041847 0.038207054 -0.36010361 0
0.31295586 0.063312531 -0.35953808 0
0.37792492 0.11198139 -0.35774183 0
0.45191956 0.18237495 -0.35716963 0
0.57817841 0.19800186 -0.35432911 0
0.70648384 0.21037865 -0.35082436 0
0.724473 0.26372814 -0.34993315 0
0.85406017 0.29033947 -0.34349203 0
0.92541027 0.3272934 -0.3396244 0
0.013466835 0.038422585 -0.36203337 0
0.053890228 0.091151237 -0.36014891 0
0.13206863 0.13089085 -0.36029911 0
0.25784874 0.2066412 -0.36065292 0
0.36149979 0.21969032 -0.35836697 0
0.46308041 0.22253609 -0.35589361 0
0.61873913 0.31985188 -0.35319567 0
0.74892807 0.34172344 -0.34874678 0
0.7633419 0.39876938 -0.34679127 0
0.90922546 0.44056034 -0.34237337 0
0.038378716 0.1580267 -0.36002445 0
0.12814236 0.23314953 -0.36082649 0
0.22114944 0.26935387 -0.36028099 0
0.29060459 0.33378315 -0.36032486 0
0.40305328 0.36822414 -0.35836744 0
0.50280285 0.36148834 -0.35534048 0
0.64908504 0.42549324 -0.35234642 0
0.78804874 0.48827744 -0.34607315 0
0.072804451 0.30714226 -0.36049986 0
0.18822002 0.36745644 -0.3602829 0
0.30028629 0.38936329 -0.35978413 0
0.42247963 0.47325516 -0.35733318 0
0.53463268 0.4922924 -0.35481358 0
0.076164246 0.38991165 -0.35867023 0
0.084897995 0.46974564 -0.35797071 0
0.19410229 0.45070362 -0.35915422 0
0.81731415 -0.44700527 -0.33321238 0
0.92640209 -0.4685545 -0.32295132 0
0.99965 -0.37121391 -0.32079983 0
0.55380058 -0.46183968 -0.34556961 0
0.69708061 -0.43542385 -0.34035206 0
0.76002598 -0.3450098 -0.33816004 0
0.87808418 -0.36719513 -0.33044434 0
0.92627525 -0.30000877 -0.32834911 0
0.19915676 -0.49281693 -0.36677742 0
0.28496838 -0.46907425 -0.36072826 0
0.36313152 -0.43937778 -0.35601282 0
0.4777813 -0.4272356 -0.34958982 0
0.57603168 -0.37176418 -0.3465519 0
0.64457035 -0.33476067 -0.34386873 0
0.81556416 -0.26152611 -0.33591175 0
0.97689629 -0.20328331 -0.32817221 0
-0.037426949 -0.49742317 -0.37946177 0
0.05988884 -0.44389057 -0.37517834 0
0.16095066 -0.41812706 -0.3697896 0
0.24712181 -0.37966537 -0.36357498 0
0.3312645 -0.32692528 -0.35859585 0
0.43335152 -0.32335567 -0.35325432 0
0.53115273 -0.28050232 -0.34982157 0
0.60599995 -0.22324085 -0.34764433 0
0.71417141 -0.21253586 -0.34327936 0
-0.083109856 -0.38127136 -0.37846851 0
0.031405449 -0.35194206 -0.37554789 0
0.1129303 -0.31820869 -0.37048006 0
0.2023983 -0.29892159 -0.36706114 0
0.27758789 -0.25241375 -0.36202002 0
0.38768291 -0.22055531 -0.35704851 0
0.50488567 -0.21038628 -0.35165119 0
-0.073172569 -0.303895 -0.37465763 0
-0.0020341873 -0.27463722 -0.37240982 0
0.074913979 -0.22847271 -0.36883211 0
0.17126846 -0.18947601 -0.36479902 0
0.25628376 -0.14836979 -0.36058903 0
0.32203388 -0.14780331 -0.35968971 0
-0.031728745 -0.17866516 -0.37146997 0
0.033080101 -0.13478184 -0.36685419 0
0.15152454 -0.10633183 -0.36204433 0
-0.0033054352 -0.060986519 -0.36638689 0
0.077135086 -0.066019058 -0.36313677 0
0.61203003 0.48955631 -0.35666227 0
0.96631622 -0.26882553 -0.33132648 0
0.66615868 -0.28377819 -0.34836864 0
0.81266975 -0.27382088 -0.34057713 0
0.84294319 -0.23921108 -0.33850718 0
0.5366869 -0.2553606 -0.35423183 0
0.70142555 -0.23148918 -0.34743595 0
0.75104904 -0.14370346 -0.34619856 0
0.87981224 -0.17212582 -0.33799648 0
0.93734837 -0.076029778 -0.3362546 0
0.32891273 -0.211133 -0.36395884 0
0.44733334 -0.20989513 -0.35889053 0
0.48759365 -0.1445303 -0.35824394 0
0.60668564 -0.14226437 -0.35343122 0
0.80953407 -0.046427727 -0.34377718 0
0.10114193 -0.21986103 -0.37116432 0
0.2290678 -0.16753864 -0.36589336 0
0.35629082 -0.16654396 -0.36244202 0
0.37940025 -0.1193409 -0.36200047 0
0.50851059 -0.11434555 -0.35753202 0
0.55661774 -0.022706985 -0.35741663 0
0.68937302 0.0090417862 -0.35285616 0
0.87912178 0.090254784 -0.34243441 0
-0.067511559 -0.17519283 -0.37502384 0
-0.014442444 -0.14618206 -0.37207842 0
0.11853504 -0.16398621 -0.36873674 0
0.1393528 -0.09786129 -0.36745834 0
0.27642441 -0.059212685 -0.3639617 0
0.43953991 0.016303062 -0.36159229 0
0.59212971 0.039637566 -0.35667944 0
0.62353706 0.10847759 -0.35664082 0
0.75733376 0.1504488 -0.35202074 0
0.77621651 0.18450832 -0.35065699 0
0.92984676 0.1918211 -0.34122753 0
0.96286964 0.26039696 -0.34047174 0
-0.13303757 -0.07811451 -0.37445116 0
-0.035513878 -0.04477787 -0.36984587 0
0.055427551 -0.052742958 -0.36738873 0
0.16395092 -0.017658234 -0.36467695 0
0.19798088 0.065670013 -0.36397791 0
0.33270454 0.067070961 -0.36342621 0
0.47655392 0.098308563 -0.3600297 0
0.4990778 0.15277672 -0.35854578 0
0.64989567 0.16847038 -0.35586882 0
0.68423748 0.25875854 -0.3561492 0
0.81039906 0.25847054 -0.34950924 0
-0.16147614 -0.018580437 -0.37159252 0
-0.110816 0.053408623 -0.36859846 0
-0.020591736 0.046383858 -0.36582661 0
0.099461555 0.10369587 -0.36420536 0
0.21589088 0.11197758 -0.36335707 0
0.24410248 0.19112968 -0.36353445 0
0.38218117 0.20429897 -0.361763 0
0.55536175 0.30583763 -0.35941362 0
0.69266891 0.28403568 -0.35391998 0
0.85845757 0.37724876 -0.34769726 0
-0.20542431 0.087568283 -0.36825991 0
-0.10512352 0.11800766 -0.36570406 0
0.0014228821 0.14775181 -0.3637042 0
0.016670227 0.20705509 -0.36351919 0
0.1336832 0.21028233 -0.36381054 0
0.27944183 0.29794884 -0.36410236 0
0.43139553 0.35678005 -0.36113977 0
0.56866264 0.34786034 -0.35777378 0
0.58843517 0.41351986 -0.356637 0
0.7400074 0.42715168 -0.35280991 0
-0.16472721 0.19690228 -0.36386919 0
-0.093867302 0.23475361 -0.36208248 0
0.03901577 0.3024559 -0.36339903 0
0.16757774 0.31985378 -0.36468887 0
0.17448139 0.37103462 -0.36351347 0
0.29969597 0.38013458 -0.3632431 0
0.44746017 0.42102146 -0.36018085 0
-0.19438171 0.29730129 -0.36143589 0
-0.087341309 0.31509304 -0.36036158 0
0.044646263 0.36269569 -0.36204672 0
0.053772926 0.43908024 -0.36106634 0
0.19191265 0.46229076 -0.36306667 0
0.32816124 0.49058247 -0.36343622 0
-0.1940012 0.39482307 -0.35917473 0
-0.1361208 0.43294144 -0.35851717 0
-0.078601837 0.4570694 -0.35789633 0
0.8151598 -0.46162605 -0.3382287 0
0.95452785 -0.45761395 -0.32580948 0
0.53030682 -0.46440029 -0.35188627 0
0.66136932 -0.4912653 -0.34505844 0
0.72762299 -0.39510345 -0.34397125 0
0.86446667 -0.4083147 -0.33538294 0
0.93103218 -0.31156826 -0.33322906 0
0.29344845 -0.47679424 -0.36401749 0
0.42586708 -0.42797089 -0.35670042 0
0.60504341 -0.37340832 -0.34914017 0
0.78418446 -0.31062698 -0.34208107 0
-0.096499443 -0.49403095 -0.3849268 0
6.5803528e-05 -0.48095322 -0.38291264 0
0.11738873 -0.44126415 -0.37741804 0
0.17783451 -0.41939354 -0.37245417 0
0.30230331 -0.36323452 -0.36506987 0
0.39241695 -0.29736614 -0.36017179 0
0.48304081 -0.3428936 -0.35459518 0
-0.30918598 -0.48480797 -0.38922739 0
-0.20115185 -0.460186 -0.38550997 0
-0.10564137 -0.41103649 -0.38250875 0
-0.016703606 -0.38247299 -0.37970829 0
0.052735329 -0.35640335 -0.37654543 0
0.17886639 -0.3089838 -0.37154055 0
0.24090576 -0.28457737 -0.36650705 0
-0.31831264 -0.39330769 -0.3859973 0
-0.24875641 -0.35336876 -0.3832655 0
-0.15005684 -0.32835102 -0.38163948 0
-0.042778015 -0.28849888 -0.37758827 0
0.0050792694 -0.23532391 -0.37387848 0
0.0882864 -0.25994778 -0.3746109 0
-0.28321934 -0.27626228 -0.37952042 0
-0.18345451 -0.24961376 -0.37903214 0
-0.11063385 -0.21418285 -0.37717247 0
-0.22454357 -0.13359165 -0.37560272 0
0.7058115 0.28486156 -0.34686089 0
0.89225483 0.31156635 -0.33727551 0
0.73277283 0.35515499 -0.34583235 0
0.92782974 0.38666248 -0.33637476 0
0.97096062 0.48568058 -0.33497715 0
0.59346294 0.3868227 -0.35005331 0
0.75918198 0.42730045 -0.34459925 0
0.77964401 0.48626518 -0.34335661 0
0.28317642 0.40855885 -0.35717058 0
0.45452785 0.46869755 -0.35309935 0
0.62674427 0.4799614 -0.34917021 0
0.29868889 0.47403145 -0.35613871 0
0.92026711 -0.4204073 -0.32201576 0
0.74583626 -0.44345379 -0.33443308 0
0.78715706 -0.39750576 -0.33223343 0
0.83959484 -0.31164265 -0.33138895 0
0.43936253 -0.4186964 -0.3499136 0
0.48168182 -0.37138176 -0.34716749 0
0.62982273 -0.38046646 -0.34107351 0
0.68588352 -0.31676865 -0.33938646 0
0.74027157 -0.24808979 -0.33690691 0
0.89212513 -0.25257015 -0.32837963 0
0.95308781 -0.17453194 -0.32542515 0
0.10691833 -0.39953136 -0.36988115 0
0.22303486 -0.39657688 -0.36042833 0
0.25698948 -0.32514572 -0.35953426 0
0.36240196 -0.32972717 -0.35307074 0
0.56036472 -0.26063633 -0.34563017 0
0.79298878 -0.14759827 -0.33674192 0
-9.059906e-05 -0.37484646 -0.37089872 0
0.012371063 -0.3391552 -0.37209225 0
0.13156509 -0.34319878 -0.36663389 0
0.29714584 -0.24600697 -0.35719633 0
0.42773247 -0.23244762 -0.35103273 0
0.63442898 -0.15526867 -0.34438658 0
0.69374466 -0.063982964 -0.34308243 0
0.83006382 -0.096096992 -0.3349061 0
0.88285446 -0.014326096 -0.33278704 0
-0.082777977 -0.28051758 -0.3708334 0
0.041337013 -0.26508713 -0.36768627 0
0.062583923 -0.20524216 -0.36601257 0
0.18497181 -0.20312691 -0.36032772 0
0.33303547 -0.18325996 -0.35552406 0
0.36676216 -0.11804295 -0.35509014 0
0.4958992 -0.10505199 -0.35154343 0
0.53887558 -0.042037964 -0.35047436 0
0.74499226 0.030023575 -0.3418088 0
0.94801331 0.086275101 -0.32975626 0
-0.27607632 -0.24789715 -0.37311363 0
-0.20356846 -0.23090744 -0.37073898 0
-0.053472519 -0.1958952 -0.36759329 0
0.084728241 -0.1328001 -0.36178637 0
0.25113773 -0.046456337 -0.35665321 0
0.40391827 -0.040589333 -0.35496378 0
0.42664051 -0.0080299377 -0.35285568 0
0.58884907 0.037952423 -0.34951401 0
0.61514282 0.083029747 -0.34911346 0
0.8110981 0.15034962 -0.33954906 0
0.85569668 0.23249245 -0.33766985 0
-0.44161034 -0.17831707 -0.37476015 0
-0.35417652 -0.17392254 -0.37051535 0
-0.24403 -0.12821293 -0.36763239 0
-0.13606453 -0.12262249 -0.36710024 0
-0.074054718 -0.081412315 -0.36387825 0
-0.00021743774 -0.011277199 -0.36226082 0
0.12321377 -0.0063915253 -0.3576026 0
0.30887604 0.071332932 -0.35663557 0
0.48955059 0.13068485 -0.35200739 0
0.67040157 0.19999123 -0.3485465 0
-0.44431114 -0.1387558 -0.36992359 0
-0.38410759 -0.095096588 -0.36884928 0
-0.32152653 -0.038707733 -0.36709833 0
-0.21336842 0.0060043335 -0.36351013 0
-0.10960579 -0.00019454956 -0.36123133 0
0.011555672 0.060821533 -0.35791874 0
0.029713631 0.12140369 -0.35670948 0
0.17929363 0.12690639 -0.35703802 0
0.36319542 0.20227909 -0.35528564 0
0.54414368 0.26016331 -0.35112762 0
-0.42504501 -0.023424149 -0.36608315 0
-0.31481361 0.022956848 -0.36399651 0
-0.19822598 0.091285706 -0.36097336 0
-0.14100742 0.11659908 -0.35911894 0
-0.075247765 0.16214848 -0.35756445 0
0.062213898 0.2143631 -0.35698652 0
0.22904873 0.25289249 -0.35620117 0
0.40608788 0.32071495 -0.35331249 0
-0.40792656 0.10264778 -0.36277437 0
-0.29388714 0.14853764 -0.36127138 0
-0.18738651 0.1981163 -0.35706758 0
-0.05446434 0.26293278 -0.35597229 0
0.098888397 0.3292532 -0.35730314 0
-0.40658855 0.21114063 -0.35872746 0
-0.29244137 0.25492096 -0.35691071 0
-0.17450809 0.26435566 -0.35642815 0
-0.16835785 0.35068417 -0.35415316 0
-0.041808128 0.3683672 -0.35347271 0
0.12164497 0.43468761 -0.35623646 0
-0.40962791 0.33108711 -0.35496092 0
-0.34648228 0.36734581 -0.35425138 0
-0.28505707 0.39833832 -0.35364723 0
-0.1728487 0.40976048 -0.35169125 0
-0.027942657 0.49498558 -0.35148335 0
-0.40934563 0.4509306 -0.35251665 0
-0.29397106 0.48788548 -0.35074711 0
0.85138988 -0.48922634 -0.325387 0
0.57679653 -0.45926762 -0.34131384 0
0.28978252 -0.45217609 -0.35644245 0
-0.028557777 -0.44035625 -0.37517071 0
0.072520256 -0.46401215 -0.37237263 0
0.18949509 -0.45244217 -0.36307621 0
-0.35439587 -0.47984409 -0.38196898 0
-0.25112057 -0.45268631 -0.37947702 0
-0.13886642 -0.41447163 -0.37635231 0
-0.50620174 -0.47595882 -0.39154339 0
-0.42568302 -0.44185162 -0.38383341 0
-0.37334633 -0.40592194 -0.37922382 0
-0.28034496 -0.35871696 -0.37661743 0
-0.20156193 -0.3216238 -0.37326956 0
-0.10859203 -0.34835815 -0.37168932 0
-0.47659779 -0.35610676 -0.3839159 0
-0.38366985 -0.29239845 -0.37617588 0
-0.30416489 -0.32718849 -0.37313271 0
-0.45149612 -0.23905373 -0.37784147 0
-0.36668968 -0.22382641 -0.37262964 0
-0.45078087 -0.17147255 -0.37119818 0
0.77897167 0.38123131 -0.34223127 0
0.60949135 0.44096851 -0.347754 0
0.80627441 0.44577026 -0.3407712 0
0.42396069 0.48991966 -0.35291576 0
0.9090786 -0.30473614 -0.32432604 0
0.74097729 -0.2514658 -0.33629704 0
0.96610641 -0.2096529 -0.32361317 0
0.40149117 -0.26319218 -0.35089779 0
0.53667927 -0.30397224 -0.34488344 0
0.60078144 -0.21979141 -0.34375811 0
0.81242275 -0.14297009 -0.33423281 0
0.85246754 -0.088767052 -0.33243608 0
0.27081871 -0.2219305 -0.35907698 0
0.45807934 -0.18387032 -0.34992504 0
0.69453335 -0.084134102 -0.34200954 0
0.74129486 -0.022531509 -0.33926487 0
0.88584709 -0.055306435 -0.32989788 0
0.93703461 0.032142639 -0.3288722 0
0.0008687973 -0.20495129 -0.3656702 0
0.11882973 -0.21597481 -0.36345148 0
0.1360445 -0.1698904 -0.36099339 0
0.30171204 -0.17246342 -0.3555913 0
0.33649063 -0.11076069 -0.35500526 0
0.51720047 -0.10385418 -0.34857702 0
0.58979607 0.022269249 -0.34854221 0
0.79116726 0.064370155 -0.33801603 0
-0.11599541 -0.16465569 -0.36771727 0
0.033443451 -0.10954762 -0.36347485 0
0.16037369 -0.099293709 -0.35730839 0
0.19882488 -0.023854256 -0.3559947 0
0.3689146 -0.055307388 -0.3541131 0
0.42079926 0.058127403 -0.35476637 0
0.63550472 0.080574036 -0.3469286 0
0.67015553 0.14034653 -0.34568119 0
0.82761383 0.12877846 -0.3370862 0
0.87824345 0.21449852 -0.33522558 0
-0.22518444 -0.094682693 -0.36634731 0
-0.089183807 -0.079235077 -0.36411524 0
0.047012329 -0.059918404 -0.35952044 0
0.065143585 0.0020904541 -0.35753679 0
0.23074436 0.032653809 -0.35589552 0
0.25883102 0.081223488 -0.35554695 0
0.46711445 0.14275074 -0.35325003 0
0.50517273 0.21364784 -0.3516531 0
0.71621132 0.23949718 -0.34503794 0
0.93898296 0.33028984 -0.33395433 0
-0.3448143 -0.063637733 -0.36574173 0
-0.20899677 -0.023779869 -0.3626976 0
-0.070649147 -0.0033788681 -0.36007357 0
-0.052977562 0.077939987 -0.35698223 0
0.097016335 0.079457283 -0.35641956 0
0.1268568 0.13638401 -0.35563183 0
0.29575348 0.16258621 -0.3557744 0
0.32114887 0.22244167 -0.35542822 0
0.54181862 0.28704834 -0.34998846 0
0.748209 0.31080723 -0.34372759 0
-0.52975178 -0.0046319962 -0.36881208 0
-0.4308691 0.0085945129 -0.36592102 0
-0.31361485 0.052396774 -0.36443567 0
-0.30681419 0.10356331 -0.36213732 0
-0.17396927 0.10149097 -0.36147499 0
-0.022870064 0.16863728 -0.35618591 0
0.15589237 0.20266342 -0.35567951 0
0.18464851 0.2727108 -0.35595036 0
0.34894848 0.2893858 -0.35468721 0
0.36720467 0.33428574 -0.35353231 0
0.5900259 0.396842 -0.34896803 0
-0.70588875 0.029744148 -0.37280798 0
-0.58256245 0.040581703 -0.36566591 0
-0.52107906 0.1110487 -0.36377621 0
-0.41685104 0.12806988 -0.36127329 0
-0.30283165 0.17230701 -0.35850477 0
-0.16383457 0.17574215 -0.35789156 0
-0.14669228 0.26611042 -0.35588646 0
0.015719414 0.27380753 -0.35642147 0
0.02774334 0.32459354 -0.35488939 0
0.2168169 0.35445213 -0.35624218 0
0.23272038 0.39602852 -0.35595989 0
0.40455246 0.43493176 -0.35413647 0
-0.72422218 0.14827347 -0.36440182 0
-0.61998367 0.14857197 -0.36385918 0
-0.51301098 0.1997776 -0.36131716 0
-0.40351582 0.22858906 -0.35897255 0
-0.29943085 0.23028946 -0.35605145 0
-0.28740501 0.3210144 -0.35423326 0
-0.1425972 0.3168869 -0.35360479 0
0.047310829 0.41356182 -0.35348177 0
0.25532532 0.45925045 -0.35582733 0
-0.71996975 0.21745777 -0.36305523 0
-0.61197186 0.26611137 -0.3611927 0
-0.51516438 0.27703476 -0.35822392 0
-0.40419388 0.28667164 -0.35647202 0
-0.39544201 0.37304497 -0.35494089 0
-0.26070976 0.44782829 -0.35390997 0
-0.13104343 0.39485073 -0.35193586 0
-0.11334515 0.49768639 -0.35086393 0
-0.73231983 0.30957985 -0.35894394 0
-0.6185379 0.31077099 -0.35908461 0
-0.62627029 0.36538887 -0.35684538 0
-0.51556587 0.38708591 -0.35516882 0
-0.39687634 0.4641304 -0.35218 0
-0.27822685 0.46563053 -0.35075569 0
-0.76859188 0.39661312 -0.35180044 0
-0.75865555 0.42918587 -0.35226488 0
-0.65491581 0.45055485 -0.3508749 0
-0.53785896 0.49922943 -0.34979391 0
-0.80955219 0.49520588 -0.34468031 0
0.5952177 -0.43933392 -0.34016848 0
0.79740906 -0.41435432 -0.3309741 0
0.86047935 -0.36320114 -0.32651091 0
0.13133526 -0.48182678 -0.36622858 0
0.27788353 -0.45578957 -0.35620832 0
0.46251106 -0.41152382 -0.34602928 0
0.66077232 -0.37302399 -0.33811522 0
-0.0055398941 -0.49287224 -0.37717199 0
0.020688057 -0.44797611 -0.37308168 0
0.16625786 -0.4187088 -0.36457682 0
0.20380306 -0.35834122 -0.36152506 0
0.343997 -0.35555077 -0.35243607 0
-0.24362755 -0.48476028 -0.38159084 0
-0.17713928 -0.42765236 -0.37659645 0
-0.070145607 -0.38895416 -0.37285233 0
0.060144424 -0.3581953 -0.37014914 0
0.078748703 -0.31800842 -0.36646414 0
-0.57793522 -0.4791441 -0.3972435 0
-0.48604488 -0.46507454 -0.38835764 0
-0.40026855 -0.4125948 -0.38211107 0
-0.31784821 -0.3785696 -0.3774128 0
-0.17941284 -0.32885933 -0.37438488 0
-0.1628933 -0.28886223 -0.37314415 0
-0.028089523 -0.28477192 -0.36884642 0
-0.69897079 -0.43933582 -0.40402699 0
-0.60677624 -0.36832523 -0.39338017 0
-0.51015091 -0.35611725 -0.38751936 0
-0.42185116 -0.30173111 -0.37689066 0
-0.28919792 -0.29393578 -0.37348747 0
-0.25787735 -0.20618916 -0.37139273 0
-0.1448698 -0.24433231 -0.36995554 0
-0.71500683 -0.31347084 -0.39568138 0
-0.63197803 -0.2821064 -0.38997173 0
-0.55159473 -0.26009464 -0.38417912 0
-0.47333717 -0.23007298 -0.37580967 0
-0.37036896 -0.17383957 -0.37063837 0
-0.24813366 -0.17554092 -0.36983061 0
-0.67352581 -0.21528912 -0.38493443 0
-0.60319138 -0.1962719 -0.38121891 0
-0.5147543 -0.12420845 -0.37305212 0
-0.40106678 -0.10134983 -0.36907244 0
-0.7018013 -0.098797798 -0.38145876 0
-0.62130928 -0.066384315 -0.37507915 0
-0.53770542 -0.026164055 -0.36840248 0
-0.66907024 0.014501572 -0.37066698 0
-0.7303791 0.05271244 -0.36688757 0
-0.73541451 0.079311371 -0.36492682 0
0.9339323 0.34694195 -0.34407854 0
0.98269463 0.43322945 -0.34275007 0
0.5734396 0.44792652 -0.35882425 0
0.78031254 0.42435646 -0.35172319 0
0.91703129 -0.29266644 -0.33515215 0
0.65489006 -0.35820198 -0.34827852 0
0.73705482 -0.26621723 -0.34547949 0
0.99083042 -0.22160339 -0.33089447 0
0.31478024 -0.31344318 -0.36533022 0
0.50818157 -0.28088093 -0.35534859 0
0.58023739 -0.20593262 -0.3531456 0
0.81479168 -0.16256714 -0.34256029 0
0.85715199 -0.11556816 -0.34015703 0
0.17063332 -0.31338882 -0.37393618 0
0.36759472 -0.23235703 -0.36276007 0
0.42105007 -0.17966366 -0.36009645 0
0.663517 -0.088820457 -0.35206795 0
0.91757584 -0.032209396 -0.33785725 0
0.97118187 0.05106163 -0.3364439 0
0.033437729 -0.24734402 -0.37393284 0
0.21209812 -0.2222662 -0.37004232 0
0.22319603 -0.20280457 -0.36636877 0
0.47660828 -0.086817741 -0.36016512 0
0.52595329 -0.023326874 -0.35896492 0
0.7311039 0.0046043396 -0.34963608 0
-0.12567329 -0.22856236 -0.37759018 0
-0.099852562 -0.16314697 -0.37605572 0
0.061807632 -0.17510891 -0.36991405 0
0.081977844 -0.11951351 -0.36738396 0
0.26681805 -0.096971512 -0.36499023 0
0.29452991 -0.080950737 -0.36378336 0
0.34296894 0.01072979 -0.36398888 0
0.58933067 0.063552856 -0.35760546 0
0.78936291 0.10839653 -0.34872913 0
0.85711098 0.20959377 -0.34574175 0
-0.22396278 -0.12391567 -0.37622929 0
-0.07907486 -0.10851574 -0.37402773 0
-0.057794571 -0.049110413 -0.37231588 0
0.10875797 -0.042859077 -0.36544037 0
0.13337517 0.012481689 -0.36428404 0
0.38490963 0.081345558 -0.36283541 0
0.40903282 0.11618137 -0.36147404 0
0.66594982 0.19056988 -0.35648584 0
0.71118069 0.28728771 -0.35565424 0
-0.34301949 -0.048283577 -0.3753047 0
-0.20039272 -0.050842285 -0.3734479 0
-0.17354584 0.033315659 -0.37217188 0
-0.033102989 0.032130241 -0.36925268 0
-0.015768051 0.10240841 -0.36561012 0
0.1752882 0.085014343 -0.3643384 0
0.20976353 0.14314651 -0.36412096 0
0.46059513 0.21809673 -0.36093235 0
0.49939156 0.29767323 -0.36057854 0
0.72736454 0.30335999 -0.35235786 0
-0.46311378 0.012850761 -0.3744669 0
-0.32390881 0.046528816 -0.37027788 0
-0.31210613 0.059625626 -0.37341928 0
-0.15355492 0.11645317 -0.36839914 0
0.0032749176 0.14972973 -0.36425734 0
0.042524338 0.23849869 -0.36487532 0
0.25170612 0.22423935 -0.36441851 0
0.27816963 0.26691151 -0.36378574 0
0.52729607 0.34424496 -0.35880852 0
-0.83317661 -0.026872635 -0.3950367 0
-0.74994373 -0.01158905 -0.3898921 0
-0.67810726 0.043189049 -0.37907648 0
-0.58672142 0.049911499 -0.37451601 0
-0.45407391 0.069754601 -0.37202549 0
-0.44799328 0.11522675 -0.37017822 0
-0.2975502 0.16341496 -0.36766434 0
-0.12633228 0.24234104 -0.36371231 0
0.079500198 0.32051373 -0.36431742 0
0.33361912 0.39588547 -0.36348104 0
-0.92446232 0.01362896 -0.39544725 0
-0.80459785 0.076627731 -0.38273478 0
-0.6890831 0.10373497 -0.37369299 0
-0.56996727 0.17158794 -0.3710556 0
-0.42592144 0.22198582 -0.36861753 0
-0.27433205 0.29138184 -0.3643074 0
-0.10786629 0.32248211 -0.36146736 0
-0.094583511 0.37780285 -0.36052561 0
0.11952496 0.43832111 -0.36262321 0
-0.95044899 0.12456894 -0.38622189 0
-0.86688423 0.14853954 -0.38049555 0
-0.79486084 0.19953632 -0.37163258 0
-0.67662716 0.22753525 -0.3707881 0
-0.5661211 0.27604866 -0.36722088 0
-0.42192078 0.30484962 -0.36511564 0
-0.42208385 0.36660099 -0.36242962 0
-0.25974083 0.39973068 -0.36139441 0
-0.081693649 0.44247627 -0.35904408 0
-0.97842979 0.22842693 -0.37826872 0
-0.891716 0.23255348 -0.3735466 0
-0.80776024 0.31408882 -0.36591625 0
-0.67784119 0.34673595 -0.36668444 0
-0.56262112 0.3731823 -0.36440372 0
-0.55990028 0.42843819 -0.36320591 0
-0.41626263 0.43012619 -0.36105871 0
-0.91910362 0.3490591 -0.36638117 0
-0.82937717 0.37425804 -0.36141109 0
-0.70224953 0.41354084 -0.36109829 0
-0.58388996 0.47190189 -0.35847759 0
-0.94077682 0.45064259 -0.36160278 0
-0.84006977 0.47875881 -0.35769033 0
0.78383827 -0.46767807 -0.33931398 0
0.5856657 -0.44042301 -0.34941769 0
0.22572041 -0.47311783 -0.36881399 0
0.36783695 -0.46942139 -0.36000109 0
0.42058945 -0.41346836 -0.35670614 0
0.10814095 -0.43206215 -0.37777376 0
0.26535797 -0.41115761 -0.36633396 0
-0.21517658 -0.43345356 -0.38518429 0
-0.047374725 -0.41963959 -0.38426638 0
-0.0086698532 -0.34628677 -0.37905836 0
-0.60545826 -0.47025108 -0.40815449 0
-0.48518276 -0.45887947 -0.39777231 0
-0.43434906 -0.38817501 -0.39234638 0
-0.31281471 -0.36530495 -0.38426495 0
-0.15302277 -0.2904253 -0.38062525 0
-0.90564728 -0.49629402 -0.42872334 0
-0.81241035 -0.47389793 -0.42229795 0
-0.7267313 -0.41864777 -0.41306353 0
-0.61633778 -0.39178562 -0.40498829 0
-0.5180645 -0.35381889 -0.39645195 0
-0.41924381 -0.32514477 -0.38796425 0
-0.29741573 -0.32458878 -0.38514853 0
-0.26085281 -0.22662449 -0.37955141 0
-0.92839336 -0.38587475 -0.42289734 0
-0.8500042 -0.37939835 -0.41853905 0
-0.77265644 -0.35325146 -0.41109467 0
-0.69221783 -0.32262802 -0.40309334 0
-0.60111141 -0.28212929 -0.39739799 0
-0.49012566 -0.21298885 -0.38854647 0
-0.38834381 -0.20016766 -0.38006687 0
-0.93462086 -0.34816074 -0.4168582 0
-0.90617847 -0.29466248 -0.41163683 0
-0.79972458 -0.24606609 -0.40661144 0
-0.68142986 -0.21340942 -0.39597321 0
-0.59578419 -0.16521358 -0.38791847 0
-0.49358463 -0.12055874 -0.37832165 0
-0.92313576 -0.2199564 -0.40960836 0
-0.84271049 -0.18987846 -0.40334988 0
-0.75907326 -0.13299942 -0.39573908 0
-0.67413712 -0.095897675 -0.38878918 0
-0.59393215 -0.059649467 -0.38026524 0
-0.92669392 -0.11380863 -0.40174627 0
-0.8411026 -0.074384689 -0.3961935 0
-0.76996136 -0.017699242 -0.38584042 0
-0.67946434 -0.029395103 -0.38298368 0
-0.90568161 0.003443718 -0.39279461 0
0.740798 0.34097576 -0.35238314 0
0.77423 0.39321613 -0.34968758 0
0.54164982 0.38546753 -0.35661936 0
0.34102631 0.45537186 -0.36065435 0
0.59135342 0.4870615 -0.35656548 0
0.96800041 -0.32939529 -0.32867432 0
0.68070316 -0.37421799 -0.34443665 0
0.73017502 -0.35465336 -0.34116077 0
0.49184418 -0.30896187 -0.3537693 0
0.55401802 -0.24555016 -0.35200691 0
0.82152939 -0.20089531 -0.34070444 0
0.87143326 -0.15057087 -0.33800316 0
0.93268108 -0.086266518 -0.33476782 0
0.1417551 -0.28952217 -0.37228823 0
0.32083225 -0.2747364 -0.36279535 0
0.35379314 -0.23419666 -0.35972881 0
0.61431408 -0.17143822 -0.35112333 0
0.67482662 -0.11553288 -0.34913683 0
0.73615646 -0.034309387 -0.34775305 0
-0.026185036 -0.26446819 -0.37534761 0
0.17489624 -0.22911358 -0.36717224 0
0.44155121 -0.11187458 -0.35869884 0
0.81411266 0.072524071 -0.34475374 0
-0.18017292 -0.1843729 -0.37449884 0
0.021577835 -0.15786457 -0.37022066 0
0.23495579 -0.10016537 -0.36208725 0
0.30622101 -0.00096321106 -0.36099577 0
0.5213995 -0.0047273636 -0.35720587 0
0.57309818 0.072601318 -0.35638428 0
0.90037251 0.20197392 -0.34210873 0
-0.14054775 -0.087234497 -0.37164593 0
0.073908806 -0.022756577 -0.36340094 0
0.37206554 0.11023903 -0.36141443 0
0.65581799 0.19139004 -0.35439444 0
0.95231628 0.27248764 -0.33976793 0
-0.31311893 -0.053887367 -0.37030315 0
-0.1018877 0.015684128 -0.36715317 0
0.13554955 0.11108017 -0.36175823 0
0.42745113 0.19057369 -0.35938263 0
-0.57142544 -0.0097837448 -0.37674761 0
-0.45188999 -0.044308662 -0.37209129 0
-0.274189 0.072696686 -0.36714125 0
-0.0735569 0.099983215 -0.36388731 0
-0.044929504 0.18606663 -0.36287737 0
0.19454384 0.19591331 -0.36123323 0
0.50029278 0.31440353 -0.35777617 0
-0.78404045 -0.053489685 -0.39131355 0
-0.69536209 0.021115303 -0.37713909 0
-0.5730629 0.055278778 -0.37116289 0
-0.41716099 0.082835197 -0.3691268 0
-0.25042057 0.16383934 -0.36412334 0
-0.018357277 0.25252247 -0.3600688 0
0.2685442 0.32849789 -0.36189127 0
0.30986881 0.40115356 -0.36197329 0
-0.97464943 0.027971268 -0.39273119 0
-0.86931324 0.0028619766 -0.39297581 0
-0.79585171 0.058717728 -0.38228083 0
-0.69313812 0.1042881 -0.37307453 0
-0.56614113 0.12634659 -0.36722279 0
-0.55384254 0.19573689 -0.36567116 0
-0.39912319 0.17742443 -0.3653121 0
-0.38970375 0.24532604 -0.36234951 0
-0.22439098 0.26778984 -0.36182117 0
-0.21447372 0.33317852 -0.35868406 0
0.038731575 0.39182949 -0.35888243 0
-0.90796089 0.11766815 -0.38018703 0
-0.83507729 0.16175652 -0.37726974 0
-0.70059967 0.16836739 -0.36813545 0
-0.53890896 0.30445004 -0.36295128 0
-0.52573109 0.30570507 -0.36563635 0
-0.37578392 0.31702805 -0.36093855 0
-0.19593334 0.40743542 -0.35730362 0
-0.98598099 0.19658089 -0.37914658 0
-0.86707973 0.22007561 -0.37289572 0
-0.82347584 0.28206539 -0.36777449 0
-0.68122005 0.33833981 -0.36460733 0
-0.53226089 0.39056683 -0.36042452 0
-0.35697269 0.40591145 -0.35992956 0
-0.35521317 0.45118332 -0.35788107 0
-0.17235184 0.49200058 -0.35692406 0
-0.94402027 0.34195423 -0.3669157 0
-0.84015274 0.36122417 -0.36277151 0
-0.71199894 0.42913723 -0.35673809 0
-0.54339695 0.48779011 -0.35527706 0
-0.9800415 0.41721916 -0.36017752 0
-0.8714571 0.4801836 -0.35548878 0
0.80766678 -0.48824978 -0.33623314 0
0.85207176 -0.47187519 -0.3323493 0
0.60257626 -0.46366501 -0.34579325 0
0.3770628 -0.46883297 -0.35726118 0
0.42867851 -0.40501881 -0.35513878 0
0.057237625 -0.45817757 -0.37836123 0
0.25015354 -0.39935207 -0.3654151 0
-0.30242825 -0.46539497 -0.38681984 0
-0.10628319 -0.41624069 -0.38036489 0
0.10103798 -0.38083649 -0.37362671 0
-0.58425713 -0.49597836 -0.40651989 0
-0.52993488 -0.47320175 -0.4011097 0
