# .PCD v0.7 - Point Cloud Data file format
VERSION 0.7
FIELDS x y z intensity
SIZE 4 4 4 4
TYPE F F F F
COUNT 1 1 1 1
WIDTH 1291
HEIGHT 1
VIEWPOINT 0 0 0 1 0 0 0
POINTS 1291
DATA ascii
-0.40508863 -0.028632045 -0.36193779 0
-0.32833859 -0.026401043 -0.36085787 0
-0.22553727 -0.029846907 -0.36387575 0
-0.11102846 -0.031844497 -0.36824909 0
-0.057996303 -0.058399558 -0.3617819 0
0.058192015 -0.048832774 -0.36372012 0
0.1777027 -0.010007858 -0.36558297 0
0.26216304 -0.058017731 -0.36291313 0
0.32063442 0.0074359179 -0.36351782 0
0.43177092 -0.020109653 -0.36287686 0
0.52932882 -0.031505823 -0.35821831 0
0.64940095 -0.041241288 -0.35894969 0
0.77610987 -0.057856441 -0.35452902 0
0.93647933 -0.063970566 -0.35511002 0
-0.42807642 0.073195219 -0.35670778 0
-0.3317841 0.075987816 -0.35999912 0
-0.22029138 0.065289617 -0.36260933 0
-0.10641456 0.066253424 -0.36891127 0
-0.025895357 0.058456421 -0.36848786 0
0.023168892 0.06043756 -0.36065385 0
0.17323586 0.071275711 -0.3645539 0
0.3171877 0.050080776 -0.36275777 0
0.32775784 0.099393368 -0.36521417 0
0.43522736 0.076566815 -0.36354646 0
0.55450743 0.060300112 -0.36360154 0
0.63017303 0.052371264 -0.35439223 0
0.79009086 0.065549254 -0.35745457 0
0.82279015 0.031711936 -0.36466718 0
0.9514094 0.065454364 -0.35838068 0
-0.40964109 0.16865253 -0.36146492 0
-0.34488079 0.16515076 -0.36140639 0
-0.23948616 0.15985656 -0.36417517 0
-0.12485462 0.17031705 -0.36546955 0
-0.04536739 0.17148042 -0.36483181 0
0.083756864 0.15072978 -0.3645536 0
0.23014852 0.17436743 -0.36814392 0
0.36484939 0.18192565 -0.36551154 0
0.43220699 0.1454941 -0.36320871 0
0.55393118 0.15950811 -0.36393419 0
0.67201436 0.15259552 -0.36393028 0
0.80058432 0.17760754 -0.36030534 0
0.8309586 0.13640702 -0.36664221 0
0.93231076 0.16438568 -0.35471171 0
-0.4106319 0.25185031 -0.36265698 0
-0.33040348 0.25657618 -0.36049882 0
-0.22821969 0.24871874 -0.36286694 0
-0.14365014 0.25636852 -0.36269036 0
-0.062271088 0.26187074 -0.36251569 0
0.038847089 0.2570945 -0.36584705 0
0.15573257 0.25717187 -0.36433181 0
0.30593154 0.25544 -0.3620331 0
0.41550472 0.2613281 -0.36093098 0
0.51893812 0.24190843 -0.35726282 0
0.52978218 0.30042231 -0.36044356 0
0.65537143 0.2506901 -0.36130843 0
0.77644658 0.24309516 -0.3557933 0
0.94258654 0.26625979 -0.35808301 0
-0.43178073 0.34543276 -0.36065269 0
-0.32800615 0.35806912 -0.36216965 0
-0.23184547 0.36950302 -0.35794955 0
-0.11854076 0.36046743 -0.36446759 0
-0.035891443 0.34340513 -0.36379015 0
0.066801637 0.35977459 -0.36128044 0
0.18534407 0.33632839 -0.36118838 0
0.28644416 0.41116118 -0.36112416 0
0.34988913 0.35344136 -0.36094037 0
0.50349694 0.38991356 -0.35673237 0
0.52505636 0.35337234 -0.36041707 0
0.63845068 0.34530365 -0.35924277 0
0.77075285 0.36160982 -0.35650975 0
0.92411643 0.37682104 -0.35614738 0
-0.48118985 0.46394122 -0.35373724 0
-0.43786287 0.46329463 -0.35731506 0
-0.32711238 0.46281779 -0.36074874 0
-0.23166855 0.46755171 -0.35735038 0
-0.10906959 0.44795418 -0.36610374 0
-0.028817058 0.45453155 -0.36538145 0
0.065851986 0.45064539 -0.36207268 0
0.19252628 0.45806187 -0.36576703 0
0.29020754 0.46856219 -0.36344436 0
0.39060754 0.44974101 -0.35972238 0
0.49120694 0.43487787 -0.35529757 0
0.57054436 0.49041712 -0.35679808 0
0.62671953 0.42318034 -0.35844517 0
0.7523694 0.46269894 -0.35495335 0
0.87949705 0.4718436 -0.34905422 0
-0.78776538 -0.42265153 -0.35068005 0
-0.70061421 -0.41488874 -0.35638034 0
-0.60721636 -0.42717183 -0.35649076 0
-0.49347487 -0.42040288 -0.35545844 0
-0.40516376 -0.44256389 -0.35747021 0
-0.29004341 -0.43825841 -0.36016503 0
-0.18217993 -0.42212236 -0.35794139 0
-0.077598095 -0.439852 -0.3593716 0
0.034245551 -0.4163816 -0.35987151 0
0.14431077 -0.42968178 -0.36046916 0
0.23068589 -0.45141768 -0.35590512 0
0.38952559 -0.43504119 -0.36121693 0
0.55434978 -0.3993119 -0.36499494 0
-0.77042377 -0.32852244 -0.3501955 0
-0.69122124 -0.30683112 -0.35851654 0
-0.5881809 -0.34065199 -0.35701656 0
-0.51079834 -0.31953275 -0.35798934 0
-0.39373118 -0.34431517 -0.35602853 0
-0.32313979 -0.33335257 -0.36008251 0
-0.20158201 -0.31996632 -0.36238781 0
-0.054883957 -0.32733285 -0.36083207 0
0.050175905 -0.34578824 -0.36123917 0
0.064660639 -0.29290807 -0.36313194 0
0.160043 -0.33621216 -0.36110353 0
0.26564628 -0.33758783 -0.36055964 0
-0.74494511 -0.22621107 -0.35243654 0
-0.69745588 -0.22866869 -0.35510775 0
-0.60961378 -0.23556888 -0.3557232 0
-0.51570028 -0.22364593 -0.3588441 0
-0.39484325 -0.24114585 -0.35871369 0
-0.31480393 -0.22009361 -0.35864693 0
-0.19680384 -0.23535872 -0.36270714 0
-0.1014663 -0.20344794 -0.36245739 0
-0.0028569996 -0.2371999 -0.35825989 0
0.082934797 -0.24079573 -0.36610985 0
0.17050889 -0.22477162 -0.36078411 0
0.27839613 -0.24329388 -0.36118859 0
0.40424943 -0.24624932 -0.35940221 0
-0.75236022 -0.14580476 -0.34860244 0
-0.68695074 -0.12113893 -0.35488191 0
-0.59814262 -0.12180722 -0.35553563 0
-0.48066553 -0.12796557 -0.35871214 0
-0.37611327 -0.12176085 -0.36045736 0
-0.30909607 -0.125687 -0.35807982 0
-0.19679156 -0.12779665 -0.3590771 0
-0.1289193 -0.13591456 -0.36264136 0
-0.026978374 -0.13051462 -0.3629317 0
0.078519344 -0.14170742 -0.36320284 0
0.17916569 -0.10865021 -0.36089417 0
0.29212821 -0.11886311 -0.36225766 0
0.4365074 -0.14619374 -0.36509565 0
-0.74406147 0.016647816 -0.34865278 0
-0.70700991 -0.035811782 -0.35184082 0
-0.59017742 -0.050152421 -0.3516809 0
-0.50203753 -0.020855546 -0.35487854 0
-0.37714693 -0.013214946 -0.35900313 0
-0.30108592 -0.02472043 -0.35882992 0
-0.21275902 -0.02836895 -0.36038339 0
-0.083047301 -0.027719259 -0.36062527 0
-0.03652963 -0.070251703 -0.36008343 0
0.081606448 -0.027651906 -0.36276868 0
0.18403155 -0.012800574 -0.36121276 0
0.27915472 -0.015371561 -0.35841474 0
0.41250452 -0.013432026 -0.3583734 0
-0.74926907 0.045154214 -0.34748051 0
-0.68368435 0.085110784 -0.35315531 0
-0.58610028 0.066516161 -0.353376 0
-0.48568341 0.065173745 -0.35687935 0
-0.38058674 0.078098536 -0.358026 0
-0.31158096 0.067986012 -0.35625878 0
-0.1879811 0.081957817 -0.35979334 0
-0.080906093 0.071990967 -0.36449358 0
-0.0046904385 0.077449083 -0.36654496 0
0.067884147 0.080207348 -0.35947347 0
0.20169452 0.095090389 -0.36497658 0
0.30204716 0.079222083 -0.36329389 0
0.41504455 0.067896485 -0.3587518 0
0.59046346 0.064677119 -0.36615723 0
-0.75379419 0.19000614 -0.34768605 0
-0.68089771 0.17038798 -0.35430697 0
-0.59995574 0.17090833 -0.35439879 0
-0.48459792 0.17624688 -0.3577396 0
-0.39394081 0.16728866 -0.35565913 0
-0.31084165 0.16919434 -0.3611398 0
-0.21074241 0.17930114 -0.36113212 0
-0.12105843 0.17916083 -0.36341274 0
-0.0042743385 0.17480004 -0.35944903 0
0.073107719 0.15446997 -0.36088666 0
0.19230604 0.1836679 -0.36333662 0
0.29213211 0.17175484 -0.36156276 0
0.41134325 0.16790962 -0.35838556 0
-0.7432543 0.31441319 -0.35213158 0
-0.69520456 0.26892072 -0.35288367 0
-0.59148312 0.29397136 -0.35293764 0
-0.49854872 0.26570314 -0.35608342 0
-0.37829936 0.25644207 -0.36014992 0
-0.31315291 0.2697863 -0.357853 0
-0.18002257 0.27882493 -0.36052728 0
-0.14149117 0.27993572 -0.36025158 0
-0.0094900429 0.26781571 -0.35937157 0
0.11660966 0.24361289 -0.35936663 0
0.16788146 0.29503143 -0.3593775 0
0.27279368 0.28645599 -0.35861138 0
0.41625118 0.28123748 -0.36050898 0
-0.76362967 0.37434822 -0.34927052 0
-0.68421751 0.3737396 -0.3497639 0
-0.58754641 0.38415313 -0.3520374 0
-0.49808002 0.38249373 -0.35342592 0
-0.40198219 0.36281264 -0.35737541 0
-0.32036901 0.36828643 -0.35841343 0
-0.19714674 0.36363757 -0.3612783 0
-0.093438566 0.39252752 -0.36196825 0
0.028678417 0.37038833 -0.36543244 0
0.12617362 0.37134194 -0.35775161 0
0.26379782 0.35886657 -0.35787979 0
0.40341768 0.35368061 -0.35889795 0
-0.77928936 0.48582691 -0.346935 0
-0.68519104 0.47674948 -0.34785601 0
-0.60906565 0.46852869 -0.34787512 0
-0.4998745 0.48749477 -0.35160249 0
-0.39274365 0.48696589 -0.354224 0
-0.28630841 0.46575975 -0.35648867 0
-0.19150716 0.46749055 -0.3581624 0
-0.087827891 0.46743363 -0.35468343 0
0.010295004 0.4718923 -0.3604129 0
0.097069681 0.45628369 -0.35928288 0
0.26666424 0.45044756 -0.36039463 0
0.40805337 0.47013587 -0.36217576 0
0.51915109 -0.47236764 -0.35880607 0
0.67660433 -0.4186126 -0.35769221 0
0.82556927 -0.42741513 -0.35730565 0
0.37223333 -0.33097422 -0.35387251 0
0.50386637 -0.3560282 -0.35185355 0
0.7096889 -0.31423104 -0.36296254 0
0.85381424 -0.3245579 -0.36158586 0
0.54130155 -0.23039889 -0.35791615 0
0.7131018 -0.22987509 -0.36217105 0
0.83688647 -0.24983954 -0.3563312 0
0.39528877 -0.10323036 -0.3551079 0
0.54664814 -0.1268847 -0.35757315 0
0.6964823 -0.13126194 -0.35705808 0
0.8569802 -0.091181517 -0.35909945 0
0.86867201 -0.14581788 -0.36224875 0
0.54913449 -0.039850354 -0.3573167 0
0.67747271 -0.02409482 -0.35201108 0
0.84694076 -0.038221478 -0.35652047 0
0.54800022 0.11793053 -0.35678837 0
0.67565286 0.057085037 -0.35137922 0
0.84510398 0.053284883 -0.35596043 0
0.56288576 0.1798836 -0.36033389 0
0.70313656 0.15547407 -0.35760349 0
0.82258105 0.16062331 -0.35137993 0
0.5621103 0.2673825 -0.36099935 0
0.6986382 0.26640856 -0.35751718 0
0.82018793 0.24968779 -0.35158339 0
0.97827399 0.24333346 -0.34471753 0
0.51966465 0.35732496 -0.35330269 0
0.67307079 0.37746787 -0.35368311 0
0.82411361 0.34761178 -0.35377279 0
0.51183611 0.47086 -0.35393515 0
0.6663388 0.45222425 -0.35368794 0
0.79505706 0.45343864 -0.34958777 0
0.94648027 0.46873128 -0.34224972 0
-0.99402893 -0.45135021 -0.35280582 0
-0.90535522 -0.45662522 -0.35579613 0
-0.8018831 -0.45754719 -0.35974309 0
-0.71915835 -0.46345592 -0.3554846 0
-0.6059401 -0.47079742 -0.36015558 0
-0.51349044 -0.45123279 -0.35726118 0
-0.41572881 -0.46521652 -0.36271679 0
-0.31970048 -0.47168028 -0.3622767 0
-0.22665638 -0.47499847 -0.35991707 0
-0.10779971 -0.46806848 -0.36257127 0
-0.0029068589 -0.47078729 -0.36255297 0
-0.99301535 -0.36363113 -0.35378429 0
-0.92201978 -0.35493958 -0.35291925 0
-0.82255965 -0.35823917 -0.3563053 0
-0.72907221 -0.3633244 -0.35798988 0
-0.64650333 -0.36254025 -0.35986674 0
-0.51865113 -0.35222542 -0.36413985 0
-0.4015775 -0.36437798 -0.36246979 0
-0.29944995 -0.36273396 -0.36347935 0
-0.203668 -0.36194694 -0.36177173 0
-0.091873467 -0.37639618 -0.36347705 0
0.016666353 -0.32936263 -0.36311847 0
-0.97492403 -0.25354254 -0.35401508 0
-0.90816128 -0.2358278 -0.35510963 0
-0.81819409 -0.25029004 -0.35673621 0
-0.72870088 -0.25588119 -0.35833952 0
-0.63587457 -0.26871789 -0.35950941 0
-0.53648067 -0.26064253 -0.3601594 0
-0.41977414 -0.2493602 -0.36241323 0
-0.28025854 -0.24889922 -0.36515477 0
-0.16819456 -0.25802815 -0.36762911 0
-0.077345431 -0.28022337 -0.36454991 0
0.046045601 -0.24817181 -0.36826712 0
-0.99083078 -0.14621437 -0.34789902 0
-0.90867317 -0.15338385 -0.35318628 0
-0.81126952 -0.15809405 -0.35493889 0
-0.72756708 -0.16304147 -0.3601231 0
-0.62060547 -0.15131545 -0.35637859 0
-0.53434813 -0.14519536 -0.35704941 0
-0.42095536 -0.15633094 -0.36226344 0
-0.28235963 -0.16744018 -0.3633137 0
-0.19455078 -0.16890216 -0.3601959 0
-0.11132812 -0.17558467 -0.36716953 0
-0.016928852 -0.16165292 -0.3646189 0
0.049763441 -0.14859557 -0.36767003 0
-0.91367131 -0.058062553 -0.35624611 0
-0.80523562 -0.052996159 -0.3550919 0
-0.69813544 -0.075008988 -0.35875934 0
-0.62234032 -0.045407534 -0.35917732 0
-0.51806819 -0.067355156 -0.357003 0
-0.40677264 -0.048250914 -0.36025143 0
-0.28159636 -0.063435197 -0.36252081 0
-0.21205199 -0.075786352 -0.36684251 0
-0.15452546 -0.052230597 -0.36830878 0
-0.051751554 -0.040301442 -0.36758831 0
0.074067831 -0.045070529 -0.37233171 0
-0.98345286 0.061656177 -0.34861672 0
-0.91995192 0.031280041 -0.35375613 0
-0.80986047 0.03839016 -0.35261783 0
-0.71302384 0.022809267 -0.3551394 0
-0.62307936 0.046976686 -0.35889003 0
-0.50486624 0.032627702 -0.36147431 0
-0.38164446 0.05132103 -0.36154526 0
-0.27123892 0.034029245 -0.36469609 0
-0.22827867 0.047327995 -0.36303505 0
-0.11958042 0.046192288 -0.36422127 0
-0.051318288 0.03034544 -0.36755723 0
0.054125905 0.021104455 -0.36780208 0
-0.9913137 0.13649499 -0.34771764 0
-0.89540368 0.15038604 -0.35253274 0
-0.80131561 0.13437521 -0.35515448 0
-0.71798396 0.13255399 -0.35475686 0
-0.63779569 0.13313913 -0.35633811 0
-0.51360524 0.11758626 -0.35830078 0
-0.38340122 0.1559608 -0.36191863 0
-0.21384329 0.1484437 -0.36673841 0
-0.070322782 0.14210582 -0.36398363 0
0.054767966 0.11762178 -0.36826321 0
0.18835369 0.14908755 -0.3693454 0
-0.98794377 0.22476697 -0.34965572 0
-0.88715708 0.23841441 -0.3512966 0
-0.81498051 0.22332317 -0.35486105 0
-0.71810973 0.23046726 -0.35564125 0
-0.64188707 0.26966542 -0.35759175 0
-0.52345133 0.23730725 -0.36194193 0
-0.42417324 0.22572243 -0.3648414 0
-0.30555928 0.21154141 -0.35877255 0
-0.18223178 0.22984099 -0.36363876 0
-0.089104027 0.22831428 -0.36096084 0
0.023083448 0.25517285 -0.36296257 0
0.050152808 0.19759846 -0.36792886 0
-0.9920733 0.340464 -0.35113764 0
-0.92081523 0.33154571 -0.35348052 0
-0.81917167 0.32511562 -0.3527573 0
-0.73385364 0.33572716 -0.35468844 0
-0.61366653 0.34746414 -0.35706982 0
-0.49680376 0.33686721 -0.36120749 0
-0.40074375 0.32519406 -0.36108753 0
-0.29386279 0.33534652 -0.36350527 0
-0.19177452 0.31892163 -0.36316475 0
-0.077198386 0.33733398 -0.36530679 0
0.025580823 0.32862103 -0.36470798 0
-0.9972086 0.44332695 -0.3472423 0
-0.92197686 0.44323599 -0.34742346 0
-0.82221723 0.42576939 -0.35161847 0
-0.70540738 0.42228425 -0.35356537 0
-0.60830963 0.44154912 -0.35257402 0
-0.53048122 0.42614037 -0.35208479 0
-0.43421698 0.44168389 -0.35675654 0
-0.3205266 0.43837696 -0.36035258 0
-0.19140515 0.41732907 -0.36544639 0
-0.08834374 0.42861199 -0.36507604 0
0.023522079 0.41342604 -0.3660869 0
-0.0081053376 -0.41407835 -0.3594752 0
0.12007225 -0.47536397 -0.36092278 0
0.13565207 -0.41919744 -0.36289591 0
0.252563 -0.47810757 -0.359422 0
0.41251856 -0.46964443 -0.3616738 0
0.5433659 -0.48972201 -0.35866591 0
0.7642166 -0.43763435 -0.36536911 0
0.91786307 -0.46912384 -0.35445547 0
0.1342116 -0.37529802 -0.36135846 0
0.14609215 -0.32322538 -0.36291704 0
0.27665663 -0.3676393 -0.36209825 0
0.40961051 -0.36514449 -0.35833734 0
0.44033974 -0.39818108 -0.36639932 0
0.57726139 -0.38581419 -0.3642846 0
0.75127679 -0.35861242 -0.36091322 0
0.94174403 -0.35770464 -0.35812184 0
0.12300238 -0.24306917 -0.35608763 0
0.14942163 -0.27359724 -0.36268574 0
0.30850151 -0.25018656 -0.3670772 0
0.45498335 -0.26288092 -0.3668806 0
0.5626362 -0.27922618 -0.35909003 0
0.74899787 -0.26678777 -0.35909313 0
0.93981576 -0.29034197 -0.35683745 0
0.15926144 -0.17274654 -0.36342633 0
0.3073847 -0.1474731 -0.36541507 0
0.4273704 -0.17515266 -0.35937822 0
0.56579667 -0.19886923 -0.35874438 0
0.73697382 -0.149966 -0.35538256 0
0.75847691 -0.19800234 -0.36055455 0
0.96000439 -0.18520558 -0.36059639 0
0.16528758 -0.071243644 -0.36398825 0
0.31356514 -0.041572452 -0.36605716 0
0.44432253 -0.054947376 -0.36235565 0
0.59636849 -0.092247725 -0.36473283 0
0.74816692 -0.051666617 -0.35758093 0
0.96555167 -0.078508377 -0.36149043 0
0.16023347 0.054084659 -0.3627485 0
0.30261695 0.059832573 -0.36361349 0
0.45822752 0.035732269 -0.36525923 0
0.58033931 0.018906593 -0.36079794 0
0.73738837 0.034650087 -0.35528284 0
0.93258059 0.032963514 -0.35443085 0
0.9637922 -0.015563846 -0.36111775 0
0.32351664 0.14965677 -0.36860973 0
0.42596021 0.13335299 -0.35867155 0
0.46633342 0.099565625 -0.36718443 0
0.59127605 0.13895512 -0.36353654 0
0.75090283 0.13801551 -0.35863572 0
0.93359244 0.10598028 -0.35509211 0
0.95159149 0.18142986 -0.35960811 0
0.13120887 0.2252872 -0.35796601 0
0.15943927 0.19112599 -0.36355111 0
0.28576472 0.21259093 -0.36118206 0
0.42990792 0.24606657 -0.36074781 0
0.44894907 0.20848751 -0.36433348 0
0.55704331 0.23993146 -0.3572368 0
0.74719155 0.23163283 -0.35861734 0
0.92740577 0.23560607 -0.35504332 0
0.15288267 0.31455088 -0.36392736 0
0.29181185 0.33004379 -0.364209 0
0.41458485 0.36100578 -0.35938945 0
0.49253181 0.32130539 -0.35995591 0
0.75516617 0.33426332 -0.36178207 0
0.88242495 0.35006809 -0.34772524 0
0.95062196 0.31504273 -0.36125714 0
-0.019555658 0.46453059 -0.35858354 0
0.12902763 0.43919432 -0.36164293 0
0.27954361 0.44021052 -0.36389744 0
0.39993492 0.44745672 -0.35820296 0
0.5418216 0.42054093 -0.35715362 0
0.70967543 0.43230176 -0.35410824 0
0.87856066 0.41773832 -0.34822685 0
-0.95067656 -0.4494524 -0.34890348 0
-0.85955864 -0.45727217 -0.34790498 0
-0.75055289 -0.4583385 -0.34713167 0
-0.65503567 -0.45393312 -0.35131556 0
-0.55065525 -0.45674562 -0.35286587 0
-0.44302997 -0.44261193 -0.35326642 0
-0.32478908 -0.4579258 -0.35660875 0
-0.25268009 -0.42267287 -0.34685525 0
-0.21203804 -0.44040298 -0.35753971 0
-0.095680416 -0.4473418 -0.35430372 0
-0.97127235 -0.3582207 -0.34534544 0
-0.88006043 -0.34941018 -0.34432 0
-0.78451419 -0.36148834 -0.34761307 0
-0.6550715 -0.33899534 -0.35257667 0
-0.54276061 -0.39638805 -0.35209906 0
-0.44946986 -0.34393072 -0.35609463 0
-0.33109596 -0.37963438 -0.35190284 0
-0.21781489 -0.36227334 -0.35310024 0
-0.071329981 -0.33952594 -0.35621777 0
-0.96640646 -0.25861573 -0.34263527 0
-0.89343834 -0.25753057 -0.34232843 0
-0.78733301 -0.25326085 -0.34464684 0
-0.65444231 -0.24804318 -0.35090825 0
-0.53294492 -0.24995291 -0.34941673 0
-0.4525376 -0.27509296 -0.3530893 0
-0.28072935 -0.24489093 -0.35346919 0
-0.19877926 -0.27669489 -0.35497609 0
-0.060729951 -0.24582636 -0.35596478 0
-0.96518791 -0.14342201 -0.34462646 0
-0.86980754 -0.15413749 -0.3451874 0
-0.79055202 -0.14804935 -0.34589458 0
-0.66801518 -0.13976693 -0.34979364 0
-0.56011456 -0.16834283 -0.35235935 0
-0.44889709 -0.11358082 -0.3540794 0
-0.35844457 -0.14320278 -0.35566843 0
-0.30602121 -0.16868711 -0.35191178 0
-0.17401198 -0.12765813 -0.35737586 0
-0.036401182 -0.13146234 -0.35909426 0
-0.94363332 -0.056771398 -0.34345976 0
-0.86147153 -0.061040878 -0.3454529 0
-0.78326774 -0.049063563 -0.34599692 0
-0.66550732 -0.046927214 -0.35034719 0
-0.5615415 -0.087623 -0.35053402 0
-0.4713558 -0.039414287 -0.35175574 0
-0.27078962 -0.057353497 -0.35816216 0
-0.16670254 -0.054239273 -0.3579205 0
-0.042668581 -0.038045764 -0.35625991 0
-0.95980155 0.052608609 -0.34576702 0
-0.84523654 0.03992486 -0.3482098 0
-0.76372564 0.053270221 -0.34519178 0
-0.63697147 0.083921432 -0.35151047 0
-0.5661459 0.047305226 -0.35181394 0
-0.50763702 0.033988714 -0.350568 0
-0.38681594 0.041050673 -0.35490865 0
-0.27352798 0.036120057 -0.3566694 0
-0.16579059 0.02023232 -0.35737997 0
-0.0265266 0.041671515 -0.35915536 0
-0.96397865 0.14160138 -0.34495261 0
-0.866346 0.14312112 -0.34361306 0
-0.76763046 0.17614329 -0.34881589 0
-0.66089427 0.13126564 -0.3463091 0
-0.46991864 0.15487528 -0.35127726 0
-0.396853 0.12415695 -0.35240963 0
-0.27964538 0.15251386 -0.35498863 0
-0.17228135 0.14046788 -0.3555263 0
-0.048979521 0.11172044 -0.35388288 0
-0.96597648 0.23324221 -0.34510693 0
-0.85830617 0.26666456 -0.34232846 0
-0.77117229 0.25675064 -0.34874415 0
-0.66141212 0.24431092 -0.35102656 0
-0.55896735 0.21055067 -0.35003829 0
-0.50235856 0.26053071 -0.35224175 0
-0.40174988 0.2398333 -0.35183933 0
-0.29107299 0.24316156 -0.35291088 0
-0.17127272 0.27112031 -0.35623133 0
-0.036221534 0.22708976 -0.35683069 0
0.12123889 0.26838887 -0.36076969 0
-0.94369364 0.35791814 -0.34193984 0
-0.86861247 0.35883665 -0.34533247 0
-0.76035511 0.3647542 -0.34394926 0
-0.65915799 0.348409 -0.34850162 0
-0.57874262 0.34572107 -0.35070363 0
-0.46861058 0.34067905 -0.35316133 0
-0.35536012 0.31399441 -0.35118186 0
-0.29462343 0.36890858 -0.35353616 0
-0.16491538 0.35372531 -0.35837647 0
-0.03129819 0.34029132 -0.35871193 0
0.10507506 0.37783635 -0.35819438 0
-0.98707753 0.44523817 -0.33783779 0
-0.8641994 0.45496207 -0.34300739 0
-0.74317944 0.46607417 -0.34668085 0
-0.64042932 0.44176781 -0.34580159 0
-0.53374207 0.45746529 -0.34822953 0
-0.42527431 0.44486874 -0.34947747 0
-0.38225567 0.42282587 -0.35816553 0
-0.25972503 0.46389997 -0.35494041 0
-0.16447523 0.43157864 -0.35957778 0
-0.060836375 0.43052065 -0.3536312 0
0.096681654 0.4906643 -0.35800776 0
0.018679798 -0.48471224 -0.34967333 0
0.18443662 -0.46352351 -0.35278642 0
0.28829861 -0.45117068 -0.34219599 0
0.30994833 -0.49367344 -0.34906858 0
0.52600461 -0.44325876 -0.35428119 0
0.72894806 -0.47227013 -0.35511634 0
0.93784904 -0.44619203 -0.35089204 0
0.06386888 -0.35905731 -0.3559086 0
0.1854409 -0.36906767 -0.34954396 0
0.20077634 -0.36124706 -0.35307944 0
0.32251996 -0.38410032 -0.34814841 0
0.53504294 -0.37649345 -0.35441732 0
0.7415055 -0.37277579 -0.35519794 0
0.96079081 -0.36567032 -0.35420007 0
0.065114677 -0.26245499 -0.353257 0
0.23081613 -0.23754501 -0.35650131 0
0.36409742 -0.27396214 -0.35473916 0
0.54962778 -0.28394723 -0.3552596 0
0.78232896 -0.24903572 -0.36179322 0
0.97302091 -0.2591815 -0.3546702 0
0.071343243 -0.15918422 -0.35232058 0
0.24600086 -0.1537677 -0.35813969 0
0.37970141 -0.15575314 -0.35554007 0
0.56175077 -0.16377723 -0.35528493 0
0.76655817 -0.17187011 -0.35660225 0
0.098294854 -0.042461038 -0.35662043 0
0.22870213 -0.061643124 -0.35253039 0
0.37412208 -0.077177525 -0.35277125 0
0.3945266 -0.012053609 -0.35651329 0
0.56579792 -0.039388537 -0.35411182 0
0.7555511 -0.080583453 -0.35265028 0
0.95734489 -0.019629002 -0.34775424 0
0.99282199 -0.075143456 -0.35633045 0
0.083351731 0.05141592 -0.35244396 0
0.24772882 0.037198424 -0.35568917 0
0.39258823 0.04616034 -0.35549527 0
0.61043763 0.069608331 -0.36299631 0
0.77636766 0.033099771 -0.35618851 0
0.94992959 0.033146381 -0.34573933 0
0.08348754 0.16500235 -0.35223377 0
0.26524094 0.13009477 -0.35920462 0
0.38556221 0.17330122 -0.353535 0
0.3938728 0.1101265 -0.35542858 0
0.56494093 0.1124686 -0.35239646 0
0.59522855 0.18865871 -0.35893452 0
0.74861896 0.13972747 -0.34905881 0
0.95006245 0.11263835 -0.34545198 0
0.058217764 0.28815126 -0.34729326 0
0.24106574 0.22839808 -0.35393423 0
0.35972729 0.26973569 -0.34821507 0
0.41171595 0.24167299 -0.35939702 0
0.58297879 0.24546254 -0.35632354 0
0.75422585 0.24290371 -0.3501232 0
0.9559257 0.21762252 -0.34670675 0
0.029982388 0.38431597 -0.34235001 0
0.24796972 0.3556391 -0.35624948 0
0.35952306 0.33116007 -0.34860891 0
0.56718934 0.29885423 -0.35311088 0
0.7405712 0.33459401 -0.34759811 0
0.9343726 0.30909085 -0.34259954 0
0.22657859 0.46008325 -0.35294616 0
0.38886839 0.44262564 -0.35608673 0
0.56537145 0.46169221 -0.35420328 0
0.59609771 0.38980556 -0.35999739 0
0.74997163 0.45291853 -0.35062873 0
0.94152623 0.4342134 -0.3455056 0
-0.96100348 -0.45308232 -0.34507653 0
-0.89532125 -0.48839819 -0.34383386 0
-0.75684863 -0.45154405 -0.3520118 0
-0.65025967 -0.45476317 -0.35305002 0
-0.57429403 -0.45522857 -0.35409918 0
-0.44227794 -0.47459722 -0.35243747 0
-0.29447234 -0.44989979 -0.35528904 0
-0.96895492 -0.35458517 -0.34528744 0
-0.88122177 -0.35838628 -0.35097671 0
-0.79059023 -0.36629534 -0.34965777 0
-0.66407323 -0.38570094 -0.34665301 0
-0.57588279 -0.35509455 -0.35398409 0
-0.53076077 -0.34470117 -0.35163134 0
-0.41187963 -0.36995614 -0.35570687 0
-0.25868797 -0.33664179 -0.35976109 0
-0.98924112 -0.26345623 -0.34999347 0
-0.89151585 -0.25953734 -0.34672403 0
-0.78524268 -0.2357533 -0.3488065 0
-0.67806101 -0.24911535 -0.35102063 0
-0.62987936 -0.24262083 -0.3501763 0
-0.51114368 -0.27235126 -0.35404372 0
-0.39225432 -0.2650429 -0.35705382 0
-0.27885303 -0.27720773 -0.35312033 0
-0.1176129 -0.23143137 -0.35698619 0
-0.99853432 -0.16077662 -0.34487656 0
-0.87390327 -0.14965618 -0.34621754 0
-0.74488831 -0.18719232 -0.3456625 0
-0.68215728 -0.14594448 -0.34757742 0
-0.61937833 -0.14786661 -0.3504827 0
-0.5106312 -0.18301165 -0.35187703 0
-0.3929427 -0.15285647 -0.35424304 0
-0.24804357 -0.15704501 -0.3575964 0
-0.096797377 -0.14168692 -0.35984504 0
-0.97893882 -0.078688264 -0.34777275 0
-0.88364965 -0.048063278 -0.34667471 0
-0.81270051 -0.035650611 -0.34971228 0
-0.71546638 -0.066026449 -0.3502515 0
-0.62706351 -0.046541452 -0.34707978 0
-0.49058747 -0.078559875 -0.35457584 0
-0.34946728 -0.028667927 -0.36217991 0
-0.24521077 -0.058855534 -0.35656729 0
-0.09186098 -0.037142634 -0.35927787 0
-0.99593174 0.03018558 -0.34283948 0
-0.88116735 0.075894356 -0.34631571 0
-0.76541221 0.044073224 -0.34521142 0
-0.71724904 -0.00066483021 -0.34909183 0
-0.60931265 0.058213472 -0.35021219 0
-0.48270008 0.041738868 -0.35508484 0
-0.36598593 0.029497743 -0.35785636 0
-0.23537603 0.047057509 -0.3577261 0
-0.22313926 0.0090380907 -0.36079457 0
-0.094230413 0.042264938 -0.35797271 0
-0.97130573 0.16078579 -0.34815231 0
-0.89378238 0.18291569 -0.34784961 0
-0.81739628 0.15313238 -0.34778735 0
-0.70203829 0.16074353 -0.35194513 0
-0.60414112 0.15304375 -0.35119414 0
-0.48169687 0.16328394 -0.35494292 0
-0.38179779 0.14601672 -0.3539032 0
-0.24235216 0.14521801 -0.35584602 0
-0.10218605 0.14943886 -0.35578322 0
-0.99967289 0.24694741 -0.34249786 0
-0.87564802 0.250642 -0.34403729 0
-0.80421793 0.27027762 -0.35133117 0
-0.70576543 0.24500257 -0.35157815 0
-0.61035752 0.24664497 -0.35028589 0
-0.50063038 0.24778789 -0.35118407 0
-0.39342207 0.24306738 -0.3516154 0
-0.24937645 0.27733624 -0.35469115 0
-0.1094918 0.25430238 -0.35440677 0
-0.96968353 0.33752888 -0.33982128 0
-0.86209142 0.34527302 -0.33988923 0
-0.74774611 0.36220211 -0.3437759 0
-0.68714935 0.35373896 -0.34575266 0
-0.61598277 0.33659863 -0.34992042 0
-0.49514574 0.35061377 -0.35332897 0
-0.38723654 0.34615844 -0.35389644 0
-0.2756623 0.37007147 -0.34997791 0
-0.094343841 0.3505379 -0.35836124 0
-0.98405087 0.47245443 -0.34096923 0
-0.87413168 0.44049877 -0.34427208 0
-0.7589348 0.44945872 -0.34288728 0
-0.64469528 0.47525042 -0.34577689 0
-0.53207541 0.43819129 -0.34666169 0
-0.41586068 0.46879387 -0.34953988 0
-0.30408546 0.46852422 -0.34548002 0
-0.10180071 0.46264845 -0.35813177 0
-0.16132659 -0.47525406 -0.35468474 0
0.011499643 -0.42971849 -0.35849899 0
0.14606601 -0.44218266 -0.3563498 0
0.32686782 -0.44068182 -0.35492575 0
0.5068509 -0.4550854 -0.34985885 0
0.75138962 -0.47324228 -0.35563421 0
0.98084813 -0.44913578 -0.35633144 0
-0.13849896 -0.365646 -0.35603777 0
-0.025349855 -0.37936985 -0.34768239 0
0.13978189 -0.349051 -0.35149702 0
0.3239249 -0.36195457 -0.35144275 0
0.48421228 -0.37900698 -0.34228408 0
0.73570824 -0.37963188 -0.34922582 0
0.97559834 -0.38064241 -0.35326418 0
-0.14286628 -0.29587519 -0.3527514 0
0.018905371 -0.27722716 -0.35515666 0
0.1579169 -0.2583878 -0.35313961 0
0.35026535 -0.2610333 -0.35467482 0
0.52256691 -0.260957 -0.34830979 0
0.75811642 -0.30179036 -0.35263166 0
0.77319986 -0.22369921 -0.35454404 0
0.03390336 -0.16420341 -0.35590732 0
0.15819609 -0.1950742 -0.35163659 0
0.17883256 -0.13157785 -0.35512325 0
0.36795479 -0.13374805 -0.35579136 0
0.38991737 -0.18430567 -0.36208922 0
0.55973804 -0.14350021 -0.35442218 0
0.78568852 -0.14958107 -0.35611019 0
0.9905045 -0.15765691 -0.35249922 0
0.046124071 -0.048514485 -0.35668719 0
0.16697925 -0.081976056 -0.35148528 0
0.19459462 -0.0099805593 -0.35676748 0
0.37515175 -0.045291781 -0.35587227 0
0.55559123 -0.088945985 -0.35246143 0
0.57453775 -0.015565634 -0.35570657 0
0.78202713 -0.052690625 -0.35390538 0
0.98315787 -0.08255899 -0.34992138 0
-0.12723741 0.074462891 -0.35042796 0
0.054335535 0.041554332 -0.35759634 0
0.23821464 0.078014255 -0.3657749 0
0.39719272 0.056631565 -0.35962364 0
0.5692215 0.050105691 -0.35368872 0
0.78248227 0.054768443 -0.3529183 0
0.99942362 0.029906273 -0.35266635 0
-0.1185095 0.18958342 -0.35222021 0
0.055142015 0.1273632 -0.35737032 0
0.18048623 0.12942314 -0.35269156 0
0.39143226 0.11358809 -0.35793138 0
0.59554863 0.16155624 -0.35880655 0
0.78661871 0.13286257 -0.35333529 0
0.04617691 0.23587 -0.35541576 0
0.18755767 0.22402203 -0.35420927 0
0.39179534 0.21422696 -0.35792339 0
0.57768404 0.24867058 -0.35476747 0
0.78639972 0.22932792 -0.35282272 0
0.97816241 0.24345529 -0.34733871 0
0.045795113 0.35786808 -0.35606861 0
0.20828003 0.33056569 -0.35917827 0
0.35023054 0.35013032 -0.34945813 0
0.40179321 0.31700194 -0.36039734 0
0.55323744 0.3728801 -0.35004413 0
0.58562374 0.32808363 -0.35678172 0
0.74966168 0.30814302 -0.3448815 0
0.96165866 0.36125374 -0.34467733 0
0.02107209 0.46059161 -0.35200208 0
0.16966164 0.40423119 -0.35146642 0
0.17389882 0.45882565 -0.35300964 0
0.37994519 0.44120741 -0.35667384 0
0.55167687 0.44604957 -0.3503457 0
0.75433767 0.43025708 -0.34672019 0
0.94007254 0.42601216 -0.34085819 0
-0.96993339 -0.45488977 -0.35030344 0
-0.84311485 -0.43224001 -0.35380244 0
-0.73098707 -0.43727326 -0.35394818 0
-0.62767333 -0.43307996 -0.35158843 0
-0.60904098 -0.48520768 -0.35868382 0
-0.45971045 -0.44353223 -0.35905072 0
-0.29380232 -0.43921411 -0.36274472 0
-0.14085919 -0.43758595 -0.36117688 0
-0.018648326 -0.46380019 -0.35428008 0
-0.94780624 -0.34355521 -0.3505896 0
-0.84932029 -0.35594106 -0.34882846 0
-0.72733223 -0.32712877 -0.35015893 0
-0.60927403 -0.33184886 -0.3519519 0
-0.45934656 -0.34902215 -0.35522899 0
-0.29514596 -0.34288752 -0.35849869 0
-0.12900355 -0.3319006 -0.359759 0
0.01929754 -0.33721173 -0.35840285 0
-0.93023068 -0.23059928 -0.35066372 0
-0.8337791 -0.25832808 -0.34902722 0
-0.71793211 -0.2541045 -0.34989503 0
-0.56914449 -0.23521328 -0.3583332 0
-0.42515221 -0.23228669 -0.35954985 0
-0.23673341 -0.20167518 -0.36789775 0
-0.11504126 -0.23903036 -0.35993183 0
0.047071129 -0.24058616 -0.36174911 0
-0.92249608 -0.1658932 -0.35061502 0
-0.84955364 -0.11850035 -0.34990889 0
-0.80115843 -0.1751281 -0.3542788 0
-0.68365932 -0.14128315 -0.35494241 0
-0.57243645 -0.16569209 -0.3556225 0
-0.43612489 -0.1619277 -0.35502973 0
-0.26971972 -0.14163327 -0.35859871 0
-0.12152198 -0.19165885 -0.35699683 0
-0.079579592 -0.11577964 -0.36493221 0
0.036416233 -0.16077209 -0.35689601 0
0.26362234 -0.17986095 -0.36412036 0
-0.91910601 -0.037579179 -0.34877771 0
-0.77616781 -0.021289706 -0.35680938 0
-0.6926831 -0.028569221 -0.350647 0
-0.56731814 -0.064819574 -0.35464594 0
-0.4403927 -0.058973074 -0.35192832 0
-0.39331833 -0.084822297 -0.36330953 0
-0.26302493 -0.029795527 -0.35798013 0
-0.089211047 -0.033776164 -0.36101639 0
0.057698935 -0.033782005 -0.35901925 0
0.26087329 -0.063029289 -0.36040956 0
-0.98134267 0.039491773 -0.35651693 0
-0.87205291 0.071942925 -0.35009196 0
-0.79536629 0.056106687 -0.35156673 0
-0.69349808 0.064478278 -0.34937456 0
-0.56723732 0.056011796 -0.35302147 0
-0.42205915 0.05138123 -0.35466078 0
-0.26529595 0.078774571 -0.35608506 0
-0.088515729 0.045557022 -0.3600491 0
0.069053382 0.065537572 -0.36015651 0
0.27891144 0.038541555 -0.36261317 0
-0.91437614 0.18518913 -0.34816426 0
-0.88867366 0.16092616 -0.35382172 0
-0.79783398 0.17517346 -0.35036308 0
-0.67284185 0.17695081 -0.35339344 0
-0.54070359 0.17149174 -0.35815406 0
-0.41336712 0.16258216 -0.35575318 0
-0.24555451 0.17319775 -0.35983166 0
-0.098819524 0.1349529 -0.35697326 0
0.067167044 0.16113067 -0.35897288 0
-0.92417383 0.25451946 -0.3462069 0
-0.8126744 0.23297292 -0.34717295 0
-0.79905456 0.29250568 -0.3503702 0
-0.68546116 0.26521552 -0.3507452 0
-0.58057415 0.22906899 -0.34934846 0
-0.41181511 0.27678877 -0.3560068 0
-0.40141886 0.22856623 -0.35824895 0
-0.2532559 0.2533226 -0.35795605 0
-0.079772949 0.27243054 -0.36078417 0
0.074603289 0.25874722 -0.36025664 0
0.27246785 0.26712322 -0.35936379 0
0.31057146 0.2280283 -0.36797011 0
-0.93141645 0.34502041 -0.34523508 0
-0.82187539 0.32425964 -0.34566617 0
-0.80528033 0.38903171 -0.34979668 0
-0.68065977 0.37948453 -0.35245305 0
-0.58276236 0.33864433 -0.34937793 0
-0.43163815 0.34585315 -0.35205996 0
-0.25488374 0.36907434 -0.35797188 0
-0.093808323 0.3525033 -0.35786313 0
0.064239293 0.35280418 -0.3581003 0
0.27352971 0.3913604 -0.35974616 0
-0.96481842 0.44922447 -0.33957151 0
-0.85339117 0.46214348 -0.34066376 0
-0.76093996 0.43943346 -0.34793836 0
-0.59125763 0.44287068 -0.34856427 0
-0.42671329 0.47130632 -0.35438481 0
-0.24976048 0.46378046 -0.3599194 0
-0.091134131 0.44797754 -0.35910764 0
0.068946004 0.45005673 -0.35960597 0
0.26458749 0.46115106 -0.3582162 0
0.2058832 -0.44310737 -0.3597405 0
0.41299355 -0.44637692 -0.35753781 0
0.69616681 -0.41561186 -0.36713532 0
0.8875953 -0.46574271 -0.3568781 0
0.21839035 -0.35339117 -0.35911709 0
0.39765823 -0.34091532 -0.34973577 0
0.66053385 -0.34269059 -0.35619771 0
0.90402293 -0.34466624 -0.35703465 0
0.23672494 -0.2553736 -0.3600198 0
0.45082724 -0.20734513 -0.35814151 0
0.65566891 -0.24372339 -0.35231775 0
0.91999727 -0.22301757 -0.35756567 0
0.23261327 -0.13671005 -0.35553741 0
0.43130979 -0.16273117 -0.35232618 0
0.66734707 -0.15898716 -0.35310197 0
0.88606274 -0.11171448 -0.34721857 0
0.90872139 -0.15502596 -0.35337582 0
0.44886708 -0.052506924 -0.35400271 0
0.67483258 -0.048533201 -0.35272902 0
0.50016779 0.080974221 -0.36351645 0
0.67529017 0.053027034 -0.35098988 0
0.91154087 0.041673422 -0.35105729 0
0.25580221 0.11571765 -0.35639507 0
0.48155662 0.1341064 -0.35854757 0
0.71645367 0.14843023 -0.35902113 0
0.9403739 0.17074609 -0.35644972 0
0.48077467 0.23951733 -0.35788631 0
0.69202125 0.27050877 -0.35264367 0
0.72441506 0.21939194 -0.36003089 0
0.92768788 0.24377894 -0.35321137 0
0.23659337 0.30794966 -0.35142305 0
0.47763056 0.34732389 -0.35710043 0
0.71436626 0.36727321 -0.35753417 0
0.89561093 0.3901962 -0.3467944 0
0.92275977 0.32182765 -0.35231566 0
0.47206268 0.45091188 -0.35627896 0
0.68271858 0.42631161 -0.3507362 0
0.90516245 0.46999848 -0.34921989 0
-0.99065745 -0.36417162 -0.35398477 0
-0.90767932 -0.45433056 -0.35105091 0
-0.97291994 -0.14575732 -0.34893557 0
-0.99205005 -0.23976803 -0.34774214 0
-0.89284885 -0.34197044 -0.34872454 0
-0.9842931 -0.021840572 -0.34277228 0
-0.86372817 -0.12559021 -0.34733903 0
-0.85033196 -0.20656335 -0.35337645 0
-0.75757015 -0.36209536 -0.35515842 0
-0.93370855 0.21451002 -0.35093808 0
-0.95405251 0.08853972 -0.34775573 0
-0.85313815 0.020495296 -0.34620565 0
-0.84910083 -0.04577136 -0.34861797 0
-0.75245845 -0.15492678 -0.3479878 0
-0.74313956 -0.23864865 -0.35320684 0
-0.60715908 -0.34285676 -0.35633028 0
-0.62011397 -0.42279732 -0.35706303 0
-0.96547574 0.42676163 -0.34384796 0
-0.94831187 0.33079267 -0.34732771 0
-0.81151766 0.16729271 -0.35355562 0
-0.82602251 0.0886724 -0.35126358 0
-0.72214997 0.0088609457 -0.35085288 0
-0.73697025 -0.075700521 -0.34934613 0
-0.58922112 -0.18731856 -0.35446337 0
-0.61438543 -0.27491951 -0.35162905 0
-0.46700341 -0.45533252 -0.35867375 0
-0.90227884 0.4774211 -0.34573877 0
-0.8538304 0.37170571 -0.34346244 0
-0.81332475 0.29161072 -0.3523629 0
-0.69423205 0.20186275 -0.35440844 0
-0.71457732 0.11343336 -0.35081473 0
-0.56487226 -0.071918726 -0.35676676 0
-0.56787354 -0.12164164 -0.35747221 0
-0.42687967 -0.31124043 -0.36173111 0
-0.44402766 -0.36564445 -0.3599377 0
-0.30690944 -0.46417522 -0.35793367 0
-0.77593201 0.44985467 -0.34854376 0
-0.71629 0.37494528 -0.34902287 0
-0.70330012 0.27386189 -0.35195398 0
-0.56304228 0.18299645 -0.3526049 0
-0.5567106 0.085639 -0.35535094 0
-0.52378368 0.0054043531 -0.36448881 0
-0.41266266 -0.094272137 -0.35754856 0
-0.41893372 -0.17318594 -0.35846555 0
-0.3938846 -0.235443 -0.36673161 0
-0.26837388 -0.31617284 -0.36038321 0
-0.28705302 -0.4089936 -0.36007366 0
-0.60081124 0.45003349 -0.34406194 0
-0.56987005 0.32288098 -0.35035273 0
-0.56373358 0.24350029 -0.35196769 0
-0.40965849 0.050484538 -0.3549872 0
-0.38995942 -0.024594307 -0.36112338 0
-0.24481928 -0.1972661 -0.36154628 0
-0.12870628 -0.36210597 -0.35794762 0
-0.14701748 -0.42821205 -0.35655472 0
-0.55897343 0.41762048 -0.35290974 0
-0.40792501 0.29790843 -0.35271645 0
-0.3874076 0.19523966 -0.35806838 0
-0.23592368 -0.076570749 -0.36004928 0
-0.088769168 -0.2212677 -0.36189333 0
-0.095565826 -0.28811991 -0.36289251 0
0.048319399 -0.45649087 -0.3561179 0
-0.39682171 0.42036462 -0.35516781 0
-0.38146815 0.37317413 -0.35840404 0
-0.25845331 0.21974385 -0.34993744 0
-0.21828288 0.16046786 -0.35959637 0
-0.21824789 0.047451854 -0.36138678 0
-0.079995662 -0.082199454 -0.35941082 0
-0.067125767 -0.16157722 -0.36498818 0
0.085866213 -0.37536502 -0.36155096 0
-0.22080228 0.30830753 -0.35785642 0
-0.06183818 0.13860404 -0.35931945 0
-0.050500333 0.057718277 -0.36316416 0
0.099507391 -0.13894379 -0.35553589 0
0.10754257 -0.22096312 -0.36037904 0
0.10548049 -0.30771458 -0.36335284 0
-0.21145383 0.40772295 -0.35979068 0
-0.069884121 0.25911891 -0.3563312 0
-0.045788795 0.21339107 -0.3621299 0
0.15839833 -0.041983485 -0.36668524 0
-0.049342483 0.4988147 -0.36064982 0
-0.045627981 0.37557167 -0.36126268 0
0.16112134 0.14397371 -0.36347756 0
0.16043463 0.050785661 -0.36488673 0
0.16067097 0.35485482 -0.36157763 0
0.17066032 0.29233861 -0.36414203 0
0.15747365 0.21189177 -0.36184973 0
0.1586279 0.48541164 -0.36102483 0
0.18623915 0.43259144 -0.36706859 0
0.38724941 0.078767776 -0.36565226 0
0.36758509 0.3546865 -0.35853225 0
0.36919183 0.21096504 -0.35973492 0
0.3824321 0.42955995 -0.36168247 0
0.25063652 -0.47166741 -0.35225222 0
0.28796816 -0.36027884 -0.35640955 0
0.3279196 -0.17999876 -0.35898471 0
0.3225973 -0.27051306 -0.36111432 0
0.34607401 -0.043123603 -0.35894734 0
0.55103058 -0.30195606 -0.35974693 0
0.54484349 -0.41446757 -0.3623786 0
0.32569581 0.2512821 -0.34964362 0
0.34638643 0.12277019 -0.3554644 0
0.53588474 -0.17509663 -0.35181102 0
0.53297025 -0.2473321 -0.35352138 0
0.57288373 -0.044986486 -0.35691115 0
0.76408869 -0.33089399 -0.3530319 0
0.76922947 -0.40025294 -0.3566967 0
0.59706181 0.21137309 -0.357416 0
0.60874784 0.10543799 -0.36185175 0
0.78748846 -0.13426244 -0.35297683 0
0.7934103 -0.23768175 -0.35717747 0
0.56457603 0.41142774 -0.34914494 0
0.60657275 0.32697272 -0.35878479 0
0.81388438 -0.010700464 -0.35636255 0
0.79027379 0.27802801 -0.34702319 0
0.81480706 0.222157 -0.35292697 0
0.8162148 0.10421872 -0.35485035 0
0.80994248 0.38119483 -0.35111204 0
0.8109982 0.46170723 -0.35133198 0
-0.93261695 -0.4061712 -0.34878361 0
-0.97590399 0.21964949 -0.35364038 0
-0.9958179 -0.017076492 -0.34948274 0
-0.90678823 -0.1263963 -0.34738725 0
-0.91932869 -0.22287083 -0.34635636 0
-0.90740365 -0.30047357 -0.35123023 0
-0.93860918 0.4079901 -0.34155035 0
-0.91417414 0.34617251 -0.34572381 0
-0.90050012 0.20114154 -0.34731114 0
-0.91899401 0.09283638 -0.34297639 0
-0.87643874 0.027687669 -0.3525461 0
-0.89272356 -0.051949501 -0.34955969 0
-0.78155494 -0.17629838 -0.3521072 0
-0.77204931 -0.25888205 -0.35627693 0
-0.77892482 -0.35559773 -0.35761684 0
-0.76066577 -0.46822619 -0.35315782 0
-0.81452453 0.47864878 -0.34594896 0
-0.83353829 0.33903778 -0.351215 0
-0.77562517 0.26258069 -0.35117847 0
-0.76744354 0.14437473 -0.35239989 0
-0.7709868 0.021333218 -0.35191539 0
-0.7718792 -0.076057196 -0.35266569 0
-0.68390399 -0.13111317 -0.34893072 0
-0.682455 -0.27618289 -0.35233033 0
-0.6851846 -0.37151659 -0.35457867 0
-0.76401627 0.46740723 -0.34491336 0
-0.74667746 0.3686319 -0.34691373 0
-0.66515613 0.256594 -0.35158315 0
-0.66384029 0.129161 -0.35139605 0
-0.65386242 0.051716208 -0.35377604 0
-0.6596725 -0.019984722 -0.35301703 0
-0.66049278 -0.18459964 -0.35527542 0
-0.553774 -0.37605333 -0.35371432 0
-0.54639858 -0.43904006 -0.35776651 0
-0.68820024 0.46919155 -0.34930855 0
-0.68006074 0.3591311 -0.34935766 0
-0.65356767 0.26730198 -0.35419932 0
-0.51806563 -0.054903865 -0.35495085 0
-0.51781297 -0.12831843 -0.35608166 0
-0.53462368 -0.23866355 -0.35440508 0
-0.51019931 -0.29883683 -0.36172128 0
-0.40549979 -0.46918762 -0.35758471 0
-0.53950614 0.40275502 -0.35107416 0
-0.50966692 0.30201572 -0.35627481 0
-0.49910277 0.19795722 -0.35800231 0
-0.48421973 0.10565007 -0.36131892 0
-0.48624855 0.02400279 -0.36132848 0
-0.37791821 -0.22125649 -0.35663489 0
-0.38287929 -0.30432427 -0.3575516 0
-0.39626256 -0.39633393 -0.35716408 0
-0.41456854 0.49570948 -0.34812483 0
-0.40716243 0.44143534 -0.34873307 0
-0.37309137 0.27574891 -0.35407561 0
-0.35921144 0.14281738 -0.35677353 0
-0.35602745 0.029714108 -0.35796815 0
-0.34514526 -0.067833424 -0.36146909 0
-0.35623258 -0.15931427 -0.36039132 0
-0.23212111 -0.33131528 -0.35685664 0
-0.24057364 -0.46453929 -0.35948667 0
-0.36225227 0.40578276 -0.35762995 0
-0.36784211 0.33516151 -0.35565442 0
-0.34186858 0.23254895 -0.3606191 0
-0.20511264 -0.06381309 -0.35750645 0
-0.20024401 -0.15265822 -0.3600255 0
-0.19688642 -0.23415232 -0.36248186 0
-0.23426564 0.46426773 -0.35214096 0
-0.19755533 0.39138079 -0.35887641 0
-0.19817495 0.26241267 -0.35777158 0
-0.17753097 0.17980087 -0.36207703 0
-0.19603834 0.079173326 -0.35828927 0
-0.17737612 0.0074429512 -0.36300188 0
-0.048931539 -0.22448552 -0.36152011 0
-0.08640027 -0.47307467 -0.36056688 0
-0.037574768 0.10305905 -0.35950989 0
-0.024420142 -0.0088586807 -0.36323968 0
-0.03119427 -0.10255086 -0.36303499 0
-0.017528981 -0.15690982 -0.36729848 0
-0.074570864 0.49946749 -0.35381684 0
-0.058259487 0.40890777 -0.35601443 0
-0.032381624 0.29282534 -0.36071074 0
-0.0072876513 0.21891642 -0.36597782 0
0.19072115 0.10191321 -0.36671925 0
0.15802154 0.47506207 -0.36064646 0
0.1734964 0.34843373 -0.36292672 0
0.1906282 0.16049361 -0.36643547 0
-0.08161515 -0.33394217 -0.35682788 0
-0.093792558 -0.42304134 -0.35686493 0
0.074620724 -0.48343015 -0.35303628 0
0.12554404 -0.19789588 -0.35633156 0
0.1361874 -0.27467859 -0.36085212 0
0.10160017 -0.38430095 -0.35594758 0
0.16065478 0.24178588 -0.3597931 0
0.16462076 0.016041398 -0.36148846 0
0.14904088 -0.086822629 -0.35952747 0
0.29799885 -0.43857121 -0.35469326 0
0.1395925 0.39361554 -0.35592198 0
0.32604203 -0.1495527 -0.35296381 0
0.32593429 -0.23801875 -0.3550784 0
0.32976365 -0.3292731 -0.35861051 0
0.3528474 0.27861845 -0.35549721 0
0.37819898 0.14829063 -0.36102384 0
0.36259988 0.073256969 -0.35782275 0
0.37713468 -0.01827395 -0.36235973 0
0.3502059 0.49164957 -0.3564513 0
0.36478952 0.39248395 -0.358706 0
0.38114637 0.22783685 -0.36159232 0
0.5566873 -0.28051341 -0.35708559 0
0.52777636 -0.39555037 -0.35327443 0
0.54863805 -0.48170614 -0.36074015 0
0.57552063 0.218243 -0.35413712 0
0.58229059 0.15272009 -0.35570908 0
0.57602125 0.040952325 -0.35540557 0
0.54756916 -0.075834036 -0.35055348 0
0.5723511 -0.17070305 -0.35816363 0
0.55248713 0.43403327 -0.35002306 0
0.58256489 0.33804798 -0.35595563 0
0.76968282 -0.21617198 -0.35153615 0
0.7817018 -0.32311571 -0.35661456 0
0.78857458 -0.42463052 -0.360809 0
0.77823883 -0.49419105 -0.36037534 0
0.81383806 0.036475301 -0.35813925 0
0.80221772 -0.040274143 -0.35633913 0
0.78457379 -0.12672436 -0.35348853 0
0.76740211 0.47829914 -0.34765121 0
0.79800189 0.41299784 -0.35369441 0
0.78737056 0.29025126 -0.35089782 0
0.81199253 0.18907666 -0.35651955 0
0.82191032 0.1140821 -0.35931924 0
-0.97658432 -0.46676588 -0.34554049 0
-0.96279562 -0.032824874 -0.34616894 0
-0.94769931 -0.11055362 -0.3489705 0
-0.93957615 -0.22354627 -0.35087118 0
-0.93426847 -0.33376956 -0.35300776 0
-0.93281817 -0.39516997 -0.35426265 0
-0.9992072 0.36886632 -0.34652126 0
-0.95994914 0.26248419 -0.35169679 0
-0.94988203 0.16728121 -0.35172975 0
-0.91646093 0.11260116 -0.34697035 0
-0.8683362 -0.0071897507 -0.34475201 0
-0.8297112 -0.10339797 -0.35240635 0
-0.8296814 -0.19904065 -0.35245627 0
-0.81835079 -0.28833187 -0.35556909 0
-0.83942759 -0.39296949 -0.35214561 0
-0.9379409 0.49106818 -0.34189242 0
-0.89745891 0.40879565 -0.34724969 0
-0.87438565 0.31572551 -0.34932432 0
-0.8663007 0.21706688 -0.34870374 0
-0.79758573 0.12122279 -0.34697157 0
-0.78866076 0.015149236 -0.35103434 0
-0.72625023 -0.093789697 -0.3528643 0
-0.7193073 -0.18909216 -0.35439622 0
-0.73411351 -0.29614294 -0.35177168 0
-0.71668631 -0.37932336 -0.35676157 0
-0.73004258 -0.46276176 -0.35520589 0
-0.77437943 0.40278393 -0.35103565 0
-0.75112957 0.30657631 -0.3532908 0
-0.72411156 0.24377584 -0.35740995 0
-0.72862744 0.08058393 -0.35371292 0
-0.72022671 -0.016428947 -0.35453266 0
-0.59776312 -0.17421639 -0.35331234 0
-0.58065414 -0.3648454 -0.35876951 0
-0.67729336 0.43649346 -0.34555569 0
-0.62137973 0.33139926 -0.35422841 0
-0.62983412 0.23615915 -0.35037011 0
-0.61644202 0.16008186 -0.35177064 0
-0.59825677 0.064661264 -0.35430643 0
-0.59283483 -0.012324452 -0.35476187 0
-0.57346368 -0.15467393 -0.35870212 0
-0.6205343 0.41802382 -0.35652646 0
-0.42952922 0.0050849915 -0.36077371 0
-0.49524802 0.42736953 -0.35426554 0
-0.46142393 0.29920971 -0.35812068 0
-0.43339232 0.1752342 -0.36173519 0
-0.25912809 0.20444238 -0.36779293 0
-0.62720126 -0.49278867 -0.35027167 0
-0.60583222 -0.27951992 -0.35204965 0
-0.60935259 -0.082536578 -0.35083833 0
-0.47687346 -0.34519625 -0.35116863 0
-0.44363579 -0.43157673 -0.36005268 0
-0.48126248 0.20244873 -0.35212439 0
-0.46171457 0.067806125 -0.35441059 0
-0.43931141 -0.052817225 -0.35838339 0
-0.44792894 -0.11739552 -0.35637709 0
-0.46665162 -0.20936453 -0.3524318 0
-0.43903556 -0.27307761 -0.35898647 0
-0.44333723 -0.38141811 -0.35929441 0
-0.52015191 0.48015386 -0.3507117 0
-0.49505168 0.36478764 -0.35269853 0
-0.29958898 -0.20441937 -0.35700166 0
-0.28623444 -0.30554533 -0.36076111 0
-0.32036042 -0.40719819 -0.35433137 0
-0.29809588 -0.47032106 -0.36071974 0
-0.38285899 0.49613881 -0.34880948 0
-0.33683357 0.39124751 -0.35525164 0
-0.30471346 0.3243956 -0.36037043 0
-0.29038623 0.2365607 -0.36172837 0
-0.28959998 0.12528324 -0.36034188 0
-0.29068524 0.027174473 -0.35923421 0
-0.27273434 -0.074817419 -0.36272612 0
-0.16594857 -0.36942339 -0.35683173 0
-0.13415289 -0.43245244 -0.36527866 0
-0.32298201 0.46967715 -0.36012292 0
-0.15784895 0.14129126 -0.35801387 0
-0.13435122 0.032100558 -0.36204693 0
-0.12498891 -0.054853201 -0.36375374 0
-0.1224041 -0.14025974 -0.36445272 0
-0.14760083 -0.24445915 -0.35950956 0
-0.19304743 0.47008747 -0.35698193 0
-0.16182488 0.36348403 -0.36083311 0
-0.14492404 0.23958683 -0.36210307 0
-0.1388202 0.091125369 -0.36155328 0
0.034079045 -0.30243409 -0.36035705 0
0.0048388243 -0.43371141 -0.35573488 0
-0.011323214 0.40214545 -0.35441059 0
0.015400529 0.28518724 -0.35775492 0
0.012501091 0.21442771 -0.3560755 0
0.017889738 0.084880948 -0.35577813 0
0.029239923 -0.0030955076 -0.35770768 0
0.042618513 -0.11798656 -0.36072832 0
0.04585138 -0.20717716 -0.36198166 0
0.17740881 -0.49518943 -0.35179728 0
0.011925638 0.35236639 -0.35823435 0
0.063091666 0.18546045 -0.36645269 0
0.21351236 -0.22437012 -0.35584939 0
0.22732249 -0.2774905 -0.35959449 0
0.22068322 -0.37377191 -0.35953787 0
0.189459 0.42928213 -0.35497323 0
0.19119924 0.36281824 -0.35403815 0
0.20387504 0.23073363 -0.35462531 0
0.2322 0.14894569 -0.35975584 0
0.25711983 0.027624011 -0.36446753 0
0.24468601 -0.078599811 -0.36186671 0
0.22736135 -0.15614498 -0.35841161 0
0.22609234 0.3124181 -0.36050335 0
0.42072091 -0.16356492 -0.3540951 0
0.43858486 -0.27964091 -0.35923964 0
0.43131024 -0.35045397 -0.35865629 0
0.40876311 -0.43039024 -0.35480714 0
0.41384983 0.26292145 -0.35404384 0
0.42186517 0.082974672 -0.35400963 0
0.43154201 -0.0097681284 -0.35595968 0
0.44090307 -0.083537817 -0.35820314 0
0.44296575 -0.21611595 -0.35951015 0
0.39344886 0.46565032 -0.3532424 0
0.43784657 0.38819921 -0.3610642 0
0.46359444 0.22274899 -0.36414215 0
0.60534376 -0.22262979 -0.3489801 0
0.64351463 -0.26586592 -0.35783443 0
0.63571346 -0.38173103 -0.35719427 0
0.62683749 0.3169868 -0.35499871 0
0.60271531 0.21951413 -0.34860545 0
0.63768899 0.1242882 -0.35550493 0
0.62360668 0.010139823 -0.35230932 0
0.64515972 -0.088491559 -0.35739622 0
0.61430466 0.42137802 -0.35400516 0
0.86743009 0.16922426 -0.34773961 0
0.86486071 -0.030595541 -0.34599608 0
0.90851623 -0.24529576 -0.35611629 0
0.9059338 -0.36336422 -0.35651579 0
0.91215169 -0.43772376 -0.35884362 0
0.84156513 0.49398005 -0.34736264 0
0.84081662 0.40328181 -0.34558943 0
0.85255778 0.27985287 -0.34599856 0
0.8849684 0.10045457 -0.35100332 0
0.93730581 -0.10386419 -0.36193627 0
-0.97220415 -0.34194529 -0.35111889 0
-0.97463745 -0.4582113 -0.34977233 0
-0.99469548 0.054807425 -0.34882915 0
-0.98555529 -0.053194642 -0.34717047 0
-0.94272816 -0.21405804 -0.34858143 0
-0.84827685 -0.42722261 -0.35533619 0
-0.99687141 0.45174009 -0.34239739 0
-0.99303246 0.35958892 -0.34856927 0
-0.95663702 0.27888066 -0.35184026 0
-0.94888544 0.17310405 -0.34893507 0
-0.89856195 0.056568742 -0.35444701 0
-0.89609134 -0.071439147 -0.35106346 0
-0.88207775 -0.13584471 -0.35232332 0
-0.86153674 -0.24005461 -0.3545042 0
-0.858473 -0.31451738 -0.35410488 0
-0.79041618 -0.40530586 -0.35660887 0
