# .PCD v0.7 - Point Cloud Data file format
VERSION 0.7
FIELDS x y z intensity
SIZE 4 4 4 4
TYPE F F F F
COUNT 1 1 1 1
WIDTH 1293
HEIGHT 1
VIEWPOINT 0 0 0 1 0 0 0
POINTS 1293
DATA ascii
0.65892029 0.24478912 -0.36411905 0
0.76616192 0.2391777 -0.36433649 0
0.83539391 0.23886395 -0.36295271 0
0.95989704 0.24942017 -0.36484337 0
0.46446562 0.33178425 -0.35927916 0
0.56007004 0.35401821 -0.36320114 0
0.66444683 0.33793163 -0.36527491 0
0.75220346 0.33297825 -0.3605361 0
0.84904385 0.31947041 -0.35974407 0
0.9501462 0.34964275 -0.3650775 0
0.45944738 0.43481827 -0.35404921 0
0.57254505 0.4500742 -0.35909414 0
0.66903925 0.43217754 -0.36250544 0
0.75421619 0.44753361 -0.35691595 0
0.86408377 0.43121624 -0.36219168 0
0.38837433 -0.48246479 -0.37153101 0
0.5111804 -0.47866631 -0.37202883 0
0.62672758 -0.48273563 -0.36975193 0
0.712605 -0.46597195 -0.36944342 0
0.81537819 -0.48088837 -0.37090063 0
0.92366171 -0.45228958 -0.37010574 0
0.4328413 -0.37367916 -0.37218809 0
0.51260281 -0.39014053 -0.36947346 0
0.62198114 -0.37739658 -0.36876631 0
0.74444532 -0.35095406 -0.37294054 0
0.82206774 -0.39138794 -0.36819983 0
0.94050312 -0.37981129 -0.37154007 0
0.42833948 -0.27664185 -0.37211084 0
0.51170111 -0.25106049 -0.37244987 0
0.62566233 -0.27486134 -0.37150812 0
0.74301386 -0.28282356 -0.37009382 0
0.84242868 -0.28405857 -0.3699894 0
0.95200539 -0.29326248 -0.37174082 0
0.44918203 -0.16300583 -0.37438631 0
0.51644278 -0.16735935 -0.37170315 0
0.59239054 -0.17761612 -0.37110186 0
0.71124983 -0.18474865 -0.37235403 0
0.84649372 -0.18725491 -0.36890316 0
0.95959282 -0.19377708 -0.37144041 0
0.44999599 -0.083259583 -0.37349939 0
0.52373219 -0.05743885 -0.37228489 0
0.61031532 -0.095892906 -0.36780214 0
0.71127272 -0.07641983 -0.37243605 0
0.81810808 -0.089576721 -0.37080383 0
0.96620226 -0.083014488 -0.37203741 0
0.4391284 0.029751778 -0.37092543 0
0.51942492 0.048006058 -0.37152004 0
0.62342453 0.016201019 -0.36967373 0
0.75629473 0.011742592 -0.3701911 0
0.82829571 0.027193069 -0.37165451 0
0.9593792 -0.0048780441 -0.37042665 0
0.9796133 0.064543724 -0.37551832 0
0.43799973 0.13529491 -0.37192726 0
0.52671528 0.15141678 -0.3744669 0
0.62347078 0.13130856 -0.36920595 0
0.72989321 0.096521378 -0.37108946 0
0.83805943 0.12513351 -0.36763096 0
0.96447563 0.1183157 -0.37278318 0
0.43442917 0.22520065 -0.37320137 0
0.51047421 0.21229935 -0.37232304 0
0.60155773 0.2285471 -0.37096119 0
0.73062706 0.20527744 -0.36734676 0
0.8354969 0.23866177 -0.36935234 0
0.94744873 0.22589493 -0.3711524 0
0.40748453 0.31866264 -0.3706069 0
0.50593185 0.30965042 -0.37423086 0
0.6233139 0.32285786 -0.37233877 0
0.70927668 0.28975487 -0.36530495 0
0.82924938 0.32909584 -0.37058306 0
0.92402411 0.32658863 -0.36899185 0
0.35852528 0.4700222 -0.36585379 0
0.41876078 0.42527771 -0.36574697 0
0.53649759 0.40826225 -0.37171936 0
0.63447046 0.43002701 -0.37184763 0
0.70697165 0.40721893 -0.36906099 0
0.82604265 0.41874886 -0.36510277 0
0.91490841 0.39854908 -0.36953402 0
0.98208904 0.47033119 -0.36397409 0
0.4268856 -0.47485352 -0.35971022 0
0.51087952 -0.49627972 -0.35591078 0
0.60720348 -0.47613049 -0.36324596 0
0.7384305 -0.49659348 -0.36148977 0
0.82763863 -0.48293877 -0.35469532 0
0.97801971 -0.49235916 -0.35987854 0
0.49699831 -0.37908459 -0.36301994 0
0.64075708 -0.38464451 -0.35805798 0
0.74323797 -0.4190731 -0.3585639 0
0.76111698 -0.34470463 -0.36039782 0
0.86824608 -0.36764717 -0.36079311 0
0.98896551 -0.38775063 -0.35797405 0
0.44946671 -0.30996227 -0.35780334 0
0.54998064 -0.27261162 -0.35693693 0
0.59240532 -0.30347443 -0.36034632 0
0.71480179 -0.29476833 -0.36043501 0
0.81449223 -0.27370071 -0.35779572 0
0.88266373 -0.29862499 -0.36222458 0
0.45443249 -0.20125008 -0.35625362 0
0.49158096 -0.20800591 -0.35967255 0
0.5810113 -0.14727783 -0.36236811 0
0.67693615 -0.18004322 -0.36164284 0
0.77194166 -0.2037344 -0.35932255 0
0.90538216 -0.1751852 -0.36527824 0
0.4449091 -0.099902153 -0.35292482 0
0.51385307 -0.10407639 -0.35763597 0
0.57404041 -0.11367512 -0.36028624 0
0.66939545 -0.1053524 -0.35894156 0
0.77460718 -0.097363472 -0.35891819 0
0.87883234 -0.11811161 -0.35811138 0
0.48880816 -0.001616478 -0.35766172 0
0.59961987 0.00054931641 -0.35840702 0
0.67584801 0.0065078735 -0.3605752 0
0.78129959 0.026871681 -0.36079597 0
0.88319635 0.0037727356 -0.35941029 0
0.444592 0.097493172 -0.35462618 0
0.52064896 0.13052464 -0.36101151 0
0.62208223 0.11481953 -0.3610096 0
0.75518131 0.11561012 -0.35625935 0
0.87252378 0.11874962 -0.35854387 0
0.46119213 0.24715996 -0.36180973 0
0.51105261 0.22610474 -0.36465549 0
0.6308136 0.21094608 -0.35966301 0
0.74551535 0.2523489 -0.35753489 0
0.80534935 0.22280884 -0.35798025 0
0.86770058 0.19498158 -0.35910797 0
0.41633511 0.31550312 -0.35526228 0
0.53562021 0.32444191 -0.35951662 0
0.63192225 0.31159973 -0.35794497 0
0.72021103 0.30380249 -0.35420275 0
0.84917831 0.30732536 -0.35856962 0
0.98496246 0.32055092 -0.36001778 0
0.35466528 0.42983723 -0.34751797 0
0.41192293 0.43969917 -0.3588357 0
0.49131584 0.41094208 -0.35376263 0
0.61074877 0.39396954 -0.36354589 0
0.71069193 0.42767525 -0.3572607 0
0.8165493 0.40919685 -0.35610294 0
0.92826176 0.42981052 -0.35322094 0
0.96847963 0.38728809 -0.35915089 0
-0.56028605 -0.47973061 -0.40381336 0
-0.47300243 -0.48796177 -0.40089226 0
-0.38262653 -0.48068047 -0.39759254 0
-0.56121397 -0.38529873 -0.40137434 0
-0.47219324 -0.39484215 -0.39943314 0
-0.37166071 -0.39582348 -0.39444685 0
-0.55829287 -0.28887749 -0.39695215 0
-0.45631742 -0.29134274 -0.3985424 0
-0.37885141 -0.295784 -0.39525127 0
-0.56345367 -0.18886948 -0.39396334 0
-0.46589327 -0.18847275 -0.39738083 0
-0.38204241 -0.19440556 -0.39433479 0
-0.55376005 -0.06264019 -0.39350748 0
-0.46983671 -0.093137741 -0.39416504 0
-0.37943935 -0.084209442 -0.39511871 0
-0.56719971 0.02844429 -0.38792276 0
-0.46902466 0.01406002 -0.39277935 0
-0.39139414 -0.0049581528 -0.39521456 0
-0.5699811 0.12434864 -0.38502789 0
-0.45706511 0.11339664 -0.39027119 0
-0.36978054 0.095554352 -0.3927784 0
-0.62245941 0.22827339 -0.37605429 0
-0.55632114 0.21931839 -0.38302088 0
-0.46547222 0.21307373 -0.38491726 0
-0.63091707 0.32189846 -0.37479162 0
-0.5460391 0.32222462 -0.37818718 0
-0.47545815 0.28364182 -0.38462114 0
-0.64433956 0.41912174 -0.37132311 0
-0.5641427 0.40985203 -0.37488413 0
-0.48878288 0.39595604 -0.37820292 0
-0.57121611 0.47967529 -0.37024689 0
-0.27965593 -0.48258018 -0.39203835 0
-0.16825104 -0.49038029 -0.39513493 0
-0.081685543 -0.475914 -0.39009047 0
0.034675598 -0.49072742 -0.38838577 0
0.13820648 -0.47520638 -0.38736773 0
0.23394156 -0.49270344 -0.38224649 0
-0.35564661 -0.34970474 -0.39066982 0
-0.27116442 -0.39394379 -0.39084625 0
-0.15927267 -0.37929535 -0.39353704 0
-0.078472137 -0.36649513 -0.38870668 0
0.037224293 -0.40478325 -0.3866787 0
0.14038229 -0.39911842 -0.38607788 0
0.2192235 -0.39686298 -0.38072872 0
-0.3502264 -0.29046917 -0.39040852 0
-0.26949072 -0.2816658 -0.39315367 0
-0.17159128 -0.28764343 -0.39056444 0
-0.082484245 -0.27478886 -0.38576126 0
0.048620701 -0.28451633 -0.38596821 0
0.13385487 -0.29777908 -0.38266277 0
0.23520565 -0.28342247 -0.38104582 0
-0.34348726 -0.17175674 -0.38990259 0
-0.27395439 -0.19173717 -0.39277935 0
-0.17260027 -0.18538952 -0.38959026 0
-0.073204517 -0.1674633 -0.38797665 0
0.02432251 -0.19236565 -0.38415766 0
0.17254162 -0.17345047 -0.38540983 0
0.25525999 -0.17698002 -0.3817811 0
-0.331635 -0.070302963 -0.39189672 0
-0.27430487 -0.081116676 -0.39039755 0
-0.16306067 -0.094305038 -0.38824177 0
-0.067104816 -0.071989059 -0.38756895 0
0.04912138 -0.091671944 -0.38548946 0
0.13813162 -0.08804512 -0.38212061 0
0.22955084 -0.095457077 -0.38189554 0
0.29727459 -0.11412907 -0.3851223 0
-0.37899828 0.013717651 -0.38733053 0
-0.27648544 0.022724152 -0.39098072 0
-0.15996647 0.012928009 -0.38890314 0
-0.061073303 0.01923275 -0.3869915 0
0.059528828 0.011112213 -0.38635969 0
0.16038275 0.0037508011 -0.38243198 0
0.23732948 0.0013017654 -0.38080883 0
0.29688644 -0.025615692 -0.38505268 0
-0.42202568 0.13550282 -0.3805418 0
-0.3599534 0.11929226 -0.38590574 0
-0.26635075 0.1117878 -0.38645935 0
-0.15346813 0.11872387 -0.38696289 0
-0.054586887 0.11057186 -0.3814187 0
0.03164196 0.093080521 -0.38212872 0
0.13636875 0.089494705 -0.38271809 0
0.25091839 0.10629463 -0.38009405 0
-0.41997147 0.25907993 -0.3817687 0
-0.3586297 0.21459293 -0.38368511 0
-0.25298977 0.22041893 -0.38466692 0
-0.15921974 0.20463181 -0.38439083 0
-0.062151432 0.19536114 -0.38311815 0
0.048538208 0.22883797 -0.38316345 0
0.15488672 0.21944427 -0.38068819 0
0.2457509 0.20561981 -0.38462782 0
-0.50837612 0.28733921 -0.37212658 0
-0.46625233 0.32364178 -0.37715769 0
-0.36695957 0.30865192 -0.3792758 0
-0.25636911 0.30588531 -0.3799119 0
-0.15619469 0.31272316 -0.37946701 0
-0.065911293 0.3162775 -0.37904453 0
0.034954071 0.30789375 -0.37727642 0
0.14104176 0.29748535 -0.37833214 0
0.25957346 0.29417706 -0.37966633 0
-0.52690983 0.42313862 -0.37080669 0
-0.4479866 0.42431068 -0.37374067 0
-0.34189177 0.41035366 -0.37733078 0
-0.25285482 0.41848469 -0.37589931 0
-0.14120293 0.40141678 -0.37508392 0
-0.047283649 0.41093445 -0.3728652 0
0.068107605 0.39718437 -0.37473106 0
0.14485264 0.41444206 -0.37375546 0
0.24709082 0.38130093 -0.37803602 0
-0.15409851 0.49271488 -0.37446737 0
0.051712513 0.49980736 -0.36969852 0
0.52386522 -0.46908569 -0.3798275 0
0.63879156 -0.4744873 -0.38214302 0
0.35602617 -0.40262699 -0.3811965 0
0.45592213 -0.40253925 -0.38360929 0
0.52162218 -0.38491726 -0.37816572 0
0.62942648 -0.3943224 -0.3788476 0
0.75107241 -0.37734318 -0.38088751 0
0.86146021 -0.3811245 -0.37819004 0
0.9760499 -0.39540482 -0.37744284 0
0.34972 -0.30807686 -0.37845469 0
0.45666933 -0.29729366 -0.3825779 0
0.53465605 -0.28639889 -0.38046837 0
0.63481188 -0.300951 -0.37940311 0
0.743536 -0.2907238 -0.37846565 0
0.86913872 -0.30131817 -0.37955141 0
0.979105 -0.29057026 -0.37767649 0
0.35047817 -0.20789814 -0.37791634 0
0.45655584 -0.17251873 -0.38179445 0
0.53320408 -0.18019867 -0.37962866 0
0.63214254 -0.18911076 -0.37830973 0
0.74437189 -0.19661999 -0.37838602 0
0.87336683 -0.20047188 -0.38026905 0
0.9850831 -0.18456745 -0.37891865 0
0.36894751 -0.10968971 -0.38204718 0
0.45677328 -0.067417145 -0.38175535 0
0.51930285 -0.083159447 -0.37633896 0
0.63616848 -0.07102108 -0.37927341 0
0.73241091 -0.1162529 -0.37555313 0
0.86625242 -0.088005066 -0.37866068 0
0.99621677 -0.092556 -0.38160086 0
0.36331081 -0.0087385178 -0.38094282 0
0.45177794 0.016469002 -0.38089752 0
0.54447794 0.016480446 -0.38250208 0
0.6467557 0.036878586 -0.38215303 0
0.75401402 0.0084152222 -0.38101673 0
0.86246204 0.012986183 -0.37826777 0
0.97796774 0.017106056 -0.37793684 0
0.35842609 0.094670296 -0.38051414 0
0.46080589 0.1109705 -0.37722254 0
0.54689646 0.10851192 -0.38369226 0
0.62737608 0.11306095 -0.37833261 0
0.7352066 0.088938713 -0.37722921 0
0.86690474 0.1022625 -0.37992096 0
0.97996426 0.13148022 -0.37932205 0
0.35195255 0.19680882 -0.38025522 0
0.46129608 0.20294094 -0.38470459 0
0.52015209 0.2171545 -0.37889433 0
0.63336849 0.21685123 -0.3807745 0
0.73446321 0.18824196 -0.37804127 0
0.86451101 0.20931721 -0.38044596 0
0.9917388 0.23076057 -0.38299274 0
0.34244013 0.33203602 -0.3798914 0
0.44811583 0.30937099 -0.38329315 0
0.51917076 0.28701019 -0.37970495 0
0.64508677 0.29559994 -0.37620735 0
0.7174325 0.2724905 -0.37530708 0
0.8471632 0.32060242 -0.37798357 0
0.96932888 0.29281139 -0.37878132 0
0.1936245 0.44843769 -0.36755323 0
0.20268106 0.40878487 -0.36880493 0
0.31035328 0.41963673 -0.37414455 0
0.45104694 0.40744591 -0.37591648 0
0.56513834 0.38904953 -0.37407875 0
0.72481966 0.41025066 -0.37908411 0
0.83533716 0.41963577 -0.37693787 0
0.9490695 0.41000271 -0.37607527 0
0.18114328 0.48617268 -0.36560869 0
0.44337654 0.49198151 -0.37259722 0
0.5362587 0.46712685 -0.36333275 0
0.67266512 0.48513985 -0.36908436 0
-0.92096281 -0.4708786 -0.40308905 0
-0.92778444 -0.36639309 -0.40003967 0
-0.85279846 -0.38143063 -0.4064846 0
-0.91819 -0.26340961 -0.39762354 0
-0.85073137 -0.26717567 -0.40016937 0
-0.92462683 -0.17190361 -0.39397478 0
-0.84737587 -0.16254044 -0.39529943 0
-0.91049242 -0.074112892 -0.38835335 0
-0.84622097 -0.051095963 -0.39218855 0
-0.9138236 0.029540062 -0.38648415 0
-0.83833599 0.049196243 -0.38760424 0
-0.90954161 0.13296127 -0.38038635 0
-0.84552193 0.12199116 -0.38444376 0
-0.9214077 0.23248005 -0.37673235 0
-0.83847618 0.23974991 -0.38062668 0
-0.90916634 0.33223057 -0.37423563 0
-0.84283781 0.29974365 -0.37768936 0
-0.99915791 0.43078423 -0.36672068 0
-0.90970516 0.43074512 -0.36789799 0
-0.84248257 0.42246437 -0.3742156 0
-0.87056971 -0.43126392 -0.3950386 0
-0.81773472 -0.45760822 -0.40327406 0
-0.72208929 -0.46930218 -0.40429115 0
-0.60387945 -0.47904491 -0.40425825 0
-0.81903219 -0.36987877 -0.39844084 0
-0.70333576 -0.3741312 -0.40047407 0
-0.59134197 -0.36599731 -0.40287781 0
-0.54480743 -0.36551762 -0.40667963 0
-0.80234718 -0.26747704 -0.39732027 0
-0.7107091 -0.26232243 -0.39791489 0
-0.60318089 -0.27194786 -0.39887047 0
-0.7963624 -0.16170883 -0.39493132 0
-0.70776701 -0.17564964 -0.39526272 0
-0.59789228 -0.17180538 -0.39527893 0
-0.79274559 -0.067085266 -0.39043665 0
-0.70838404 -0.072451591 -0.39196157 0
-0.61355639 -0.08745575 -0.39306211 0
-0.53484488 -0.084913254 -0.39637566 0
-0.79870319 0.027983665 -0.38555384 0
-0.70166302 0.035372734 -0.38775349 0
-0.59830379 0.013137817 -0.38582182 0
-0.52209949 0.045966148 -0.39407778 0
-0.78569317 0.13626862 -0.384552 0
-0.6962657 0.12465096 -0.382586 0
-0.58967113 0.12832737 -0.38421822 0
-0.79054165 0.2329998 -0.37827206 0
-0.69472075 0.22898388 -0.37951803 0
-0.59976673 0.23355579 -0.37979174 0
-0.50936079 0.23175526 -0.38983583 0
-0.79873228 0.3334322 -0.37244606 0
-0.68636513 0.32113171 -0.37760925 0
-0.58583832 0.32509708 -0.37712765 0
-0.53452921 0.28059101 -0.38102674 0
-0.85015488 0.41521263 -0.36445189 0
-0.7896018 0.42117023 -0.36894369 0
-0.68664026 0.42364407 -0.371912 0
-0.58924198 0.4174614 -0.37294102 0
-0.53028584 0.37589073 -0.37868023 0
-0.5240612 0.47999954 -0.3767519 0
-0.50067711 -0.48165607 -0.40124416 0
-0.38900232 -0.49247932 -0.39874887 0
-0.31375885 -0.47600079 -0.39694214 0
-0.50008059 -0.38049507 -0.39913893 0
-0.38811922 -0.38452911 -0.39749432 0
-0.31189394 -0.38142109 -0.39362955 0
-0.49028778 -0.2781496 -0.39688301 0
-0.3788271 -0.27824497 -0.39599276 0
-0.30888224 -0.28340721 -0.39053917 0
-0.48562098 -0.17386246 -0.39780664 0
-0.39395905 -0.1948967 -0.39362144 0
-0.28542662 -0.16732407 -0.39253712 0
-0.47415972 -0.080189705 -0.39488125 0
-0.39544725 -0.079346657 -0.39475727 0
-0.30239153 -0.074119568 -0.39256477 0
-0.48175764 0.02096653 -0.38995171 0
-0.38477325 0.020462036 -0.38969517 0
-0.29608727 0.013360977 -0.38991737 0
-0.47987795 0.11888504 -0.3853817 0
-0.38440418 0.11138439 -0.38659668 0
-0.27636385 0.13262272 -0.39033175 0
-0.4710722 0.22181034 -0.38356638 0
-0.3911972 0.21932507 -0.38320017 0
-0.27864981 0.21335506 -0.38476181 0
-0.4784441 0.31265163 -0.37605476 0
-0.3813386 0.32240868 -0.37741852 0
-0.2861371 0.31925869 -0.38062143 0
-0.47190762 0.42119789 -0.37379456 0
-0.36842537 0.42221642 -0.37510681 0
-0.26382351 0.42551613 -0.37385368 0
-0.27001095 -0.48115349 -0.39542532 0
-0.18258667 -0.49051666 -0.38953829 0
-0.074435711 -0.48886776 -0.38777018 0
-0.27557087 -0.38955402 -0.39028168 0
-0.18005228 -0.39023495 -0.39231586 0
-0.084490776 -0.38207054 -0.38812685 0
-0.26988029 -0.29208088 -0.38810492 0
-0.17838669 -0.29739761 -0.39052868 0
-0.059648514 -0.28672886 -0.38734865 0
-0.25041103 -0.17912674 -0.38916016 0
-0.163414 -0.18184566 -0.38906002 0
-0.040050983 -0.19261646 -0.38642931 0
-0.0066304207 -0.17570019 -0.38950825 0
-0.23747349 -0.073245049 -0.38867426 0
-0.17912054 -0.071626663 -0.388937 0
-0.060679913 -0.084554672 -0.39064264 0
-0.0050973892 -0.10779285 -0.38724375 0
-0.22721958 0.0010890961 -0.38865376 0
-0.18424654 0.026019096 -0.38898849 0
-0.086779118 0.010262489 -0.38828802 0
0.02008152 0.0033683777 -0.38968611 0
-0.22862387 0.12786865 -0.38284159 0
-0.15976715 0.11135006 -0.38658857 0
-0.053033352 0.097874641 -0.38562727 0
0.011191845 0.095241547 -0.38319159 0
-0.18280745 0.21728516 -0.38372278 0
-0.07811594 0.2085619 -0.38075542 0
0.0074591637 0.17979336 -0.37819815 0
-0.17070055 0.30901051 -0.38030672 0
-0.050868988 0.31392002 -0.3798399 0
0.029793739 0.29937935 -0.37872982 0
-0.22692156 0.3785696 -0.3722868 0
-0.17098188 0.41620731 -0.37812805 0
-0.058434486 0.4144783 -0.37464094 0
0.023540497 0.4250555 -0.37048531 0
0.036025524 -0.49913597 -0.38341522 0
0.24499416 -0.47997284 -0.38691521 0
0.040884972 -0.37225914 -0.38650894 0
0.14704323 -0.39281845 -0.38341904 0
0.24587584 -0.39495373 -0.38447332 0
0.048112869 -0.26714516 -0.3887682 0
0.14338589 -0.29120064 -0.38433695 0
0.24675417 -0.3010788 -0.38142729 0
0.049752235 -0.19235611 -0.38636494 0
0.13644361 -0.20210075 -0.3812232 0
0.26417923 -0.18955326 -0.3819418 0
0.047951221 -0.10772896 -0.38247204 0
0.13148117 -0.081109047 -0.38389254 0
0.24193764 -0.092200279 -0.38420773 0
0.076807022 -0.0081834793 -0.38634968 0
0.1567235 0.017594337 -0.38671017 0
0.26067829 0.003991127 -0.38086891 0
0.081624508 0.082091331 -0.38369894 0
0.15586567 0.10152245 -0.38256168 0
0.23603153 0.10443115 -0.38196135 0
0.32209826 0.12146854 -0.38395596 0
0.082497597 0.2283392 -0.37692547 0
0.12928438 0.20136642 -0.38450956 0
0.2507267 0.19110584 -0.38175201 0
0.32049227 0.19154739 -0.37966728 0
0.093888283 0.29759979 -0.37668467 0
0.17263508 0.28545761 -0.37812567 0
0.26035309 0.29604053 -0.37891769 0
0.33819723 0.30846119 -0.37827158 0
0.095846653 0.36019611 -0.37397099 0
0.16477108 0.40931797 -0.3765831 0
0.27071333 0.41161251 -0.37547588 0
0.33713865 0.41312218 -0.37184095 0
0.15915251 0.49482822 -0.37158298 0
0.33703709 0.47677708 -0.36788607 0
0.34226799 -0.40514565 -0.38065577 0
0.46567106 -0.40068436 -0.38032866 0
0.52089167 -0.38269424 -0.38073635 0
0.33160257 -0.29176807 -0.38032675 0
0.42297029 -0.30345631 -0.37935066 0
0.5345459 -0.28616428 -0.38094807 0
0.34648943 -0.20131874 -0.38088322 0
0.46238136 -0.20480633 -0.37665701 0
0.55423594 -0.20336151 -0.38304806 0
0.36617851 -0.085269928 -0.38133144 0
0.44695568 -0.1294241 -0.37874413 0
0.5574832 -0.10015869 -0.37919664 0
0.37509584 0.012830734 -0.3791151 0
0.47307587 -0.0015411377 -0.37992811 0
0.57669067 -0.0225811 -0.38077927 0
0.38936472 0.101717 -0.3785429 0
0.48693895 0.10393238 -0.37817097 0
0.58823156 0.085884094 -0.3779912 0
0.40120411 0.1878252 -0.37710905 0
0.5022192 0.19557571 -0.37718058 0
0.61323261 0.20702076 -0.37785959 0
0.45698881 0.28421593 -0.37798595 0
0.5849371 0.30650425 -0.37879324 0
0.64674044 0.33779335 -0.37901783 0
0.41824532 0.38957882 -0.36996508 0
0.43672037 0.36486053 -0.37706423 0
0.57017231 0.40433311 -0.37334347 0
0.65432787 0.38656712 -0.37768078 0
0.4501605 0.49153233 -0.37317848 0
0.60738611 -0.398139 -0.37812805 0
0.71116447 -0.42158985 -0.37486744 0
0.86738396 -0.40669155 -0.38258219 0
0.62743711 -0.29186344 -0.37974501 0
0.73824406 -0.32799911 -0.37888622 0
0.87138224 -0.31318855 -0.38005161 0
0.63812065 -0.19728088 -0.3786726 0
0.75958014 -0.22391033 -0.38052368 0
0.87706137 -0.22121239 -0.37734699 0
0.63750172 -0.11562157 -0.37453318 0
0.7764616 -0.1213789 -0.38040209 0
0.90536833 -0.13020515 -0.38069773 0
0.67319632 -0.016904831 -0.37970066 0
0.78657866 -0.024242401 -0.37802935 0
0.92652082 -0.0043916702 -0.37945843 0
0.68204689 0.068097115 -0.37729836 0
0.79583311 0.06185627 -0.37544298 0
0.93460226 0.083703041 -0.37617064 0
0.71169043 0.19839954 -0.3777132 0
0.83136892 0.18325424 -0.37803888 0
0.73462725 0.33855247 -0.37438154 0
0.74739981 0.3115797 -0.38066006 0
0.8535285 0.28786373 -0.37697124 0
0.76231337 0.41187382 -0.37732649 0
0.87575817 0.38895988 -0.37559175 0
0.90351963 0.47670078 -0.37680292 0
0.99320602 -0.40034485 -0.37789536 0
0.96186352 0.18050957 -0.37763929 0
-0.99935484 -0.40773678 -0.42139387 0
-0.9876771 -0.30385971 -0.42245865 0
-0.96963024 -0.20077038 -0.41996098 0
-0.97155666 -0.10431671 -0.41225433 0
-0.96833324 0.0050439835 -0.40949011 0
-0.95423222 0.10234547 -0.40615702 0
-0.95481968 0.1995163 -0.40078545 0
-0.94821072 0.31244755 -0.39615011 0
-0.93982983 0.39927006 -0.39126873 0
-0.944664 0.49180794 -0.38780546 0
-0.94291353 -0.49673939 -0.42739964 0
-0.76896763 -0.49253368 -0.42791796 0
-0.93786097 -0.40845203 -0.4228673 0
-0.8507247 -0.40270519 -0.42390871 0
-0.75095463 -0.40398312 -0.42573833 0
-0.94059086 -0.3307066 -0.42175722 0
-0.84934473 -0.30754185 -0.4209795 0
-0.74777937 -0.30773258 -0.42148447 0
-0.92343187 -0.18971539 -0.41740561 0
-0.86155653 -0.20737362 -0.42035007 0
-0.74927092 -0.20489693 -0.41793537 0
-0.91531181 -0.10926914 -0.41209984 0
-0.85006714 -0.10875511 -0.41154623 0
-0.74714994 -0.095172882 -0.41581059 0
-0.91738272 0.00669384 -0.40646696 0
-0.85409975 -0.014383316 -0.40947008 0
-0.73956156 0.0011301041 -0.41098928 0
-0.66288233 0.036910057 -0.41896105 0
-0.90676403 0.094800949 -0.40424204 0
-0.84281254 0.084776878 -0.40681696 0
-0.7401762 0.085762978 -0.40759897 0
-0.9014473 0.21852875 -0.39857531 0
-0.84061813 0.18782997 -0.40291643 0
-0.72708082 0.1852026 -0.40138292 0
-0.6664567 0.14665318 -0.41061449 0
-0.89812756 0.27606964 -0.39631462 0
-0.85131884 0.29191685 -0.39814663 0
-0.74384642 0.29436588 -0.39951515 0
-0.66309404 0.2967205 -0.4017601 0
-0.83895254 0.39307022 -0.39208174 0
-0.7336607 0.39988232 -0.3956213 0
-0.66726017 0.38496971 -0.39769077 0
-0.82052231 0.4868536 -0.38788223 0
-0.72886515 0.48901749 -0.39110231 0
-0.6534853 0.49182701 -0.39147472 0
-0.47306824 -0.49867916 -0.43100309 0
-0.70426321 -0.40938663 -0.42431211 0
-0.62078667 -0.42201424 -0.42419195 0
-0.5241375 -0.41791725 -0.42403078 0
-0.69775534 -0.34544754 -0.42229795 0
-0.64249897 -0.30975342 -0.42255878 0
-0.5261693 -0.3093853 -0.42326784 0
-0.46511745 -0.33941746 -0.42450142 0
-0.63919067 -0.20626068 -0.42168427 0
-0.53633833 -0.20769691 -0.41971588 0
-0.4472928 -0.23087502 -0.42338991 0
-0.68307543 -0.08082962 -0.40976334 0
-0.628479 -0.11521816 -0.41588354 0
-0.52531099 -0.12190437 -0.41883993 0
-0.43179369 -0.12424374 -0.42134047 0
-0.62915182 -0.021401405 -0.41097307 0
-0.51493311 -0.031998634 -0.41218901 0
-0.43582344 -0.035552979 -0.41410828 0
-0.62351608 0.093996048 -0.4089694 0
-0.52002239 0.087851524 -0.40989017 0
-0.4353776 0.063239098 -0.41104031 0
-0.61604643 0.19266796 -0.4025836 0
-0.50955486 0.18375492 -0.40461159 0
-0.4125824 0.17873096 -0.40577078 0
-0.60908461 0.29699802 -0.40182066 0
-0.50921583 0.28375435 -0.4010458 0
-0.41915417 0.27389812 -0.40176582 0
-0.6036725 0.38250256 -0.39631844 0
-0.50497055 0.37255478 -0.39759874 0
-0.40680122 0.38132668 -0.40008736 0
-0.61064768 0.48304749 -0.39020967 0
-0.50530195 0.48733807 -0.39538431 0
-0.41686344 0.48675728 -0.39682293 0
-0.42060852 -0.42855644 -0.42281342 0
-0.32625961 -0.43511009 -0.41558218 0
-0.39671087 -0.33857441 -0.41891384 0
-0.31350613 -0.32985687 -0.41466284 0
-0.39825821 -0.23589134 -0.41911316 0
-0.30250978 -0.21436214 -0.41668701 0
-0.38549042 -0.11670017 -0.41466618 0
-0.30584431 -0.1078558 -0.41589308 0
-0.23349428 -0.12909508 -0.4148283 0
-0.3651371 -0.0052862167 -0.41775846 0
-0.30794716 -0.025763512 -0.4140377 0
-0.21830559 -0.035963058 -0.41316509 0
-0.37058926 0.069927216 -0.41058397 0
-0.27301645 0.065777779 -0.41281796 0
-0.19843054 0.084462166 -0.41043329 0
-0.35839987 0.18174458 -0.40598726 0
-0.29184294 0.16209221 -0.4108429 0
-0.20719481 0.18574619 -0.40601015 0
-0.35584068 0.28727436 -0.40420341 0
-0.29381227 0.2635107 -0.40646267 0
-0.19781494 0.26664257 -0.40561152 0
-0.28512287 0.3743372 -0.39946842 0
-0.18483639 0.36445427 -0.40141916 0
-0.36030006 0.49861813 -0.39730263 0
-0.2907815 0.45879555 -0.39589548 0
-0.150105 0.48694515 -0.398417 0
-0.19716311 -0.42249298 -0.41600657 0
-0.082932949 -0.42486191 -0.41228867 0
-0.028679848 -0.44410419 -0.41474771 0
-0.18686342 -0.32718754 -0.41505146 0
-0.091015816 -0.34504128 -0.41198397 0
-0.015987873 -0.31362724 -0.41107941 0
-0.17542362 -0.23781681 -0.41171265 0
-0.086387157 -0.23457336 -0.41356945 0
0.0087547302 -0.21834373 -0.41250753 0
-0.17592144 -0.13626003 -0.41318893 0
-0.083695889 -0.1391716 -0.4112525 0
0.01809597 -0.12463188 -0.40882206 0
-0.15408134 -0.032844543 -0.4127326 0
-0.06731081 -0.036773682 -0.41091156 0
0.00928545 -0.032847404 -0.40694189 0
-0.13911676 0.079731941 -0.40890217 0
-0.057319164 0.053637505 -0.4084096 0
0.031285286 0.07869339 -0.40899801 0
-0.13082361 0.19163132 -0.40233612 0
-0.080701351 0.1592741 -0.40449524 0
0.02750206 0.15851593 -0.40323639 0
0.08766222 0.11464691 -0.41191339 0
-0.073502541 0.27409458 -0.40012693 0
0.023735046 0.28372478 -0.40067911 0
-0.08647728 0.36140442 -0.3959074 0
0.020820141 0.35237217 -0.39292765 0
-0.071193695 0.47831154 -0.39582634 0
0.019789219 0.44838715 -0.39413738 0
0.025594234 -0.44190311 -0.40802193 0
0.12970066 -0.44181728 -0.4065485 0
0.041900635 -0.33263969 -0.40652132 0
0.1199317 -0.32855892 -0.40466452 0
0.21076012 -0.36376476 -0.41061354 0
0.068821907 -0.23978043 -0.40870905 0
0.13682985 -0.24030399 -0.40396881 0
0.2262888 -0.25472927 -0.40828514 0
0.080834389 -0.15394878 -0.40637302 0
0.16747665 -0.1352663 -0.4058013 0
0.24062777 -0.15383339 -0.40532732 0
0.1095686 -0.042013168 -0.40679026 0
0.24446011 -0.050369263 -0.4065547 0
0.16038513 0.034158707 -0.40292549 0
0.26544905 0.053098679 -0.40574503 0
0.15539837 0.15680027 -0.40408373 0
0.26964951 0.18642521 -0.41058922 0
0.086990833 0.23620319 -0.40049934 0
0.12935925 0.27635479 -0.39725876 0
0.27472639 0.26164818 -0.40457535 0
0.16065168 0.36926365 -0.39849949 0
0.28096151 0.34643745 -0.39767933 0
0.17435741 0.43716145 -0.39599466 0
0.26353931 0.44029808 -0.39142275 0
0.27887011 -0.44883919 -0.40907574 0
0.34974575 -0.47157097 -0.40186977 0
0.27929258 -0.35350418 -0.4035635 0
0.37957859 -0.36153793 -0.40406895 0
0.29084826 -0.2872982 -0.40262794 0
0.36846638 -0.2592268 -0.40380764 0
0.33854246 -0.15015984 -0.40723419 0
0.42950821 -0.14574432 -0.40328074 0
0.354074 -0.049741745 -0.40344143 0
0.47432184 -0.033838272 -0.40797424 0
0.38154507 0.044199944 -0.40357876 0
0.4867115 0.049488068 -0.4035058 0
0.37260914 0.15367126 -0.40504599 0
0.47347021 0.17576027 -0.40297937 0
0.3484993 0.24811935 -0.40258789 0
0.44436884 0.24622631 -0.40294075 0
0.53807783 0.22566319 -0.40097857 0
0.37249517 0.3283453 -0.40228748 0
0.47077847 0.3534584 -0.39972639 0
0.57284975 0.33145618 -0.40020514 0
0.38252831 0.42212391 -0.39495659 0
0.50182819 0.46605873 -0.3974905 0
0.5853138 0.43594265 -0.39237642 0
0.46874142 -0.45245266 -0.40382576 0
0.56858158 -0.45772171 -0.40297318 0
0.68617392 -0.44664764 -0.40225887 0
0.48591948 -0.35726547 -0.40283966 0
0.59026718 -0.33638954 -0.40143442 0
0.70516634 -0.3441658 -0.40085554 0
0.50692415 -0.24214172 -0.40074348 0
0.6079936 -0.25933647 -0.40099287 0
0.7232399 -0.25116253 -0.39891577 0
0.52909422 -0.16528606 -0.4013629 0
0.65104818 -0.15576553 -0.40604639 0
0.55556345 -0.084028244 -0.40249872 0
0.66186762 -0.057524681 -0.39964437 0
0.58636045 0.021204948 -0.40205669 0
0.7244215 0.079340935 -0.40637636 0
0.61720276 0.12261295 -0.40110254 0
0.71895647 0.12780952 -0.39783573 0
0.67708921 0.2557373 -0.40604067 0
0.76283026 0.24309826 -0.39827776 0
0.69984865 0.33026028 -0.40402985 0
0.79468822 0.32732487 -0.39780998 0
0.72409582 0.43425846 -0.39885044 0
0.84682178 0.43492889 -0.40150261 0
0.79510307 -0.48596954 -0.39790869 0
0.83673716 -0.3614502 -0.40199041 0
0.85790443 -0.25948906 -0.39970446 0
0.74662876 -0.16965485 -0.39906502 0
0.88502693 -0.17651367 -0.40029287 0
0.79614115 -0.061347008 -0.40489101 0
0.9195857 -0.086467743 -0.4021039 0
0.82929707 0.047380447 -0.40389252 0
0.97736406 0.050375938 -0.40622711 0
0.84165573 0.1123209 -0.39978695 0
0.99190426 0.11399078 -0.40275812 0
0.88991117 0.21558475 -0.4035635 0
0.92517185 0.32190228 -0.40049124 0
0.95397282 0.40367794 -0.3979497 0
0.98060989 0.46608257 -0.39753723 0
0.95130205 -0.45734596 -0.3979764 0
0.97073984 -0.37786198 -0.39755297 0
0.99717999 -0.3075428 -0.39972878 0
-0.99353647 -0.1059103 -0.39742184 0
-0.97088623 -0.015051842 -0.39770651 0
-0.95961952 0.074083328 -0.39380407 0
-0.96483231 0.17365742 -0.38804245 0
-0.96942711 0.27603912 -0.38175774 0
-0.89749622 0.29281616 -0.38600016 0
-0.98212385 0.36295509 -0.37690115 0
-0.88144112 0.38106632 -0.37978506 0
-0.94715691 0.49292374 -0.370893 0
-0.87882519 0.46164513 -0.37684488 0
-0.99419689 -0.42370129 -0.4105587 0
-0.88735008 -0.43591309 -0.41125441 0
-0.7843585 -0.43725204 -0.41120815 0
-0.97073555 -0.33494186 -0.4063158 0
-0.86941814 -0.34651279 -0.40832043 0
-0.75897837 -0.34506989 -0.4086113 0
-0.96143007 -0.22996807 -0.40541363 0
-0.87197256 -0.23585033 -0.40498161 0
-0.75691891 -0.25024605 -0.40504742 0
-0.68870163 -0.1973114 -0.4053545 0
-0.94262648 -0.11918068 -0.40034103 0
-0.86036301 -0.13267612 -0.40044117 0
-0.75568771 -0.13427353 -0.40069199 0
-0.68229294 -0.14836693 -0.40240955 0
-0.92901373 -0.019138336 -0.39102602 0
-0.85567141 -0.024459839 -0.39714289 0
-0.73884344 -0.033108711 -0.39928532 0
-0.67184877 -0.046494484 -0.3995204 0
-0.8598876 0.072793961 -0.39254045 0
-0.7668128 0.060830116 -0.39426661 0
-0.6551671 0.062854767 -0.39665699 0
-0.86182785 0.18000126 -0.39047766 0
-0.75705957 0.1730299 -0.39070845 0
-0.65555286 0.13601494 -0.39099693 0
-0.85391474 0.25456238 -0.38349247 0
-0.7567606 0.26374054 -0.38280058 0
-0.6353488 0.24722385 -0.38842297 0
-0.83262444 0.36939621 -0.38186407 0
-0.75510406 0.37954998 -0.37803078 0
-0.63780689 0.35939503 -0.38414764 0
-0.57812405 0.33222866 -0.39027166 0
-0.81673479 0.46953583 -0.37376165 0
-0.74317312 0.47312927 -0.37483692 0
-0.64044666 0.46611118 -0.37637186 0
-0.56621408 0.46031761 -0.38229465 0
-0.67512846 -0.44801617 -0.4122839 0
-0.55435419 -0.44600677 -0.41156673 0
-0.4954958 -0.4548912 -0.40971851 0
-0.65344048 -0.34692383 -0.408741 0
-0.54051876 -0.33497334 -0.41077089 0
-0.47211695 -0.36212826 -0.40756226 0
-0.65824223 -0.26019573 -0.40555859 0
-0.57671976 -0.24117088 -0.40691471 0
-0.46258354 -0.24993515 -0.40664864 0
-0.61692142 -0.15109062 -0.40838003 0
-0.56462431 -0.14490032 -0.40265894 0
-0.43582582 -0.149086 -0.40487766 0
-0.6144805 -0.046266556 -0.39817476 0
-0.54387999 -0.045799255 -0.40102196 0
-0.42853928 -0.058427811 -0.401577 0
-0.59859324 0.056138039 -0.39313316 0
-0.56745672 0.068649292 -0.39459848 0
-0.42841148 0.039150238 -0.39894867 0
-0.55157661 0.14318085 -0.38980389 0
-0.44440126 0.13216591 -0.39565182 0
-0.35397482 0.13319969 -0.39397335 0
-0.51653147 0.26153278 -0.39257336 0
-0.42662191 0.24635696 -0.38971424 0
-0.34380817 0.23037434 -0.3938818 0
-0.52653408 0.34821033 -0.38473129 0
-0.44425011 0.37204838 -0.38361359 0
-0.34215355 0.3410902 -0.38814592 0
-0.50944996 0.45031834 -0.37649012 0
-0.44134474 0.43981838 -0.38263607 0
-0.32185221 0.44945049 -0.38133097 0
-0.42882919 -0.44714451 -0.40580177 0
-0.32885695 -0.4570713 -0.40341187 0
-0.2384758 -0.47325897 -0.40117741 0
-0.42528248 -0.36662865 -0.40538883 0
-0.35443354 -0.36526108 -0.40193415 0
-0.22778606 -0.34524155 -0.40206289 0
-0.1607604 -0.35736942 -0.40361166 0
-0.39969349 -0.24015713 -0.40009403 0
-0.34767246 -0.26718521 -0.40329409 0
-0.21753645 -0.24618816 -0.39975882 0
-0.14379263 -0.268013 -0.398736 0
-0.33676863 -0.14304829 -0.40233183 0
-0.26044464 -0.15816021 -0.39913511 0
-0.13605213 -0.17419624 -0.39794159 0
-0.31565857 -0.049121857 -0.40060663 0
-0.20821238 -0.051259995 -0.39892292 0
-0.12151623 -0.078585625 -0.39777851 0
-0.31456232 0.042129517 -0.39825106 0
-0.22807837 0.026094437 -0.39757967 0
-0.10213327 0.020066261 -0.393929 0
-0.042205811 0.032628059 -0.39772224 0
-0.30110407 0.13434315 -0.3924737 0
-0.22755527 0.13089085 -0.3955698 0
-0.12087059 0.13159084 -0.39499569 0
-0.27373314 0.26004601 -0.38781881 0
-0.218225 0.23856163 -0.39220524 0
-0.10303164 0.21866131 -0.39064693 0
-0.2698555 0.29678535 -0.38498163 0
-0.19848299 0.35796165 -0.38727188 0
-0.10025358 0.32547855 -0.38514709 0
-0.050183773 0.29175663 -0.38698578 0
-0.21499014 0.41821098 -0.3824501 0
-0.099812508 0.46503067 -0.38398647 0
-0.009926796 0.43949604 -0.38272095 0
-0.10674191 -0.4919138 -0.39709377 0
0.0025453568 -0.46664715 -0.39791393 0
-0.10877562 -0.38794804 -0.39828873 0
-0.042925835 -0.39589119 -0.39362621 0
0.057514668 -0.3846159 -0.39690542 0
-0.076353073 -0.28154469 -0.39679623 0
-0.0019083023 -0.2911129 -0.39532804 0
0.085570335 -0.29384708 -0.39531803 0
-0.02976656 -0.2066927 -0.39420605 0
0.087081909 -0.17171001 -0.39254332 0
-0.0088677406 -0.075062752 -0.39481878 0
0.10044384 -0.095059395 -0.39021826 0
0.1661582 -0.040363312 -0.38998747 0
0.019371986 0.033094406 -0.39064646 0
0.093146324 -0.0056343079 -0.39211941 0
0.19732904 0.035905838 -0.39047575 0
-0.0046405792 0.11779594 -0.390378 0
0.10164738 0.11842823 -0.38824701 0
0.20398474 0.13889694 -0.39567423 0
-0.010396957 0.21535969 -0.38548374 0
0.068728924 0.21969223 -0.38367271 0
0.20757008 0.20424843 -0.38700342 0
0.029119492 0.30667686 -0.38823462 0
0.085329056 0.33805752 -0.3842001 0
0.18220568 0.30279446 -0.38144016 0
0.29433155 0.30352592 -0.38715076 0
0.10034752 0.4356699 -0.38163042 0
0.22242022 0.39916515 -0.38301325 0
0.32534742 0.40918064 -0.38311911 0
0.34542322 0.48488808 -0.37915516 0
0.10169125 -0.4851675 -0.39625168 0
0.28136492 -0.48166752 -0.3890686 0
0.1195159 -0.40333939 -0.39206314 0
0.20903301 -0.41141319 -0.39119864 0
0.29542923 -0.42014027 -0.3855958 0
0.18118382 -0.29365349 -0.39134312 0
0.32239723 -0.29241848 -0.3906517 0
0.36373949 -0.28892231 -0.39261913 0
0.17672396 -0.20311546 -0.38567209 0
0.28618717 -0.2110815 -0.39181042 0
0.38789797 -0.20608425 -0.38869762 0
0.22735405 -0.091101646 -0.38838863 0
0.31953239 -0.11358261 -0.38938904 0
0.42692995 -0.11759377 -0.38968945 0
0.31124735 -0.010816574 -0.38920975 0
0.37129784 0.01458931 -0.38887596 0
0.48225021 0.001748085 -0.39167356 0
0.30271435 0.093010902 -0.38871717 0
0.41108513 0.10239983 -0.38997412 0
0.52584982 0.10691833 -0.39053822 0
0.33734941 0.17315197 -0.38926792 0
0.42603922 0.21901035 -0.38947487 0
0.54536343 0.17304134 -0.3858223 0
0.38745356 0.29609108 -0.38926792 0
0.5089612 0.33266258 -0.38928556 0
0.58802938 0.25194073 -0.38895941 0
0.41684914 0.40136623 -0.38410759 0
0.51903963 0.40272617 -0.38197994 0
0.42331934 0.48415852 -0.37296247 0
0.52779627 0.45291138 -0.3774085 0
0.39132833 -0.49130154 -0.39023829 0
0.49298334 -0.49593258 -0.38958836 0
0.42122602 -0.39958382 -0.38785076 0
0.52673197 -0.3966074 -0.38705587 0
0.64864635 -0.41526318 -0.38762426 0
0.44838572 -0.32718563 -0.38702917 0
0.52465487 -0.26948071 -0.38645077 0
0.58261967 -0.29480362 -0.39303303 0
0.69697857 -0.30231094 -0.38764238 0
0.51217747 -0.18183231 -0.38839626 0
0.61344004 -0.20271015 -0.38921738 0
0.55526829 -0.090208054 -0.38999462 0
0.63756657 -0.13105679 -0.38572788 0
0.57566929 -0.0083503723 -0.38261366 0
0.57856178 -0.038105965 -0.39014339 0
0.69528437 -0.010100365 -0.38691759 0
0.62895823 0.090624809 -0.38641977 0
0.75464869 0.11364269 -0.38740396 0
0.69395781 0.20766258 -0.39144325 0
0.79502487 0.20262051 -0.38598061 0
0.62157345 0.31412983 -0.3912344 0
0.71234131 0.27250671 -0.38517189 0
0.82823563 0.28210831 -0.38263893 0
0.62407398 0.3722496 -0.38121843 0
0.76582336 0.37352371 -0.38735199 0
0.89037228 0.39247799 -0.3859148 0
0.67349672 0.49403477 -0.38162327 0
0.77000761 0.45322609 -0.37365103 0
0.82416105 0.47367001 -0.39332342 0
0.92502785 0.48387623 -0.38101673 0
0.89297056 -0.49191189 -0.38393641 0
0.77813816 -0.43078899 -0.38786364 0
0.92638636 -0.42859268 -0.38563633 0
0.82236385 -0.32036018 -0.3855629 0
0.97905922 -0.33094311 -0.38809443 0
0.72782755 -0.20847416 -0.38244581 0
0.87313652 -0.2145853 -0.38501978 0
0.79380083 -0.091680527 -0.38805676 0
0.9182291 -0.12617016 -0.38502216 0
0.82619286 -0.015333176 -0.38587379 0
0.96857166 -0.029872894 -0.3859148 0
0.90752411 0.11661625 -0.39430857 0
0.94000292 0.19762516 -0.38958836 0
0.9863348 0.30186272 -0.38491344 0
-0.96931648 0.12837219 -0.37888384 0
-0.91712856 0.15873337 -0.37822723 0
-0.96809006 0.23498154 -0.37340546 0
-0.89219713 0.24506187 -0.3732543 0
-0.98146439 0.32879734 -0.36691046 0
-0.87799454 0.34079647 -0.36962271 0
-0.96451378 0.44055462 -0.3632822 0
-0.85512829 0.4343605 -0.36529112 0
-0.79051685 0.40136051 -0.36744738 0
-0.92046404 -0.44828892 -0.40289736 0
-0.9087348 -0.37168503 -0.39624882 0
-0.99272537 -0.25661182 -0.39365244 0
-0.8864994 -0.2717638 -0.39779472 0
-0.82252121 -0.24079609 -0.39652157 0
-0.97994518 -0.15028191 -0.38797045 0
-0.8870635 -0.18336391 -0.38970327 0
-0.81088638 -0.19974422 -0.39171171 0
-0.97047567 -0.060282707 -0.38728952 0
-0.87277651 -0.067813873 -0.38520288 0
-0.78126192 -0.08968544 -0.38980055 0
-0.71693563 -0.12147999 -0.39111662 0
-0.96799755 0.023332596 -0.38189554 0
-0.88820076 0.038710594 -0.38453484 0
-0.78182173 0.018240929 -0.38311005 0
-0.67903566 -0.0037117004 -0.3876586 0
-0.87208939 0.14394665 -0.37944603 0
-0.78665781 0.12458229 -0.38159084 0
-0.6587739 0.11758709 -0.381567 0
-0.60071945 0.15430069 -0.38097382 0
-0.84785604 0.23124504 -0.37345743 0
-0.76724434 0.22249699 -0.37705517 0
-0.66543198 0.21532154 -0.37806463 0
-0.5790906 0.2251358 -0.37494516 0
-0.82317114 0.29606533 -0.37222958 0
-0.75947952 0.32357216 -0.37243319 0
-0.66923857 0.29670048 -0.37158203 0
-0.56268215 0.3076849 -0.37377739 0
-0.45868206 0.31386662 -0.38245535 0
-0.72853041 0.41306305 -0.36945677 0
-0.64823294 0.40968037 -0.36845207 0
-0.55520868 0.39994907 -0.36936235 0
-0.44859028 0.42163563 -0.37262011 0
-0.87803364 -0.46759415 -0.40273094 0
-0.81003475 -0.49103642 -0.39983416 0
-0.68866491 -0.48776722 -0.40355778 0
-0.84111738 -0.37708187 -0.39585304 0
-0.79451752 -0.38326931 -0.39823151 0
-0.71161032 -0.39773369 -0.39699936 0
-0.57729435 -0.40834427 -0.39983559 0
-0.77731228 -0.28905964 -0.39493418 0
-0.6827178 -0.29371643 -0.39766788 0
-0.58618498 -0.29582787 -0.4002471 0
-0.48707247 -0.30129337 -0.40130091 0
-0.76439571 -0.21365738 -0.39085197 0
-0.66786337 -0.1926651 -0.39462566 0
-0.5620122 -0.20619774 -0.39513969 0
-0.46184969 -0.20615387 -0.39456034 0
-0.66953707 -0.1269455 -0.38692713 0
-0.58131886 -0.12024784 -0.39165211 0
-0.47137356 -0.12098026 -0.39167404 0
-0.39508533 -0.1050148 -0.39027405 0
-0.61876011 -0.029421806 -0.38749456 0
-0.57524061 -0.01491642 -0.38912725 0
-0.47450829 -0.03850174 -0.39035034 0
-0.37584925 -0.0033874512 -0.38963461 0
-0.55367231 0.091483116 -0.38257504 0
-0.45149612 0.091047287 -0.38769102 0
-0.33810568 0.072083473 -0.38804483 0
-0.270226 0.12999344 -0.38815451 0
-0.53044796 0.2080574 -0.37237787 0
-0.4626112 0.19257259 -0.38030672 0
-0.34208298 0.19746685 -0.38240719 0
-0.25921774 0.17708111 -0.38004255 0
-0.15421534 0.21145344 -0.39026594 0
-0.44616604 0.31023216 -0.37502956 0
-0.34961796 0.28689766 -0.37940693 0
-0.25994015 0.2770443 -0.37786722 0
-0.18617249 0.32044125 -0.3780179 0
-0.40025663 0.34634304 -0.37428999 0
-0.34564829 0.3959341 -0.37160397 0
-0.22508287 0.39836502 -0.37630272 0
-0.12667227 0.37796974 -0.37432289 0
-0.26225424 0.49213791 -0.37115335 0
-0.15945578 0.49351788 -0.37123394 0
-0.041845798 0.475914 -0.37193823 0
-0.31695175 -0.48622227 -0.39816952 0
-0.46584558 -0.41313457 -0.39886379 0
-0.38338327 -0.4118576 -0.39211655 0
-0.26201439 -0.39170933 -0.39665365 0
-0.44146204 -0.31424236 -0.39632607 0
-0.33391237 -0.31638813 -0.3958559 0
-0.25386572 -0.32783508 -0.39309216 0
-0.20341063 -0.28255653 -0.38978767 0
-0.35988522 -0.23077774 -0.38977957 0
-0.2709856 -0.25623131 -0.38771152 0
-0.16740131 -0.21888256 -0.38709831 0
-0.33340073 -0.11358643 -0.39186668 0
-0.23953676 -0.12295914 -0.39024973 0
-0.14583778 -0.13380241 -0.38434887 0
-0.25625706 -0.01339817 -0.38804579 0
-0.15313339 -0.020432472 -0.38913679 0
-0.055219173 -0.025975227 -0.38139248 0
-0.23023367 0.094261169 -0.38346577 0
-0.13255692 0.046465874 -0.3855958 0
-0.044044018 0.082986832 -0.38302183 0
-0.12938261 0.17992783 -0.37925816 0
-0.019293785 0.19239235 -0.37706375 0
0.042462826 0.14011192 -0.37868834 0
-0.12424469 0.2930851 -0.38169003 0
-0.059594631 0.27655029 -0.37627125 0
0.08149004 0.26648426 -0.37523794 0
-0.010092735 0.36936951 -0.37482357 0
0.061118126 0.33993626 -0.3742528 0
0.1490345 0.35197353 -0.36575937 0
0.085521698 0.44302464 -0.3713932 0
0.21850586 0.46243763 -0.36833954 0
-0.23726749 -0.46142864 -0.39255857 0
-0.12503481 -0.41186142 -0.38791656 0
-0.034174919 -0.41875648 -0.38909245 0
0.030795574 -0.4647646 -0.38726425 0
-0.17457247 -0.35353374 -0.38827848 0
-0.021270752 -0.32334709 -0.38656473 0
0.046059132 -0.36416054 -0.38417912 0
0.11628675 -0.32966995 -0.38136721 0
-0.11371946 -0.26455975 -0.39162064 0
-0.041365623 -0.24388313 -0.38541651 0
0.054429054 -0.27210236 -0.38129187 0
0.17429018 -0.24452209 -0.38117361 0
-0.033728123 -0.13524723 -0.38994122 0
0.062859535 -0.18529415 -0.38113689 0
0.16989946 -0.17173576 -0.37743711 0
-0.0095772743 -0.085249901 -0.38401604 0
0.070337772 -0.053826332 -0.38248158 0
0.20958138 -0.049191475 -0.38480663 0
0.28781605 -0.083474159 -0.37874269 0
0.080205917 0.056344986 -0.38348436 0
0.15560484 0.031525612 -0.37920952 0
0.27154922 0.044308662 -0.38066101 0
0.35214949 0.0046691895 -0.37896872 0
0.10130072 0.10271835 -0.37551117 0
0.18560123 0.1516819 -0.37865925 0
0.28902626 0.14934826 -0.37822485 0
0.41391516 0.084646225 -0.38298321 0
0.19270229 0.24555111 -0.37797403 0
0.32206488 0.27393532 -0.38298607 0
0.40015793 0.22689819 -0.37990999 0
0.2274766 0.30792141 -0.37562275 0
0.30082941 0.341465 -0.37545919 0
0.37010241 0.37136555 -0.37290239 0
0.46729898 0.32867718 -0.37879944 0
0.29417229 0.42776489 -0.37103319 0
0.40234327 0.42900944 -0.36980009 0
0.48692465 0.37312508 -0.37235117 0
0.097943306 -0.49171925 -0.38136721 0
0.16949844 -0.46578121 -0.38095379 0
0.28235912 -0.46753693 -0.38328505 0
0.36740732 -0.4344368 -0.38463163 0
0.17491102 -0.38076305 -0.38138151 0
0.29591036 -0.36995983 -0.38470793 0
0.39386129 -0.39390755 -0.37597799 0
0.24044609 -0.28910446 -0.38237047 0
0.34343004 -0.30432701 -0.38140869 0
0.46875429 -0.29971027 -0.37779951 0
0.30961561 -0.19226456 -0.3795476 0
0.40225554 -0.22559071 -0.3795104 0
0.48271084 -0.20239639 -0.37909937 0
0.55855465 -0.18537426 -0.37643909 0
0.41059446 -0.059441566 -0.3820734 0
0.51570463 -0.077877998 -0.37891293 0
0.46644497 0.017258644 -0.37973976 0
0.59301805 0.021207809 -0.37957001 0
0.48587084 0.11319637 -0.38065815 0
0.59535599 0.10752201 -0.37697029 0
0.65442181 0.10582447 -0.37134695 0
0.51602793 0.22856808 -0.37870979 0
0.60229588 0.20019913 -0.37628841 0
0.7392168 0.20938778 -0.3773365 0
0.6096139 0.28453445 -0.3750248 0
0.68259668 0.31080055 -0.37042522 0
0.79239941 0.27828503 -0.37506294 0
0.62501574 0.39332294 -0.37393951 0
0.7569747 0.40927315 -0.37359953 0
0.86146212 0.36318874 -0.37837553 0
0.90701818 0.42248821 -0.37522984 0
0.67639256 0.48627567 -0.36827087 0
0.78939247 0.46861172 -0.36853218 0
0.95172596 0.48479843 -0.37132692 0
0.46391726 -0.476511 -0.38053751 0
0.51698065 -0.40801048 -0.37627602 0
0.61803532 -0.43755531 -0.3759203 0
0.64269733 -0.4061594 -0.37147236 0
0.5886898 -0.31926918 -0.37585974 0
0.71869087 -0.3174181 -0.37685776 0
0.7643609 -0.26335812 -0.37532043 0
0.66949463 -0.22099781 -0.37670135 0
0.82488441 -0.19799232 -0.37544346 0
0.62517595 -0.1008606 -0.37464857 0
0.77101374 -0.099455833 -0.37664938 0
0.89909983 -0.11816692 -0.3718586 0
0.69154882 -0.017086029 -0.37246561 0
0.85152197 -0.0065803528 -0.37506533 0
0.99351645 -0.014138222 -0.37395573 0
0.78572798 0.097998619 -0.37447643 0
0.93887663 0.092870712 -0.37485123 0
0.88307285 0.21584415 -0.37631083 0
0.929986 0.27175903 -0.37314177 0
0.78111792 -0.42014503 -0.37630701 0
0.93144941 -0.44565487 -0.36935711 0
0.89004278 -0.30204487 -0.37633419 0
0.96494293 -0.22516346 -0.37380648 0
-0.94635105 -0.14621258 -0.39882088 0
-0.9193244 -0.053907394 -0.39252758 0
-0.98754644 0.032632828 -0.38619328 0
-0.92063093 0.037906647 -0.38603878 0
-0.88347054 0.14170265 -0.38523149 0
-0.88771915 0.24003124 -0.38180971 0
-0.99206114 0.34242058 -0.37638474 0
-0.88952637 0.35870838 -0.3764472 0
-0.78534508 0.3429327 -0.38341284 0
-0.97916174 0.42774868 -0.3689146 0
-0.87442017 0.44585705 -0.37262726 0
-0.77068281 0.43972874 -0.37497854 0
-0.68501806 0.4457531 -0.37727308 0
-0.89816904 -0.46886063 -0.40865946 0
-0.82627916 -0.44400024 -0.40844488 0
-0.8998394 -0.36764717 -0.40463161 0
-0.78076601 -0.37575531 -0.40605974 0
-0.98687935 -0.27231979 -0.40043402 0
-0.91234112 -0.27149487 -0.40285349 0
-0.78344679 -0.27233696 -0.40411568 0
-0.70763731 -0.25317097 -0.39993715 0
-0.95676947 -0.15383434 -0.395679 0
-0.88725281 -0.16219425 -0.39908838 0
-0.7943244 -0.16512966 -0.39782715 0
-0.6941843 -0.16639328 -0.40163708 0
-0.85580921 -0.049072266 -0.39577913 0
-0.78897905 -0.088792801 -0.39796019 0
-0.6946125 -0.077525139 -0.39679718 0
-0.6284008 -0.082307816 -0.39845276 0
-0.85131121 0.0088834763 -0.38621235 0
-0.77265692 0.035543442 -0.39255428 0
-0.6731286 0.024337769 -0.39633703 0
-0.59426451 0.014815331 -0.392694 0
-0.76440191 0.14286518 -0.38500023 0
-0.67053509 0.10856247 -0.38745975 0
-0.56876945 0.11993027 -0.39193535 0
-0.75687504 0.24714375 -0.38231611 0
-0.66593027 0.22320652 -0.38531733 0
-0.59127331 0.20417786 -0.38420582 0
-0.51182652 0.21687889 -0.38676167 0
-0.73706961 0.32605362 -0.37642908 0
-0.64447737 0.31300259 -0.38196325 0
-0.54039097 0.31994057 -0.38344955 0
-0.49240541 0.2979269 -0.37817669 0
-0.65146065 0.39731693 -0.3770237 0
-0.57280016 0.41762257 -0.37926483 0
-0.46778202 0.42172718 -0.37956381 0
-0.46302748 0.49726295 -0.37179089 0
-0.68740177 -0.47546196 -0.41102314 0
-0.68088818 -0.3845396 -0.40821171 0
-0.5920434 -0.36692238 -0.40431547 0
-0.50354767 -0.38109493 -0.40642834 0
-0.66562128 -0.29457664 -0.40180874 0
-0.58728123 -0.27988338 -0.40265369 0
-0.47327852 -0.27063751 -0.40202093 0
-0.58828497 -0.20681477 -0.40123701 0
-0.46394157 -0.17085552 -0.39976978 0
-0.39088058 -0.17683411 -0.40002823 0
-0.56739902 -0.079919815 -0.39824486 0
-0.47664642 -0.081345558 -0.39878798 0
-0.37849379 -0.086174011 -0.40182781 0
-0.49718714 0.0051441193 -0.39477062 0
-0.35282087 -0.0088777542 -0.39461613 0
-0.46605587 0.10092354 -0.39085436 0
-0.35783768 0.12099838 -0.39207983 0
-0.2620554 0.10099983 -0.39213181 0
-0.46349239 0.19237518 -0.38519192 0
-0.40446424 0.17266655 -0.38211203 0
-0.24385071 0.21327209 -0.38584661 0
-0.41711044 0.28667545 -0.3859868 0
-0.35528803 0.32278252 -0.38309622 0
-0.27200079 0.30636311 -0.38924885 0
-0.15620852 0.32865524 -0.38687277 0
-0.37378311 0.40814018 -0.37927818 0
-0.26110554 0.38879585 -0.38120174 0
-0.1772356 0.39145756 -0.38114929 0
-0.34374571 0.47207928 -0.3792944 0
-0.23515129 0.48720837 -0.37700081 0
-0.1366334 0.48596096 -0.37780666 0
-0.083559513 0.49816608 -0.37979984 0
-0.44423342 -0.42055702 -0.4027915 0
-0.35752439 -0.39258862 -0.39871979 0
-0.27379465 -0.40486717 -0.40176058 0
-0.19505501 -0.40780926 -0.39662886 0
-0.38562202 -0.29970455 -0.40001488 0
-0.25132561 -0.298316 -0.39724064 0
-0.15305519 -0.32146072 -0.39197874 0
-0.35288048 -0.2195549 -0.3946991 0
-0.26769352 -0.21780014 -0.39586306 0
-0.14636183 -0.20741367 -0.39368916 0
-0.31431055 -0.153965 -0.39654446 0
-0.25514364 -0.11318111 -0.39390039 0
-0.14599895 -0.13989544 -0.3893218 0
-0.061086178 -0.1570673 -0.39023781 0
-0.243536 -0.020746231 -0.39605808 0
-0.14755678 -0.035603523 -0.38942528 0
-0.072268963 -0.034461021 -0.39801502 0
0.019496441 -0.026725769 -0.39346266 0
-0.16091728 0.073266983 -0.39052916 0
-0.012650013 0.0873909 -0.39234352 0
0.060935497 0.064177513 -0.38573217 0
-0.15261459 0.17086697 -0.39118195 0
-0.058775902 0.19311905 -0.38759851 0
0.067045689 0.1587801 -0.38664103 0
-0.11052704 0.26067829 -0.38869381 0
-0.017020702 0.28014088 -0.38502407 0
0.073253155 0.26170635 -0.3868227 0
-0.072372437 0.35959053 -0.38149023 0
0.048864365 0.35642147 -0.38074255 0
0.14045191 0.40944195 -0.37875557 0
-0.017546177 0.47858238 -0.37766695 0
0.06544733 0.47407246 -0.37313604 0
0.16934824 0.46952343 -0.37632275 0
-0.12110424 -0.41795921 -0.3940239 0
-0.035297394 -0.43593884 -0.3928194 0
0.073805332 -0.43167686 -0.39466286 0
