# .PCD v0.7 - Point Cloud Data file format
VERSION 0.7
FIELDS x y z intensity
SIZE 4 4 4 4
TYPE F F F F
COUNT 1 1 1 1
WIDTH 1287
HEIGHT 1
VIEWPOINT 0 0 0 1 0 0 0
POINTS 1287
DATA ascii
-0.37463915 -0.067105293 -0.37486124 0
-0.33085096 -0.076509476 -0.37226915 0
-0.24650049 -0.14042664 -0.37172174 0
-0.1441474 -0.16310596 -0.37046385 0
-0.040171146 -0.23799706 -0.37078714 0
0.032074332 -0.30826855 -0.3734231 0
0.15838289 -0.33873177 -0.3770833 0
0.20941174 -0.36593056 -0.37373114 0
0.3640902 -0.4537878 -0.37858915 0
-0.27397168 -0.00016975403 -0.37200642 0
-0.18758929 -0.041824341 -0.36962509 0
-0.11114776 -0.078320503 -0.37214518 0
-0.021769881 -0.12616825 -0.37262678 0
0.064568043 -0.18585205 -0.37404871 0
0.12641466 -0.2224741 -0.37637138 0
0.2210834 -0.27135181 -0.37677431 0
0.3209939 -0.3194437 -0.37895155 0
0.46066129 -0.38642216 -0.38499022 0
0.59427142 -0.44059658 -0.3841362 0
-0.23505199 0.087262154 -0.37016487 0
-0.14327252 0.022088051 -0.36818981 0
-0.050176978 -0.0094804764 -0.3731966 0
0.029173493 -0.041797638 -0.37507486 0
0.10862887 -0.09389019 -0.37583256 0
0.20791614 -0.13272572 -0.37750483 0
0.2947247 -0.19311714 -0.37818146 0
0.39223754 -0.2404747 -0.37924957 0
0.53284264 -0.31898212 -0.38688374 0
0.66009855 -0.37368774 -0.38450432 0
0.82478344 -0.4414072 -0.39072037 0
-0.17987156 0.16401863 -0.37029839 0
-0.10034597 0.12857628 -0.37240314 0
-0.0089133978 0.07566452 -0.3736949 0
0.076088786 0.027112007 -0.37423277 0
0.17495346 -0.0059118271 -0.37599516 0
0.28989983 -0.048389435 -0.38122272 0
0.38229191 -0.10432243 -0.38199377 0
0.4848187 -0.16351318 -0.38565922 0
0.50593162 -0.13469982 -0.38542461 0
0.58807778 -0.25841808 -0.38740253 0
0.74722528 -0.30905056 -0.39131212 0
0.86756039 -0.39566708 -0.39027405 0
-0.14161325 0.2694788 -0.37027311 0
-0.037619591 0.22428989 -0.36947393 0
0.063137889 0.14914894 -0.3738513 0
0.13947248 0.11948967 -0.37465382 0
0.24312866 0.090021133 -0.37680387 0
0.34439945 0.031684875 -0.38113308 0
0.41149497 -0.05990696 -0.38128948 0
0.45223475 -0.020420074 -0.38403702 0
0.55158615 -0.081534386 -0.38686991 0
0.67807198 -0.16641808 -0.39104176 0
0.81428301 -0.2359848 -0.39287949 0
0.98197842 -0.31606388 -0.39890862 0
-0.084093451 0.36188316 -0.36711931 0
0.0066741705 0.31201553 -0.36502695 0
0.099235415 0.25066185 -0.36862707 0
0.17275178 0.22322083 -0.36882067 0
0.28104162 0.16408443 -0.37542772 0
0.36628997 0.091099739 -0.37800741 0
0.48145139 0.027438164 -0.38359356 0
0.59633589 -0.013976097 -0.38667679 0
0.77112007 -0.068508148 -0.39578056 0
0.89795518 -0.14434719 -0.39557171 0
-0.049576998 0.45181847 -0.36514759 0
0.037590146 0.40280724 -0.3644352 0
0.13493574 0.33925056 -0.36583948 0
0.2163583 0.33608341 -0.36524487 0
0.3061384 0.25596619 -0.37026787 0
0.43520713 0.2026701 -0.3789773 0
0.43125641 0.14549541 -0.38443518 0
0.53147066 0.10496521 -0.3842597 0
0.67758656 0.073417664 -0.39212322 0
0.81988645 -0.010548592 -0.39791393 0
0.081430793 0.49770927 -0.36341572 0
0.17548096 0.43933105 -0.3610177 0
0.25664735 0.41637707 -0.36513805 0
0.32450986 0.35081005 -0.36440563 0
0.43900144 0.29325008 -0.37069941 0
0.55733931 0.22387981 -0.37695217 0
0.63247132 0.19545746 -0.38265181 0
0.70186698 0.15851498 -0.38789606 0
0.87037086 0.076778412 -0.39775229 0
0.99655676 -0.045316696 -0.40111542 0
0.34653389 0.47006512 -0.35816622 0
0.34688425 0.41236877 -0.36302185 0
0.49012554 0.40705681 -0.37002325 0
0.58061182 0.31246281 -0.37315226 0
0.73550332 0.31554794 -0.37982035 0
0.72069323 0.26985836 -0.38101006 0
0.90232742 0.21712303 -0.3904047 0
0.9057554 0.17637539 -0.39470863 0
0.48946452 0.46350193 -0.36529446 0
0.63141775 0.4315052 -0.37266064 0
0.76321054 0.39219856 -0.37870979 0
0.93320048 0.26807404 -0.39175034 0
0.74901927 0.47608566 -0.36993599 0
0.94518423 0.34168625 -0.38802767 0
0.95493901 0.47012997 -0.38049316 0
-0.96304858 -0.31014538 -0.38373184 0
-0.86975634 -0.34045124 -0.38051319 0
-0.8214972 -0.37844372 -0.3805933 0
-0.97685921 -0.2028904 -0.38403606 0
-0.94127584 -0.22608376 -0.378932 0
-0.86563957 -0.26351738 -0.37943077 0
-0.72051382 -0.30602741 -0.37615156 0
-0.66136456 -0.35160351 -0.37553644 0
-0.58403838 -0.38533211 -0.37467003 0
-0.87928104 -0.14509583 -0.3783803 0
-0.77707529 -0.19354439 -0.37728262 0
-0.71120572 -0.23987293 -0.37628794 0
-0.61519706 -0.26824188 -0.37386274 0
-0.50574303 -0.32924461 -0.37251949 0
-0.39764512 -0.34910202 -0.3717165 0
-0.32903242 -0.389534 -0.37005472 0
-0.80710363 -0.063528061 -0.37910891 0
-0.75322807 -0.11475372 -0.37514114 0
-0.65531611 -0.14258099 -0.37485743 0
-0.56256425 -0.20230293 -0.37441778 0
-0.49449182 -0.23744965 -0.37098408 0
-0.36954689 -0.27255249 -0.3726306 0
-0.30643594 -0.32882404 -0.37251186 0
-0.13925886 -0.37651157 -0.37163639 0
-0.042189479 -0.44117546 -0.37042475 0
-0.76064146 -0.014788628 -0.37651873 0
-0.68414509 -0.0056772232 -0.37444258 0
-0.6170665 -0.069711685 -0.37201166 0
-0.5113436 -0.098963737 -0.37536526 0
-0.42747092 -0.15288448 -0.37157249 0
-0.3487401 -0.19713783 -0.37286997 0
-0.28823006 -0.23884678 -0.36717653 0
-0.19004452 -0.2807312 -0.37210131 0
-0.074827194 -0.32457447 -0.37177944 0
0.048826456 -0.38503838 -0.37469912 0
0.16040397 -0.45041561 -0.37396669 0
-0.65645087 0.073734283 -0.37918091 0
-0.57011497 0.041276932 -0.37466383 0
-0.46564221 -0.028470039 -0.37483072 0
-0.38602602 -0.060090065 -0.37256956 0
-0.29783666 -0.11488628 -0.37177038 0
-0.20652306 -0.16335964 -0.36812401 0
-0.11246288 -0.20083714 -0.36998272 0
-0.02012372 -0.27411366 -0.37098026 0
0.054601073 -0.29450893 -0.37284994 0
0.13016438 -0.31488132 -0.3746829 0
0.23415005 -0.40285206 -0.37735367 0
0.34039557 -0.46839142 -0.37409115 0
0.40543842 -0.43032837 -0.37861395 0
-0.59853148 0.15871334 -0.37429523 0
-0.52553046 0.10132694 -0.3740716 0
-0.4278394 0.08121109 -0.37422276 0
-0.35537851 0.040102005 -0.37101221 0
-0.24815381 -0.036688805 -0.37259436 0
-0.14526331 -0.053693771 -0.37236834 0
-0.067793608 -0.10387611 -0.37236452 0
0.040045381 -0.19847107 -0.36653709 0
0.10206783 -0.1740036 -0.37557173 0
0.18132377 -0.2579298 -0.37261868 0
0.31423056 -0.32933044 -0.37691784 0
0.48290348 -0.37580013 -0.38229656 0
0.5904305 -0.49603748 -0.38240528 0
-0.54872632 0.23869801 -0.37053108 0
-0.47603476 0.18443966 -0.37220955 0
-0.37487125 0.16807175 -0.37113428 0
-0.28308403 0.12478638 -0.37112427 0
-0.22375441 0.069138527 -0.37021112 0
-0.14008975 0.027567863 -0.37121248 0
-0.054000854 -0.013775826 -0.37075806 0
0.033773303 -0.065265656 -0.37327814 0
0.17847812 -0.096703529 -0.37639236 0
0.27560687 -0.17291641 -0.3753562 0
0.41122365 -0.25421429 -0.38119602 0
0.54364836 -0.31383228 -0.38069248 0
0.70879447 -0.41103363 -0.38629818 0
-0.49859667 0.30512333 -0.3704772 0
-0.42212534 0.28052998 -0.37244511 0
-0.34922874 0.25167847 -0.36969471 0
-0.25147986 0.21253967 -0.36984491 0
-0.16285026 0.16946697 -0.36648798 0
-0.091671586 0.10549068 -0.36808729 0
0.0094429255 0.062484741 -0.37069368 0
0.1076256 0.026133537 -0.37232494 0
0.22689831 -0.035355568 -0.37539387 0
0.3788228 -0.088241577 -0.38142967 0
0.4865129 -0.18712997 -0.38338757 0
0.61113214 -0.25905037 -0.38353252 0
0.80403244 -0.33542824 -0.38955355 0
0.99761963 -0.49026585 -0.40027761 0
-0.44462419 0.38854694 -0.36971998 0
-0.38276136 0.35732269 -0.36953115 0
-0.27894902 0.33944321 -0.36719704 0
-0.21447611 0.27931786 -0.36894941 0
-0.10046864 0.25782299 -0.36645031 0
-0.0033178329 0.19829082 -0.37224531 0
0.086711287 0.15385342 -0.37261534 0
0.16959667 0.095348358 -0.3740716 0
0.29526615 0.05122757 -0.37527084 0
0.28407097 0.020817757 -0.3778429 0
0.41920853 -0.030941963 -0.37950945 0
0.57595551 -0.098137856 -0.38527727 0
0.69770801 -0.19244194 -0.38886118 0
0.87304401 -0.2787466 -0.39160538 0
-0.40632463 0.48072624 -0.36624861 0
-0.3361218 0.45968533 -0.36932564 0
-0.25111616 0.42982101 -0.3667016 0
-0.13725603 0.38113308 -0.36855507 0
-0.061034441 0.33802319 -0.3640008 0
0.0064810514 0.28640366 -0.36237288 0
0.12511265 0.24249554 -0.36840916 0
0.21826386 0.17420864 -0.37293148 0
0.33488941 0.092968941 -0.37705612 0
0.49800205 0.047522545 -0.38298464 0
0.64578509 -0.020545959 -0.3864727 0
0.7395556 -0.1403532 -0.38763332 0
0.99384141 -0.18998337 -0.39699078 0
-0.12933862 0.45083237 -0.36358595 0
-0.022315621 0.42363834 -0.36161423 0
0.039708614 0.37002373 -0.35890484 0
0.15934372 0.32545376 -0.36499977 0
0.25564182 0.27457333 -0.36786795 0
0.38743186 0.17903996 -0.37627745 0
0.53953826 0.10705662 -0.38273335 0
0.69203079 0.035862923 -0.38700962 0
0.85271823 -0.045740128 -0.39479494 0
0.074969649 0.45899391 -0.35609627 0
0.18281472 0.42164516 -0.35889244 0
0.28392637 0.37639046 -0.36191082 0
0.40162051 0.31531048 -0.36338139 0
0.42032516 0.2644968 -0.37247229 0
0.57687938 0.21782112 -0.37694883 0
0.59831083 0.16820621 -0.38673496 0
0.76615989 0.11401844 -0.39129639 0
0.95118868 0.052365303 -0.39843225 0
0.33390236 0.47175598 -0.36158705 0
0.43616176 0.40843678 -0.36039114 0
0.61407554 0.33729935 -0.3714242 0
0.78700411 0.20680809 -0.38492346 0
0.96995151 0.14385986 -0.39122295 0
0.63789463 0.43404388 -0.36656475 0
0.83161712 0.31502819 -0.38224888 0
0.82929981 0.43557835 -0.37075138 0
0.82547379 0.38246918 -0.37475348 0
0.87172067 0.49623775 -0.37331247 0
-0.92637062 -0.47850037 -0.37444401 0
-0.95364964 -0.36314583 -0.37803888 0
-0.86901915 -0.38256645 -0.37612057 0
-0.8011781 -0.41225147 -0.3715992 0
-0.69825029 -0.47646427 -0.36844492 0
-0.92377031 -0.22027397 -0.37492609 0
-0.82717872 -0.30019188 -0.37374496 0
-0.77089727 -0.3396616 -0.37556553 0
-0.67054772 -0.37860584 -0.37189913 0
-0.58498728 -0.37737846 -0.36945343 0
-0.48975754 -0.46362019 -0.36619043 0
-0.74363983 -0.2304163 -0.37085581 0
-0.46983552 -0.39342403 -0.36940527 0
-0.39127839 -0.4254446 -0.36730719 0
-0.2731241 -0.45326424 -0.36471415 0
-0.29594123 -0.35365486 -0.36599588 0
-0.22797561 -0.41834068 -0.36253262 0
-0.95536649 -0.42693138 -0.37075377 0
-0.86455166 -0.45561123 -0.36682272 0
-0.92771196 -0.32369804 -0.37296772 0
-0.8649025 -0.37364292 -0.37236834 0
-0.76612234 -0.42570686 -0.36746597 0
-0.66403639 -0.48167515 -0.3605094 0
-0.96921515 -0.19763756 -0.37619019 0
-0.90015328 -0.24018002 -0.37337971 0
-0.78850412 -0.29996586 -0.37214422 0
-0.70030153 -0.35394096 -0.37021875 0
-0.63924968 -0.39505959 -0.36278915 0
-0.54565489 -0.42290974 -0.35954714 0
-0.44263732 -0.47132015 -0.35844851 0
-0.92158234 -0.10548878 -0.37657404 0
-0.83638322 -0.14997196 -0.37550306 0
-0.74733377 -0.18631649 -0.37354517 0
-0.68693483 -0.2337656 -0.37002039 0
-0.57572222 -0.30118179 -0.36591339 0
-0.48246145 -0.38134861 -0.35970926 0
-0.38392806 -0.38187408 -0.36416054 0
-0.31929994 -0.43340206 -0.35927343 0
-0.21815479 -0.4547863 -0.36107302 0
-0.98071921 0.022168159 -0.37933159 0
-0.89500129 -0.01828289 -0.3742938 0
-0.8218621 -0.083415031 -0.37058258 0
-0.70229268 -0.10432816 -0.37122059 0
-0.65311956 -0.1898241 -0.36549377 0
-0.54148161 -0.20668125 -0.36439037 0
-0.44173872 -0.24700546 -0.36567163 0
-0.37923789 -0.30280972 -0.36233139 0
-0.26696706 -0.34570312 -0.35942221 0
-0.13668752 -0.40378189 -0.36356211 0
-0.01899457 -0.47193432 -0.3599391 0
-0.91426611 0.1084919 -0.37663174 0
-0.83262277 0.051486015 -0.3732214 0
-0.73203385 0.016701698 -0.37226629 0
-0.6708467 -0.028348923 -0.36865091 0
-0.56640184 -0.091454506 -0.36645699 0
-0.43807316 -0.12576199 -0.36804295 0
-0.3980881 -0.1951828 -0.36226082 0
-0.28932428 -0.23337746 -0.36555672 0
-0.17850637 -0.27491379 -0.36211157 0
-0.074179769 -0.35145187 -0.36231709 0
0.059333563 -0.41877079 -0.36061287 0
0.20591736 -0.48536587 -0.36487722 0
-0.94688404 0.24689102 -0.37889624 0
-0.86972046 0.19694996 -0.37602854 0
-0.79731238 0.15040016 -0.37024307 0
-0.69703829 0.090852737 -0.36870718 0
-0.60088432 0.061904907 -0.36834621 0
-0.54464602 0.018721581 -0.36854744 0
-0.44669938 -0.041858673 -0.36631346 0
-0.3684957 -0.042658806 -0.36454916 0
-0.24633837 -0.13820553 -0.36296082 0
-0.11565101 -0.212533 -0.36140537 0
0.0043548346 -0.27922535 -0.36079121 0
0.16274738 -0.34722424 -0.36523581 0
0.30789924 -0.42030239 -0.36850405 0
-0.91526794 0.32873058 -0.37776613 0
-0.82359409 0.2904768 -0.3734498 0
-0.75048661 0.23659134 -0.37245703 0
-0.64809227 0.19715309 -0.36947155 0
-0.57067871 0.14159298 -0.36747026 0
-0.47588432 0.10028076 -0.3666153 0
-0.40268004 0.053586006 -0.365345 0
-0.33592725 0.008518219 -0.36092567 0
-0.22830319 -0.032176971 -0.3638835 0
-0.1508373 -0.069236755 -0.35930824 0
-0.022690535 -0.13997746 -0.3653512 0
0.12096393 -0.19018173 -0.36574459 0
0.25110579 -0.27446175 -0.36704731 0
0.40131044 -0.34898281 -0.37083006 0
0.58327997 -0.45004368 -0.37411308 0
-0.85966599 0.41740894 -0.37388992 0
-0.78757513 0.38194656 -0.3724041 0
-0.68082249 0.33246326 -0.36839437 0
-0.61908388 0.28056431 -0.37098598 0
-0.51826155 0.22112083 -0.36606884 0
-0.40690374 0.18932533 -0.36487627 0
-0.34400153 0.12606812 -0.36406946 0
-0.24993968 0.083526611 -0.36511087 0
-0.17343986 0.052889824 -0.35901546 0
-0.086002707 -0.002122879 -0.35989857 0
0.039211392 -0.077659607 -0.36516428 0
0.18318987 -0.1249218 -0.36487055 0
0.27480352 -0.23578548 -0.36276674 0
0.48007917 -0.29301167 -0.37403488 0
0.66984558 -0.39196014 -0.37784624 0
0.88897049 -0.49338818 -0.38042355 0
-0.73236716 0.46937656 -0.37071085 0
-0.66693115 0.42327404 -0.37027884 0
-0.56546319 0.36837864 -0.36903048 0
-0.49932349 0.32408619 -0.36321402 0
-0.38413036 0.27953434 -0.36632824 0
-0.27451742 0.21108723 -0.36409903 0
-0.18809795 0.16475964 -0.363873 0
-0.08864367 0.13239193 -0.36299324 0
0.0017790794 0.074752808 -0.36399174 0
0.11726296 0.0036945343 -0.36558867 0
0.26930666 -0.035814285 -0.365448 0
0.38009369 -0.16405296 -0.37057734 0
0.54630804 -0.2379055 -0.37506533 0
0.74394345 -0.33362961 -0.3792181 0
-0.52393854 0.45327187 -0.36570501 0
-0.44199264 0.4112711 -0.36198854 0
-0.34267735 0.36736488 -0.3615365 0
-0.24236774 0.31052971 -0.3612752 0
-0.13437986 0.24838924 -0.36159992 0
-0.049784064 0.20502472 -0.35943317 0
0.05370748 0.16104889 -0.36058855 0
0.04878509 0.11326122 -0.36704159 0
0.20106947 0.094895363 -0.36667728 0
0.31898391 0.0057563782 -0.36824942 0
0.47044241 -0.084959984 -0.37309456 0
0.64806759 -0.15567875 -0.37859058 0
0.83009624 -0.26014519 -0.38015318 0
-0.37529159 0.49851036 -0.36373568 0
-0.31412256 0.46615601 -0.36117172 0
-0.19888115 0.41782665 -0.36083651 0
-0.06966269 0.35728741 -0.35902882 0
-0.02372396 0.29982758 -0.3593936 0
0.078759789 0.2684412 -0.35889626 0
0.24399698 0.18122387 -0.3626709 0
0.4016782 0.10742664 -0.36803913 0
0.55768883 -0.0068225861 -0.3760581 0
0.71473169 -0.10059357 -0.38124609 0
0.74628413 -0.06375885 -0.38029957 0
0.95417321 -0.1757946 -0.38639355 0
-0.059712291 0.43897438 -0.35832691 0
0.040491939 0.38892269 -0.35186958 0
0.14641428 0.35164261 -0.353055 0
0.28213787 0.27149868 -0.35820389 0
0.42397988 0.17589378 -0.36302853 0
0.63266134 0.075963974 -0.37688303 0
0.79572034 -0.01790905 -0.38182402 0
0.015762448 0.49299335 -0.35859632 0
0.15734243 0.46782017 -0.3528676 0
0.3441118 0.3516798 -0.36026859 0
0.49084818 0.27926922 -0.36293983 0
0.6798445 0.17511177 -0.37280941 0
0.88477051 0.060883522 -0.38670063 0
0.35787785 0.43982983 -0.3526597 0
0.51965904 0.39108849 -0.35524082 0
0.69395018 0.24399567 -0.36699772 0
0.93912077 0.14552879 -0.38593149 0
0.54692864 0.46684837 -0.35208464 0
0.7463491 0.40614605 -0.35861588 0
0.74136889 0.33119106 -0.3659482 0
0.98674989 0.22989559 -0.38470078 0
0.79059541 0.46339417 -0.36093616 0
-0.064138532 -0.42700386 -0.37298393 0
0.11703706 -0.47045231 -0.37060738 0
0.15135324 -0.4569273 -0.37540913 0
0.046998143 -0.30225945 -0.37411499 0
0.20021677 -0.39331055 -0.37390757 0
0.36956716 -0.47927094 -0.37630081 0
0.099979758 -0.20740604 -0.37144518 0
0.25558913 -0.32827473 -0.37577963 0
0.45581043 -0.40694332 -0.38215399 0
0.16176796 -0.13508129 -0.37456846 0
0.30751133 -0.24042606 -0.37469101 0
0.50898051 -0.32630444 -0.38136101 0
0.66745055 -0.48191738 -0.37735701 0
0.085862756 0.035516739 -0.37762117 0
0.17597902 -0.077332497 -0.3707552 0
0.37685132 -0.16218662 -0.37879229 0
0.55946338 -0.25366879 -0.38209867 0
0.80283594 -0.38227367 -0.39057541 0
0.25645387 0.0055894852 -0.37735653 0
0.42616761 -0.087856293 -0.38010645 0
0.62013292 -0.17956734 -0.38535452 0
0.86058855 -0.28970051 -0.39031506 0
0.12877584 0.15385532 -0.37427235 0
0.16101408 0.12977791 -0.38226986 0
0.31935561 0.10284138 -0.37996817 0
0.4803077 0.0049123764 -0.38118935 0
0.68364775 -0.077897072 -0.38698196 0
0.92568374 -0.21991634 -0.39419413 0
0.32949734 0.20218563 -0.37437153 0
0.53625548 0.10933971 -0.38271141 0
0.73448348 0.0019130707 -0.38924026 0
0.98655212 -0.14094067 -0.39693022 0
0.36244929 0.30146408 -0.37358379 0
0.53430319 0.2196722 -0.37551165 0
0.7809093 0.11873055 -0.38910246 0
0.77426946 0.06158638 -0.39166451 0
0.55080235 0.32537365 -0.37248755 0
0.78381729 0.18273544 -0.38620043 0
0.54742157 0.37890339 -0.3692112 0
0.74887002 0.34209347 -0.37286043 0
0.80649042 0.26464558 -0.38593483 0
0.74492013 0.45036125 -0.36778736 0
-0.95437396 -0.43346024 -0.37618876 0
-0.96272814 -0.33026695 -0.38029909 0
-0.8847729 -0.37443447 -0.37457466 0
-0.80414915 -0.4276619 -0.37148666 0
-0.73266733 -0.47423744 -0.36294603 0
-0.9285388 -0.22863483 -0.3809514 0
-0.84580684 -0.28605461 -0.37775469 0
-0.76607168 -0.34651852 -0.37674332 0
-0.6809901 -0.36851978 -0.3721199 0
-0.57398105 -0.44103527 -0.36653376 0
-0.97638166 -0.11906338 -0.38136911 0
-0.8889333 -0.14644241 -0.38026714 0
-0.83741653 -0.19787693 -0.37615538 0
-0.72182786 -0.23764992 -0.37857199 0
-0.64988875 -0.27657795 -0.3697958 0
-0.54919457 -0.34117126 -0.37089348 0
-0.46696568 -0.40398121 -0.36963797 0
-0.33207035 -0.45183468 -0.36719036 0
-0.93359077 -0.019495964 -0.38231373 0
-0.83314371 -0.076636314 -0.37809896 0
-0.7492944 -0.10157013 -0.37617016 0
-0.66511691 -0.16240692 -0.37600517 0
-0.55594003 -0.18723202 -0.37309837 0
-0.46921182 -0.25768185 -0.37170315 0
-0.3869307 -0.32920551 -0.37068272 0
-0.2545855 -0.38805199 -0.36981773 0
-0.16913283 -0.48339939 -0.36145353 0
-0.95436633 0.10983944 -0.38285875 0
-0.89137232 0.05829525 -0.37893057 0
-0.78857231 0.018913269 -0.37623692 0
-0.66773224 -0.014395714 -0.37807608 0
-0.61778152 -0.086191177 -0.37237644 0
-0.50741863 -0.13080597 -0.37358522 0
-0.4104774 -0.18213272 -0.37117386 0
-0.31152821 -0.22518063 -0.36876392 0
-0.18868816 -0.30640602 -0.36881685 0
-0.072562814 -0.4083519 -0.36691952 0
-0.028190255 -0.36990261 -0.36916304 0
-0.91340554 0.19791985 -0.38197613 0
-0.82768714 0.18196487 -0.3806572 0
-0.73775673 0.10807323 -0.37798357 0
-0.63749778 0.046645164 -0.37463522 0
-0.54998899 -0.00050926208 -0.37284088 0
-0.45713043 -0.059434891 -0.37280273 0
-0.35956275 -0.066573143 -0.36440468 0
-0.33171308 -0.10173321 -0.37496376 0
-0.25462091 -0.14513779 -0.36837101 0
-0.10931849 -0.20497227 -0.36946821 0
-0.84225357 0.28896618 -0.38286209 0
-0.78472805 0.25394344 -0.37906837 0
-0.72219944 0.20966434 -0.37726164 0
-0.62016618 0.14827633 -0.37654591 0
-0.50156593 0.083392143 -0.37080574 0
-0.40432644 0.025210381 -0.37146711 0
-0.28459072 -0.012783051 -0.37212181 0
-0.18956542 -0.061216354 -0.37011623 0
-0.046194911 -0.14014053 -0.37299824 0
0.054254889 -0.2556448 -0.36880684 0
-0.8046093 0.35925961 -0.38123608 0
-0.7273376 0.34797668 -0.37852526 0
-0.66852438 0.27378178 -0.37291241 0
-0.56996238 0.24426365 -0.37564135 0
-0.48143065 0.18310547 -0.37230301 0
-0.34715235 0.12030697 -0.37094498 0
-0.24338412 0.063912392 -0.37084341 0
-0.14906955 0.034267426 -0.3665638 0
-0.003762126 -0.063246727 -0.37166977 0
-0.76193678 0.46444321 -0.37782097 0
-0.68232369 0.4434166 -0.37687588 0
-0.60494626 0.36704445 -0.37354136 0
-0.48927569 0.30153179 -0.37182665 0
-0.41829646 0.28186798 -0.37191677 0
-0.31703341 0.19271088 -0.36874008 0
-0.26684749 0.24485683 -0.37285328 0
-0.20225465 0.157897 -0.36848116 0
-0.11936772 0.090583801 -0.36606407 0
0.067895412 0.062554359 -0.3715353 0
-0.55159342 0.46903133 -0.37202597 0
-0.47337854 0.38889503 -0.37240553 0
-0.36435258 0.36413574 -0.3668375 0
-0.25540507 0.2995224 -0.36988831 0
-0.16518509 0.2632122 -0.36553335 0
-0.071622729 0.15728474 -0.3684144 0
-0.42242205 0.48493385 -0.36766195 0
-0.31399822 0.46592903 -0.36756992 0
-0.22068715 0.40274525 -0.3675704 0
-0.10579586 0.35736847 -0.36842775 0
-0.030955076 0.3007288 -0.36371183 0
-0.029109716 0.23755836 -0.36910629 0
0.11572778 0.22541523 -0.36644363 0
-0.079290986 0.4473114 -0.36661005 0
-0.0089416504 0.40935802 -0.35979509 0
0.09129262 0.29068375 -0.35745525 0
0.14589393 0.36085606 -0.36224222 0
0.1460135 0.41087341 -0.3590703 0
0.34398925 0.34821415 -0.36758232 0
0.1755718 0.4851799 -0.35975313 0
0.32937753 0.42501163 -0.3607893 0
0.51554918 0.43236256 -0.36135387 0
-0.12236869 -0.46191406 -0.35912848 0
-0.044248819 -0.39257145 -0.36061239 0
-0.083238244 -0.22479916 -0.36891031 0
0.030869126 -0.31342888 -0.36254358 0
0.22548628 -0.43971348 -0.36544418 0
0.096723795 -0.22305775 -0.3627243 0
0.2879101 -0.35694408 -0.36459684 0
0.52666998 -0.48274994 -0.3700757 0
-0.019297838 -0.11077976 -0.36513948 0
0.12318063 -0.16285896 -0.36016512 0
0.37011075 -0.25744152 -0.36760807 0
0.57449996 -0.42223454 -0.36971855 0
0.043930531 -0.019553185 -0.36627769 0
0.18543291 -0.087347031 -0.36346006 0
0.41600275 -0.18906307 -0.36816978 0
0.67046404 -0.33463287 -0.37700319 0
0.97830892 -0.49597263 -0.38813305 0
0.093491316 0.10464954 -0.36290073 0
0.25938261 0.018644333 -0.36657 0
0.492589 -0.10196304 -0.37336636 0
0.71435606 -0.24246216 -0.37455559 0
0.13679719 0.22010326 -0.36177444 0
0.14535475 0.16210842 -0.36737156 0
0.3060801 0.11917019 -0.3665452 0
0.54525661 -0.019099236 -0.37520456 0
0.77204108 -0.15511608 -0.3763895 0
0.29801226 0.22533607 -0.35837221 0
0.57690644 0.056292534 -0.37471342 0
0.82569349 -0.09312439 -0.380548 0
0.61075521 0.15511131 -0.37433004 0
0.89827311 -0.025858879 -0.38784933 0
0.54978168 0.34182644 -0.35579586 0
0.60090721 0.27998161 -0.36678505 0
0.6247133 0.21930408 -0.37352705 0
0.95070016 0.055680275 -0.39033365 0
0.55492294 0.41068268 -0.35403252 0
0.90892398 0.21810532 -0.37639332 0
0.97720325 0.15594959 -0.38977671 0
0.58222651 0.48481274 -0.35589886 0
0.86575234 0.37542439 -0.36464024 0
0.90181899 0.29856396 -0.3726306 0
0.86040866 0.45293713 -0.36179209 0
-0.96280956 -0.46123028 -0.36190701 0
-0.99764526 -0.33568764 -0.36767101 0
-0.90737212 -0.41530418 -0.35981941 0
-0.82674277 -0.42370129 -0.35791254 0
-0.72868037 -0.42464542 -0.35861063 0
-0.98067474 -0.23608685 -0.36961985 0
-0.87335145 -0.28645611 -0.37063169 0
-0.79223871 -0.32662773 -0.36219501 0
-0.67268717 -0.38142872 -0.35995674 0
-0.58011937 -0.45219612 -0.35284853 0
-0.98530841 -0.10221386 -0.37114239 0
-0.88769424 -0.15117836 -0.37101364 0
-0.81910038 -0.2125864 -0.36546755 0
-0.70694268 -0.23866463 -0.36180496 0
-0.63686681 -0.34496593 -0.35790539 0
-0.58292758 -0.30731678 -0.36166239 0
-0.4914602 -0.39021015 -0.35674572 0
-0.35174727 -0.45413017 -0.35574293 0
-0.94232941 -0.034966469 -0.36636448 0
-0.8475095 -0.061738968 -0.37186861 0
-0.74075162 -0.14067459 -0.36805391 0
-0.65551579 -0.16990662 -0.35961199 0
-0.52653837 -0.24792957 -0.36230803 0
-0.43285811 -0.33055019 -0.35592651 0
-0.27661121 -0.38972473 -0.35669947 0
-0.90020406 0.075323105 -0.37264442 0
-0.77550018 0.0037870407 -0.36527634 0
-0.70063949 -0.074204445 -0.36434269 0
-0.6503104 -0.016582489 -0.36519384 0
-0.56601298 -0.086549759 -0.36396503 0
-0.46841955 -0.16029739 -0.35926533 0
-0.34321702 -0.24168968 -0.35954809 0
-0.20124102 -0.31420135 -0.35852861 0
-0.91039896 0.15859985 -0.36761284 0
-0.80405438 0.14512825 -0.36468792 0
-0.78069663 0.098122597 -0.36765242 0
-0.66821539 0.049128532 -0.36556864 0
-0.5701791 0.021609306 -0.36103392 0
-0.52123928 -0.032062531 -0.36452293 0
-0.40076363 -0.077577591 -0.36031675 0
-0.25761771 -0.13495636 -0.36071014 0
-0.14808893 -0.21718693 -0.35422134 0
-0.85566878 0.25263786 -0.36499071 0
-0.82581747 0.22943878 -0.36783504 0
-0.71839726 0.24182129 -0.36844826 0
-0.648597 0.16834164 -0.36638117 0
-0.57543993 0.1033287 -0.36265135 0
-0.4438659 0.066801071 -0.3660655 0
-0.36032033 0.00011253357 -0.35788155 0
-0.24464202 -0.082439423 -0.35613632 0
-0.11490095 -0.17623806 -0.35497999 0
-0.81722319 0.34686565 -0.36090279 0
-0.75797772 0.31122112 -0.36447191 0
-0.7090466 0.27483082 -0.3661809 0
-0.62073195 0.23802567 -0.36312914 0
-0.52381051 0.19635868 -0.36123466 0
-0.44108987 0.12968159 -0.35883427 0
-0.30282795 0.099366188 -0.35716105 0
-0.17170799 0.01245594 -0.35883141 0
-0.039706707 -0.088197708 -0.3582468 0
-0.73270714 0.41362572 -0.36399508 0
-0.63350832 0.36420155 -0.36282539 0
-0.56316614 0.33416462 -0.36363554 0
-0.46029508 0.30335426 -0.3618679 0
-0.38073826 0.23567295 -0.35895014 0
-0.25578725 0.18714142 -0.35694838 0
-0.14237618 0.09514904 -0.35534143 0
0.034111381 0.026786804 -0.35947323 0
-0.56061983 0.45506096 -0.36400366 0
-0.44241655 0.39409256 -0.35697269 0
-0.33695126 0.34250927 -0.35722065 0
-0.20855093 0.28228951 -0.3570919 0
-0.10010862 0.20942497 -0.35289574 0
-0.088076949 0.14479446 -0.36048508 0
-0.34827602 0.46584797 -0.35685968 0
-0.30590081 0.41230011 -0.35717297 0
-0.17643917 0.37365341 -0.3557148 0
-0.055861592 0.31415462 -0.35275126 0
-0.1438179 0.46924686 -0.35493612 0
-0.041156173 0.40696144 -0.34913301 0
0.10278344 0.36785984 -0.34672308 0
0.12455976 0.29517174 -0.35480738 0
0.13597131 0.43287563 -0.34873152 0
0.29825163 0.34726524 -0.35185146 0
0.31673372 0.44910622 -0.35010672 0
-0.95399868 0.40266418 -0.39574957 0
-0.91334164 0.48128128 -0.39488077 0
-0.90426052 -0.47269344 -0.38307667 0
-0.97061884 -0.31709766 -0.3931036 0
-0.89841044 -0.39093113 -0.38819599 0
-0.81684291 -0.45689011 -0.38196135 0
-0.71793044 -0.49450397 -0.3767004 0
-0.91968083 -0.23626041 -0.39177179 0
-0.84245825 -0.31446362 -0.38827181 0
-0.7409631 -0.37341785 -0.38503695 0
-0.65259564 -0.41822243 -0.37867785 0
-0.98248124 -0.11563969 -0.39024544 0
-0.90671551 -0.1716795 -0.38552094 0
-0.78071141 -0.23028564 -0.389184 0
-0.68282366 -0.28644848 -0.38484383 0
-0.57228446 -0.31526852 -0.38049173 0
-0.55988479 -0.34857941 -0.38714314 0
-0.91776276 -0.016880989 -0.3898077 0
-0.81839263 -0.074917793 -0.39020634 0
-0.73790407 -0.14765167 -0.38690948 0
-0.64288104 -0.20652294 -0.38258362 0
-0.54078996 -0.25263309 -0.37886429 0
-0.94706285 0.073573112 -0.39414597 0
-0.88079202 0.058746338 -0.38741875 0
-0.78962004 0.00046348572 -0.38634396 0
-0.67393303 -0.040848732 -0.38614798 0
-0.57792985 -0.095347404 -0.38159704 0
-0.4830308 -0.16109276 -0.37902164 0
-0.99750412 0.20648861 -0.38994884 0
-0.89766812 0.16649342 -0.39214516 0
-0.82356453 0.14001465 -0.38860321 0
-0.74158609 0.080714226 -0.38595819 0
-0.64053297 0.039402962 -0.38306856 0
-0.53413236 -0.028179169 -0.38210201 0
-0.43175721 -0.069606781 -0.37824821 0
-0.95043385 0.29491329 -0.38848639 0
-0.83998251 0.27711964 -0.39022875 0
-0.77566993 0.23480129 -0.38682222 0
-0.69216383 0.18106365 -0.38389349 0
-0.59620106 0.12240982 -0.38211823 0
-0.48365748 0.059230804 -0.38183022 0
-0.37733114 0.02156353 -0.37842464 0
-0.88849854 0.37338924 -0.39140844 0
-0.79110563 0.3701582 -0.38923073 0
-0.74310052 0.32723618 -0.38288832 0
-0.63387299 0.28384686 -0.38371372 0
-0.56962693 0.19917107 -0.37875986 0
-0.43789089 0.16219139 -0.37932062 0
-0.32479215 0.09794426 -0.38007975 0
-0.84674811 0.46546078 -0.3894825 0
-0.75668883 0.44681168 -0.38769436 0
-0.67451739 0.40387249 -0.38771486 0
-0.5744561 0.37456322 -0.38542986 0
-0.49262714 0.29964256 -0.38271904 0
-0.39447892 0.25344753 -0.37807322 0
-0.29023588 0.20358181 -0.37573051 0
-0.28648555 0.14899254 -0.3819046 0
-0.62972116 0.48431015 -0.38802671 0
-0.5564115 0.45105076 -0.38124847 0
-0.47206581 0.37971401 -0.37852192 0
-0.34915376 0.33050537 -0.37883949 0
-0.23545516 0.30401421 -0.37604284 0
-0.42670619 0.46806049 -0.37844419 0
-0.30167162 0.42648411 -0.3784318 0
-0.17896378 0.38653946 -0.37860775 0
-0.17015564 0.45191097 -0.37421608 0
-0.51466119 -0.46427155 -0.37506342 0
-0.42335701 -0.39298248 -0.38292789 0
-0.41811633 -0.28461838 -0.37044334 0
-0.39545178 -0.33906937 -0.38132524 0
-0.27708352 -0.44338799 -0.3786521 0
-0.21933472 -0.39450264 -0.38314295 0
-0.10088217 -0.49679661 -0.37497473 0
-0.32341075 -0.21682167 -0.38070583 0
-0.21974158 -0.30373096 -0.37222719 0
-0.19676471 -0.35323048 -0.38232327 0
-0.015866399 -0.38525105 -0.37648487 0
0.0087764263 -0.40893078 -0.38435078 0
0.14298642 -0.49580383 -0.37589979 0
-0.29679596 -0.14964008 -0.37811422 0
-0.13716149 -0.21166134 -0.3775835 0
0.038604021 -0.29206657 -0.3758812 0
0.02544713 -0.33467007 -0.37839794 0
0.18474841 -0.44859409 -0.37744951 0
-0.22826338 -0.04927063 -0.37998819 0
-0.09552443 -0.14025784 -0.37737751 0
0.10528684 -0.23243809 -0.38173723 0
0.28734303 -0.34885502 -0.38537598 0
-0.19015038 0.04015255 -0.37757158 0
0.0028854609 -0.050569534 -0.38594723 0
0.11494005 -0.18343925 -0.37793684 0
0.33659887 -0.2506752 -0.38340521 0
-0.12987697 0.11915016 -0.38062286 0
0.0047820807 0.0039730072 -0.38025379 0
0.19623685 -0.097788811 -0.38378286 0
0.42963707 -0.15624905 -0.39019203 0
-0.10485208 0.19254494 -0.37801361 0
0.060994864 0.10111237 -0.38050032 0
0.24790573 0.0031414032 -0.38247919 0
0.47094679 -0.10357571 -0.39190102 0
-0.061598539 0.2980423 -0.37596083 0
0.058752179 0.20952606 -0.37057877 0
0.2592833 0.066799164 -0.3777833 0
0.49200141 -0.0386343 -0.38832235 0
-0.037705779 0.41325569 -0.36981106 0
-0.053132772 0.36052608 -0.37175798 0
0.1168232 0.31775951 -0.37194872 0
0.3039341 0.19857502 -0.37502432 0
0.31968665 0.14739132 -0.38196945 0
0.54661775 0.04450798 -0.38922167 0
0.84770489 -0.074716568 -0.40010071 0
-0.0065312386 0.49181938 -0.36854267 0
0.12867165 0.38868427 -0.36777544 0
0.35385573 0.33848763 -0.3728714 0
0.35501015 0.28022861 -0.37765074 0
0.56817687 0.17716408 -0.38238859 0
0.60993469 0.12179279 -0.3940649 0
0.93249559 0.00082015991 -0.40684605 0
0.1797663 0.49754524 -0.36753082 0
0.33102143 0.3889637 -0.36489773 0
0.59336591 0.2803278 -0.37904024 0
0.97649467 0.082009315 -0.40623045 0
0.37157762 0.49122906 -0.36429787 0
0.60886931 0.41122437 -0.37206221 0
0.96014583 0.176157 -0.3965168 0
0.98568451 0.29984379 -0.39220428 0
0.52713895 -0.4679451 -0.3876977 0
0.58306003 -0.39074707 -0.38845396 0
0.66970003 -0.3012352 -0.39389896 0
0.97454774 -0.4851675 -0.40192795 0
0.70609415 -0.25044918 -0.39451313 0
0.76390314 -0.16500378 -0.39500999 0
-0.99288797 0.44773483 -0.39558125 0
-0.9512434 -0.037114143 -0.39046097 0
-0.93762875 0.070697784 -0.39068222 0
-0.8803618 0.061056137 -0.3899827 0
-0.93044603 0.17664719 -0.38955021 0
-0.82354355 0.14027309 -0.38908243 0
-0.95086277 0.30259514 -0.39146185 0
-0.84987915 0.24580574 -0.38528633 0
-0.767699 0.20452976 -0.39009142 0
-0.87965345 0.39631081 -0.39051771 0
-0.82858658 0.31975842 -0.38695145 0
-0.7170893 0.29448223 -0.38524723 0
-0.82634914 0.47911644 -0.38725758 0
-0.7461797 0.42098331 -0.38652515 0
-0.66410291 0.35433102 -0.38579512 0
-0.60368729 0.44510365 -0.38182402 0
-0.98169506 -0.45376015 -0.38596153 0
-0.92302334 -0.37692642 -0.38747931 0
-0.81251419 -0.42895126 -0.38456678 0
-0.98389733 -0.26074409 -0.39007044 0
-0.86847603 -0.29564095 -0.38726711 0
-0.77531135 -0.37065125 -0.38387012 0
-0.94627655 -0.18076706 -0.386549 0
-0.82338321 -0.22851467 -0.3870163 0
-0.72134829 -0.28927326 -0.3832407 0
-0.88658893 -0.094619751 -0.3861208 0
-0.7718215 -0.143713 -0.38513136 0
-0.65543723 -0.19738293 -0.38325214 0
-0.81092954 0.0072956085 -0.38603497 0
-0.72990525 -0.061571121 -0.38121462 0
-0.58444047 -0.12074852 -0.3861208 0
-0.74390161 0.092184067 -0.38634253 0
-0.66248024 0.0088224411 -0.38391829 0
-0.53763545 -0.039739609 -0.38267183 0
-0.69064379 0.17105198 -0.38422775 0
-0.59532702 0.091178894 -0.38424349 0
-0.49004829 0.039136887 -0.379035 0
-0.65344465 0.2437048 -0.37935686 0
-0.53287911 0.17422104 -0.38290119 0
-0.42274332 0.10667419 -0.38107157 0
-0.57598984 0.31465054 -0.38301516 0
-0.47896183 0.25561333 -0.37947178 0
-0.34574628 0.20836639 -0.37832737 0
-0.52882195 0.38587475 -0.37968874 0
-0.4309274 0.32762527 -0.37594557 0
-0.29784012 0.28268909 -0.37410069 0
-0.44218659 0.48761463 -0.37841225 0
-0.34315634 0.41874313 -0.37682819 0
-0.72029984 -0.49814701 -0.37711477 0
-0.68036485 -0.4382658 -0.37665939 0
-0.61098087 -0.44817162 -0.37486219 0
-0.51874042 -0.45366573 -0.37672997 0
-0.5942328 -0.35231876 -0.38124084 0
-0.47573292 -0.40170097 -0.37681055 0
-0.53934932 -0.26290417 -0.3790803 0
-0.40056014 -0.32923794 -0.38051367 0
-0.47010887 -0.17342091 -0.3792243 0
-0.35803998 -0.26493168 -0.37905741 0
-0.42551422 -0.10862923 -0.37760782 0
-0.32943881 -0.20636463 -0.37520933 0
-0.25525832 -0.14553452 -0.38030958 0
-0.33250117 -0.013771057 -0.3804841 0
-0.21878469 -0.084526062 -0.37681627 0
-0.28065586 0.051199913 -0.37939024 0
-0.14817095 -0.010710716 -0.37787294 0
-0.22947609 0.11285305 -0.37829399 0
-0.085327864 0.055958748 -0.37804413 0
-0.15739894 0.19913197 -0.3766284 0
-0.023742914 0.13650894 -0.37411165 0
-0.22881508 0.35584927 -0.37422228 0
-0.087658882 0.28425407 -0.37411451 0
-0.13355565 0.44782543 -0.37568903 0
-0.040463686 0.36846447 -0.36601639 0
0.043035269 0.44741917 -0.36718321 0
-0.37771297 -0.49421024 -0.36901712 0
-0.32189584 -0.43584728 -0.36999035 0
-0.25574923 -0.38706589 -0.37479877 0
-0.18759632 -0.31476974 -0.37703419 0
-0.12566328 -0.23719597 -0.37651968 0
-0.085378766 -0.17673302 -0.37354517 0
0.012056708 -0.089691162 -0.37590504 0
0.090537548 -0.023992538 -0.37786293 0
0.13203657 0.014713287 -0.37736893 0
0.048178554 0.2515831 -0.36622429 0
0.069419146 0.22507572 -0.37698269 0
0.23269868 0.087266922 -0.38168716 0
0.070689559 0.29341316 -0.36182547 0
0.28943038 0.1742506 -0.37469101 0
0.16672122 0.37794495 -0.36426544 0
0.36763358 0.26132393 -0.37301302 0
0.258237 0.46230984 -0.3650775 0
0.42345381 0.33639431 -0.36784363 0
0.48922563 0.40807343 -0.36423349 0
0.58816421 0.49169254 -0.36402178 0
-0.079662085 -0.45769119 -0.37053537 0
-0.0085818768 -0.41255379 -0.37637663 0
0.069402456 -0.35101223 -0.38072538 0
0.27081609 -0.47963333 -0.37936306 0
0.11198044 -0.29663467 -0.37805033 0
0.3298043 -0.42691135 -0.37842798 0
0.18528247 -0.22998714 -0.37900209 0
0.41430008 -0.36797428 -0.38327503 0
0.28625977 -0.15465736 -0.38342667 0
0.38473916 -0.07943058 -0.38618946 0
0.47280192 -0.015732765 -0.3880496 0
0.56841934 0.044393539 -0.39037418 0
0.60453677 0.076830864 -0.3870163 0
0.70166874 0.16536999 -0.3868227 0
0.80353653 0.25230408 -0.38707542 0
0.8556695 0.30309296 -0.38446951 0
0.95422614 0.38605785 -0.38179159 0
0.66316926 -0.48530579 -0.38652563 0
0.51961267 -0.29926777 -0.3875742 0
0.7316525 -0.44396782 -0.38946581 0
0.78306448 -0.4050684 -0.3882556 0
0.6387614 -0.22709656 -0.39304829 0
0.74181628 -0.16098881 -0.39505672 0
0.84049618 -0.099235535 -0.39637852 0
0.90396059 -0.059872627 -0.39622307 0
0.86441839 -0.35422993 -0.39005184 0
0.98636556 -0.30348301 -0.40018988 0
-0.9708432 0.48364067 -0.41750097 0
-0.99531531 0.14528084 -0.41553402 0
-0.95777047 0.2410984 -0.41453266 0
-0.93369579 0.351614 -0.41747904 0
-0.85112941 0.31338215 -0.41193008 0
-0.87349176 0.43340778 -0.41250801 0
-0.75949252 0.39178848 -0.41483879 0
-0.71000314 0.45989227 -0.40940094 0
-0.96306658 -0.28486252 -0.40501595 0
-0.94240046 -0.32605362 -0.41594124 0
-0.95697165 -0.23009872 -0.41346025 0
-0.94007099 -0.12477303 -0.415555 0
-0.82944202 -0.1580019 -0.41119862 0
-0.95843506 0.023404121 -0.41459322 0
-0.87242937 -0.027525902 -0.41208124 0
-0.76312459 -0.072194099 -0.40925455 0
-0.89913785 0.099797249 -0.41244745 0
-0.79704118 0.069950104 -0.40906954 0
-0.69885135 0.0098247528 -0.40659571 0
-0.82724071 0.19208622 -0.40894651 0
-0.74565279 0.13002205 -0.40762329 0
-0.63979232 0.08386898 -0.40350151 0
-0.77198339 0.24992371 -0.40848684 0
-0.65942836 0.20185757 -0.41099739 0
-0.71086729 0.30966949 -0.40843058 0
-0.60445774 0.28390312 -0.40351868 0
-0.63484359 0.38865662 -0.40650558 0
-0.48550093 0.37621021 -0.40793514 0
-0.56055963 0.4642334 -0.4041028 0
-0.46805692 0.4216938 -0.39904833 0
-0.91107321 -0.46806145 -0.40981865 0
-0.86622298 -0.39218712 -0.40682077 0
-0.85192335 -0.39013004 -0.40942383 0
-0.82439363 -0.31861782 -0.4031601 0
-0.73771381 -0.23829079 -0.40737295 0
-0.68491256 -0.1575098 -0.40339994 0
-0.59025991 -0.066453934 -0.40563774 0
-0.52431786 0.014095306 -0.40206289 0
-0.58131051 0.14526367 -0.40250969 0
-0.46184039 0.075062752 -0.40143251 0
-0.48715544 0.21830463 -0.40650272 0
-0.38947082 0.13884926 -0.40183353 0
-0.40743268 0.29929447 -0.40394974 0
-0.27480841 0.23334789 -0.40372276 0
-0.36647987 0.35111809 -0.39904213 0
-0.23252392 0.28298569 -0.39942932 0
-0.27581728 0.42027283 -0.40105391 0
-0.13059568 0.35988331 -0.40130854 0
-0.19538462 0.49815369 -0.39641237 0
-0.088926911 0.41056633 -0.39476633 0
-0.71346426 -0.44702339 -0.40773487 0
-0.61048865 -0.48402214 -0.39681768 0
-0.65829909 -0.37281799 -0.40605116 0
-0.58560896 -0.28040028 -0.40458918 0
-0.47061574 -0.37107277 -0.40409803 0
-0.53325474 -0.20451546 -0.40053749 0
-0.41525531 -0.29032707 -0.39940119 0
-0.47922134 -0.14308453 -0.39905834 0
-0.35027802 -0.2269516 -0.39982319 0
-0.42317843 -0.093017578 -0.40014267 0
-0.24841738 -0.13477325 -0.40091658 0
-0.32129228 -0.01774025 -0.40531397 0
-0.18013251 -0.070459366 -0.39995527 0
-0.26913297 0.042060852 -0.40147591 0
-0.23844898 0.076890945 -0.3987813 0
-0.11393249 -0.0082302094 -0.39792395 0
-0.16408134 0.14052963 -0.39834976 0
-0.056561947 0.043364525 -0.39440012 0
-0.054696202 0.21854019 -0.40225983 0
-0.040015697 0.25205421 -0.39496851 0
0.031083584 0.30567837 -0.39611912 0
-0.015180111 0.46210098 -0.39661312 0
0.07788074 0.34999371 -0.39330053 0
0.15234172 0.41471195 -0.3900156 0
0.2237426 0.48072243 -0.38425827 0
-0.30008256 -0.42254448 -0.40197992 0
-0.25438786 -0.3520298 -0.39574432 0
-0.23214388 -0.37185764 -0.40564585 0
-0.16109407 -0.28728771 -0.4021039 0
-0.09166348 -0.22041225 -0.40116596 0
-0.010907769 -0.15587234 -0.40100145 0
0.071893096 -0.1009922 -0.40251017 0
0.14517987 -0.049416542 -0.40106153 0
0.062247157 0.12064838 -0.39875793 0
0.27325428 0.020583153 -0.4066062 0
0.15840626 0.19634151 -0.39939833 0
0.20584071 0.24173069 -0.39613056 0
0.24178112 0.28292751 -0.39039183 0
0.31738198 0.33195686 -0.39269638 0
0.37824535 0.3795681 -0.39038229 0
0.43877769 0.42732716 -0.38700199 0
0.53607869 0.47986126 -0.39101267 0
-0.030981183 -0.43832397 -0.40320492 0
0.015645266 -0.39226723 -0.39962673 0
0.076729894 -0.3377676 -0.39652014 0
0.17591941 -0.28233624 -0.40314722 0
0.26242566 -0.22571087 -0.40360546 0
0.4000603 -0.14653492 -0.40632105 0
0.34531713 0.072410583 -0.40250731 0
0.56286168 -0.073584557 -0.41553497 0
0.46080911 0.14086628 -0.40950727 0
0.51334608 0.18126011 -0.40666389 0
0.56843722 0.22243881 -0.40254831 0
0.64345288 0.26800251 -0.40194368 0
0.72211051 0.31379223 -0.40120029 0
0.85478616 0.38600349 -0.40047503 0
0.35909641 -0.45618153 -0.40504551 0
0.47932208 -0.39280319 -0.40919971 0
0.53344798 -0.36127949 -0.40752697 0
0.64574528 -0.30956459 -0.41410351 0
0.64905047 -0.03659153 -0.4170742 0
0.70905483 -0.011546135 -0.41581488 0
0.81561387 0.030591011 -0.41934919 0
0.94517386 0.099905968 -0.41978931 0
0.81190145 -0.47681141 -0.41266537 0
0.77238703 -0.25102997 -0.41699696 0
0.92379332 -0.18613529 -0.42222643 0
0.93672538 -0.42844582 -0.41876745 0
-0.97593141 0.21696949 -0.40369797 0
-0.91623163 0.27918625 -0.39860964 0
-0.93394351 0.39283562 -0.39963007 0
-0.84063697 0.33952045 -0.39812946 0
-0.89367938 0.48774433 -0.39865685 0
-0.82871163 0.48243427 -0.39706516 0
-0.73629987 0.41964912 -0.39808273 0
-0.64897609 0.49265099 -0.39524508 0
-0.98581231 -0.21171665 -0.40188026 0
-0.92314517 -0.14266109 -0.39625692 0
-0.95737255 -0.026362419 -0.40033865 0
-0.86573899 -0.089855194 -0.39399862 0
-0.97635198 0.092267036 -0.39895248 0
-0.88150716 0.046021461 -0.3963275 0
-0.78212118 -0.026996613 -0.39497948 0
-0.91876757 0.1438427 -0.39700842 0
-0.82447076 0.15964127 -0.39460135 0
-0.78471613 0.11034489 -0.40042114 0
-0.68697369 0.050706863 -0.39314461 0
-0.7948879 0.2430954 -0.39596176 0
-0.71482313 0.17767906 -0.39524126 0
-0.71423197 0.30432796 -0.39599085 0
-0.66031849 0.22999573 -0.39068937 0
-0.65838087 0.36741638 -0.38751793 0
-0.66945612 0.33970737 -0.39526701 0
-0.5531286 0.31044483 -0.38979149 0
-0.56524467 0.430439 -0.38951159 0
-0.44319963 0.39260197 -0.38813734 0
-0.3662343 0.45274448 -0.38521528 0
-0.9563061 -0.49399567 -0.39268637 0
-0.98386908 -0.36949539 -0.4002285 0
-0.87278163 -0.4264946 -0.39124155 0
-0.88922644 -0.27856445 -0.39590645 0
-0.8924017 -0.30299282 -0.402915 0
-0.79168677 -0.37083435 -0.39287233 0
-0.8089155 -0.22429943 -0.39964008 0
-0.71242976 -0.30440617 -0.39184427 0
-0.74842596 -0.16866684 -0.3970418 0
-0.639588 -0.2429924 -0.39020348 0
-0.60122216 -0.20812416 -0.38781071 0
-0.67457533 -0.10075283 -0.39314556 0
-0.54224944 -0.16749191 -0.38836336 0
-0.58428061 -0.023382187 -0.38908577 0
-0.45029736 -0.10536194 -0.38903284 0
-0.61627245 0.11957073 -0.38656807 0
-0.49030721 0.046832085 -0.38671207 0
-0.50361001 0.19250584 -0.38998747 0
-0.40939665 0.10429096 -0.38514042 0
-0.43958211 0.24515438 -0.38655758 0
-0.32016504 0.16630363 -0.38429499 0
-0.30623627 0.32440567 -0.39239931 0
-0.23413956 0.228652 -0.38179111 0
-0.24002135 0.38114548 -0.38638783 0
-0.13801777 0.29315186 -0.38061762 0
-0.15077674 0.45205402 -0.37997484 0
-0.052639604 0.35372066 -0.37790823 0
0.056580305 0.42880344 -0.37602806 0
-0.76978338 -0.49314594 -0.38627481 0
-0.67166924 -0.43094444 -0.38975191 0
-0.63236976 -0.39904881 -0.38771057 0
-0.54714882 -0.3480854 -0.39189053 0
-0.43934214 -0.4399128 -0.3823514 0
-0.51135802 -0.30650902 -0.384974 0
-0.34839416 -0.38436699 -0.38280153 0
-0.38682711 -0.22284603 -0.38596058 0
-0.29090321 -0.34628868 -0.38299656 0
-0.31938636 -0.17149448 -0.3826685 0
-0.37557352 -0.050575256 -0.38682795 0
-0.23089659 -0.11890793 -0.38511086 0
-0.25243306 0.021588326 -0.39107037 0
-0.13949275 -0.059961319 -0.38409424 0
-0.17205918 0.08529377 -0.38377285 0
-0.039563775 -0.0049753189 -0.38377285 0
-0.054556012 0.15737057 -0.38549328 0
0.092341423 0.054302216 -0.3880291 0
0.025633574 0.22125721 -0.37996244 0
0.1673882 0.10278225 -0.38145971 0
0.12734759 0.29321384 -0.37665129 0
0.213673 0.35234165 -0.37244368 0
0.37990522 0.45054913 -0.37085104 0
-0.18587315 -0.48412991 -0.38589573 0
-0.21771181 -0.2985096 -0.38298941 0
-0.075632215 -0.43044662 -0.38413334 0
-0.13017428 -0.24955463 -0.38681746 0
0.075308919 -0.36354446 -0.39050198 0
-0.061870933 -0.20944214 -0.38652277 0
0.12073708 -0.34083939 -0.38746214 0
0.19144917 -0.31006336 -0.38908005 0
0.0064640045 -0.17674351 -0.38683271 0
0.06975174 -0.14625359 -0.38536692 0
0.15870273 -0.10742569 -0.38804197 0
0.2797085 -0.055387497 -0.38909578 0
0.29504001 0.17686844 -0.3822999 0
0.46562231 0.017467499 -0.39833069 0
0.51219928 0.030004501 -0.39373589 0
0.41893661 0.24913406 -0.38128376 0
0.66308713 0.091856003 -0.40220213 0
0.57308459 0.32171917 -0.38329124 0
0.75046015 0.40031815 -0.38904333 0
0.84356463 0.44330788 -0.38642693 0
0.91007495 0.47410679 -0.38217449 0
0.39793873 -0.46364784 -0.39347124 0
0.30261636 -0.26346684 -0.392272 0
0.5302099 -0.41723251 -0.39508057 0
0.37001288 -0.23509216 -0.39014339 0
0.5024519 -0.18957329 -0.39919519 0
0.57152915 -0.17201805 -0.39509296 0
0.66439188 -0.14462185 -0.39792776 0
0.8403132 -0.087504387 -0.40916729 0
0.96295261 -0.05200386 -0.41335201 0
0.7592591 0.13489532 -0.40341139 0
0.85628152 0.17837429 -0.40171337 0
0.64959693 -0.37613678 -0.39960623 0
0.74396276 -0.34594345 -0.39984751 0
0.87436259 -0.30423069 -0.40403271 0
-0.94830072 0.43420982 -0.38925362 0
-0.85046446 0.48251343 -0.38757896 0
-0.99819946 0.10997391 -0.3874979 0
-0.88817048 0.15875149 -0.38718271 0
-0.97936833 0.32770061 -0.39067459 0
-0.91272247 0.25524521 -0.38935709 0
-0.83070147 0.23852444 -0.38735867 0
-0.75566924 0.21846867 -0.3832469 0
-0.8283211 0.39862156 -0.39026546 0
-0.74379134 0.33358479 -0.38547564 0
-0.74334717 0.44071484 -0.38628006 0
-0.62937582 0.38557148 -0.38390923 0
-0.58736992 0.46097946 -0.38048506 0
-0.53593373 0.43210697 -0.37386799 0
-0.41271436 0.48459911 -0.37746525 0
-0.97933698 -0.22207546 -0.39512873 0
-0.97247767 -0.098783493 -0.39128542 0
-0.91145504 -0.19199181 -0.38784647 0
-0.97430384 0.0043144226 -0.3916111 0
-0.92595887 -0.075860977 -0.38145638 0
-0.89563954 0.04043293 -0.38581944 0
-0.81979609 -0.032570839 -0.38400412 0
-0.78348732 -0.016174316 -0.37884903 0
-0.79100418 0.085850716 -0.38336945 0
-0.67494321 0.027256012 -0.38212824 0
-0.60946524 0.054005623 -0.37931776 0
-0.67386878 0.13549805 -0.3819356 0
-0.52555823 0.083889961 -0.37781191 0
-0.65752649 0.26249599 -0.3795495 0
-0.52762055 0.19617081 -0.37904263 0
-0.42289364 0.12024307 -0.37223244 0
-0.55995107 0.30598259 -0.37547016 0
-0.41329575 0.2411747 -0.37523794 0
-0.29100978 0.16868782 -0.37176847 0
-0.42315793 0.36433697 -0.37482357 0
-0.28983259 0.28883553 -0.37262535 0
-0.17065477 0.21273327 -0.37596512 0
-0.28228223 0.42366695 -0.37392139 0
-0.15854287 0.33889866 -0.37011623 0
-0.21487498 0.45148277 -0.36944199 0
-0.05067718 0.38176918 -0.36901617 0
-0.11109865 0.49240971 -0.37059879 0
0.063745856 0.42844296 -0.37128401 0
0.1302743 0.45800686 -0.36362314 0
-0.9814769 -0.46548462 -0.38695765 0
-0.94146967 -0.45392227 -0.38026667 0
-0.84526098 -0.42141247 -0.38348055 0
-0.88578498 -0.31092358 -0.38640022 0
-0.79232895 -0.40555573 -0.37978029 0
-0.84851813 -0.1659441 -0.38608694 0
-0.72664309 -0.24807167 -0.38471651 0
-0.67720997 -0.36676693 -0.38372469 0
-0.78815365 -0.14105892 -0.38342667 0
-0.63010943 -0.21172714 -0.38021851 0
-0.6672281 -0.092702866 -0.3814435 0
-0.54598355 -0.18496037 -0.37215567 0
-0.51601005 -0.038509369 -0.37853336 0
-0.40103328 -0.13537025 -0.38060713 0
-0.41408062 -0.0050802231 -0.37402725 0
-0.33163857 -0.11485863 -0.37601805 0
-0.22446179 -0.080465317 -0.37789059 0
-0.27793515 0.041544914 -0.37917805 0
-0.15291512 -0.060165405 -0.37337875 0
-0.19868374 0.066950798 -0.37669992 0
-0.018608332 -0.026317596 -0.37815523 0
-0.053919315 0.111619 -0.37512827 0
-0.034539938 0.26337624 -0.37752151 0
0.090077162 0.15204239 -0.37302971 0
0.061842561 0.30406857 -0.36650705 0
0.20903409 0.18510628 -0.37183952 0
0.20108771 0.35621452 -0.36205053 0
0.31345618 0.21369267 -0.37085915 0
0.32788706 0.39504719 -0.36263752 0
0.44186938 0.24436283 -0.37080574 0
0.43768823 0.42454624 -0.36121798 0
0.6006428 0.2813921 -0.37670803 0
0.6340121 0.47634888 -0.36978626 0
0.74408388 0.49781513 -0.36749077 0
-0.68769109 -0.48035908 -0.37287617 0
-0.60824203 -0.45983887 -0.37203074 0
-0.62831998 -0.34965801 -0.37757397 0
-0.50260603 -0.43229961 -0.37588406 0
-0.53095174 -0.31791019 -0.3799963 0
-0.37101507 -0.4028883 -0.37369871 0
-0.40903401 -0.28100777 -0.37787199 0
-0.31982028 -0.2577219 -0.36990547 0
-0.22927606 -0.36340237 -0.37246704 0
-0.11413479 -0.33127689 -0.37483549 0
-0.12513196 -0.19920158 -0.37632132 0
-0.011168599 -0.31577492 -0.37616348 0
0.090870738 -0.30631828 -0.37426519 0
0.057562828 -0.16398811 -0.37863064 0
0.17731106 -0.14253521 -0.38143826 0
0.075731158 -0.012036324 -0.37691498 0
0.19756341 0.011929512 -0.37965012 0
0.30288208 -0.12027359 -0.38454342 0
0.30637836 0.029356956 -0.37952185 0
0.44755971 -0.09720993 -0.38861561 0
0.46571183 0.058035851 -0.38427782 0
0.61857235 -0.079054832 -0.39417124 0
0.61847591 0.087002754 -0.38802719 0
0.82533407 0.1314497 -0.39712715 0
0.97363114 0.15105534 -0.39904356 0
0.7342093 0.30765724 -0.37807941 0
0.96042311 0.35701275 -0.3864975 0
-0.17757547 -0.49795055 -0.36948395 0
-0.047171116 -0.48231602 -0.37255907 0
0.1047318 -0.45536423 -0.38069439 0
0.23764324 -0.43778038 -0.38480997 0
0.2782824 -0.26627445 -0.38465309 0
0.37245774 -0.42788696 -0.38369608 0
0.44819903 -0.42862606 -0.38221359 0
0.39761853 -0.25620651 -0.38378286 0
0.62949419 -0.40348339 -0.38873482 0
0.56685019 -0.23525524 -0.39186096 0
0.68049252 -0.23419857 -0.38965845 0
0.74747503 -0.073878288 -0.3949008 0
0.8627696 -0.20994473 -0.3944912 0
0.96605134 -0.041359901 -0.40581608 0
0.80698645 -0.38749027 -0.39142847 0
0.96181834 -0.38737679 -0.39617252 0
-0.98937762 0.41307259 -0.40195704 0
-0.89968157 0.464715 -0.39870501 0
