# .PCD v0.7 - Point Cloud Data file format
VERSION 0.7
FIELDS x y z intensity
SIZE 4 4 4 4
TYPE F F F F
COUNT 1 1 1 1
WIDTH 1286
HEIGHT 1
VIEWPOINT 0 0 0 1 0 0 0
POINTS 1286
DATA ascii
0.60707855 -0.16076946 -0.35227728 0
-0.072061539 -0.06863308 -0.37021208 0
0.0106287 -0.062210083 -0.3673768 0
0.10223913 -0.071409225 -0.36684227 0
0.20416927 -0.056480408 -0.36624146 0
0.28433704 -0.078920364 -0.36267757 0
0.4056344 -0.075592995 -0.36158705 0
-0.065052509 0.026316643 -0.36733389 0
0.039925575 0.042790413 -0.36841202 0
0.12768793 0.030978203 -0.36710024 0
0.19463587 -0.0074300766 -0.36197138 0
0.30772829 -0.0074033737 -0.36364126 0
-0.052462101 0.13528061 -0.36624908 0
0.028557301 0.12366867 -0.36390305 0
0.12950563 0.13333988 -0.36407518 0
-0.049872875 0.23943806 -0.36475372 0
0.044559002 0.24489689 -0.36430979 0
0.1291728 0.2191906 -0.36219549 0
0.21609402 0.19022465 -0.35979652 0
-0.062940121 0.32565117 -0.3608861 0
0.027603626 0.32927418 -0.36020994 0
-0.09790802 0.42926598 -0.35372353 0
0.013171196 0.43038368 -0.35633612 0
0.076390743 0.45782852 -0.35062933 0
0.93407249 -0.17641258 -0.3516984 0
0.97167826 -0.13027287 -0.35378075 0
0.78615332 -0.051364899 -0.35096598 0
0.8494873 0.037677765 -0.35627794 0
0.87841749 0.10355282 -0.35688782 0
0.65026951 0.21926785 -0.34673643 0
0.92947197 0.23096943 -0.3599658 0
0.51765108 0.33549595 -0.35101604 0
0.69398165 0.32404327 -0.35095024 0
0.95074081 0.31635284 -0.36007595 0
0.37585449 0.42973804 -0.34855795 0
0.52239609 0.40314007 -0.35031176 0
0.69509697 0.40305519 -0.34881973 0
0.97556734 0.4018383 -0.36154079 0
0.97682762 0.49855709 -0.35899591 0
-0.48777199 -0.46729755 -0.37362194 0
-0.40809441 -0.46356297 -0.37195158 0
-0.33040571 -0.46263027 -0.3695302 0
-0.20642805 -0.46596336 -0.36381435 0
-0.083187103 -0.47720337 -0.35860682 0
0.019267559 -0.47094059 -0.35401964 0
0.13968945 -0.47940731 -0.35547304 0
0.14736319 -0.44677448 -0.35229731 0
0.25368214 -0.46010113 -0.35088921 0
0.38930559 -0.46684742 -0.34670877 0
0.52410316 -0.49328518 -0.34237528 0
0.5580554 -0.42639351 -0.34155893 0
0.6861043 -0.48192978 -0.33671427 0
-0.46320724 -0.38883209 -0.37029028 0
-0.40882301 -0.3605814 -0.36636686 0
-0.30553246 -0.3506918 -0.36655903 0
-0.21775913 -0.38619709 -0.36515045 0
-0.13871431 -0.38400745 -0.36124516 0
-0.026651382 -0.37143993 -0.36017513 0
0.073726177 -0.3758173 -0.35655403 0
0.20342064 -0.34566975 -0.35451508 0
0.30238485 -0.35725307 -0.35002375 0
0.4289484 -0.38283348 -0.34556484 0
0.60042953 -0.34929848 -0.34270382 0
0.72939396 -0.40387821 -0.33679867 0
0.78289032 -0.34684372 -0.34102583 0
0.99222565 -0.38349342 -0.34477615 0
-0.43074465 -0.27600574 -0.36682034 0
-0.31393671 -0.27299404 -0.36315966 0
-0.18078947 -0.26814747 -0.3622179 0
-0.098405361 -0.27114296 -0.35986948 0
0.018026829 -0.27096176 -0.36057138 0
0.1154809 -0.27671528 -0.35613728 0
0.22896194 -0.26400375 -0.35169411 0
0.28739262 -0.27976799 -0.35289907 0
0.35773182 -0.23877716 -0.35081816 0
0.48192739 -0.27754974 -0.34667063 0
0.63978958 -0.26955032 -0.34312344 0
0.82103777 -0.30533791 -0.34248018 0
0.88771439 -0.23044395 -0.34844971 0
-0.403687 -0.17836952 -0.36515236 0
-0.32539082 -0.17582607 -0.36303568 0
-0.19737911 -0.15858364 -0.36024141 0
-0.096369267 -0.16230869 -0.35868979 0
0.033188343 -0.16451168 -0.35532618 0
0.085355282 -0.19374371 -0.35561228 0
0.16359138 -0.13398361 -0.35516453 0
0.26499557 -0.18370628 -0.35296583 0
0.38458157 -0.17311382 -0.35102654 0
0.53020525 -0.16347122 -0.34685993 0
0.68350792 -0.18832302 -0.34322262 0
-0.38102627 -0.065392494 -0.36307907 0
-0.29407597 -0.049850464 -0.36196804 0
-0.22554493 -0.09965992 -0.36036873 0
-0.1062336 -0.074728966 -0.35450459 0
-0.053705215 -0.068968773 -0.35516071 0
0.058104992 -0.070422173 -0.35440636 0
0.17349672 -0.062666893 -0.35256386 0
0.2804842 -0.10775566 -0.3505764 0
0.41208649 -0.084030151 -0.35008049 0
0.5389967 -0.096895218 -0.34283066 0
-0.36508131 0.050459862 -0.36116028 0
-0.30656242 0.047216415 -0.35962534 0
-0.19329977 0.040257454 -0.35990572 0
-0.12632561 0.016562462 -0.35555315 0
-0.03809166 0.029370308 -0.35346699 0
0.073748112 0.011284828 -0.35329628 0
0.21880436 0.052596092 -0.3556366 0
0.32040167 0.03318882 -0.35056829 0
0.42636204 0.014966965 -0.34683943 0
0.44764948 0.036446571 -0.34997129 0
0.58983135 0.0045108795 -0.34668016 0
-0.35756111 0.13639832 -0.35970497 0
-0.28296471 0.14814758 -0.35666656 0
-0.19175625 0.15583706 -0.35634184 0
-0.098671913 0.1311121 -0.35650063 0
-0.017593861 0.13507748 -0.35346174 0
0.10610723 0.13204575 -0.35449076 0
0.21916342 0.14122677 -0.35205793 0
0.39286518 0.12576485 -0.34761429 0
0.46661854 0.16771126 -0.3474021 0
0.61563015 0.11462688 -0.34505844 0
-0.40381289 0.22230148 -0.34857941 0
-0.31516981 0.23671341 -0.35604429 0
-0.20425034 0.24209118 -0.35170746 0
-0.10567904 0.23187256 -0.35259151 0
-0.0081391335 0.23520756 -0.3525672 0
0.11165857 0.22862339 -0.35268497 0
0.21900606 0.23767948 -0.34912395 0
0.35293245 0.21376514 -0.34927607 0
0.48388147 0.2432127 -0.34777117 0
-0.39939547 0.31504536 -0.34715033 0
-0.3212285 0.31245136 -0.34549284 0
-0.21829128 0.33890057 -0.34700346 0
-0.12338591 0.32749367 -0.34725332 0
-0.0242939 0.33229351 -0.34770679 0
0.10230255 0.32232189 -0.34917927 0
0.24183798 0.34630775 -0.35076904 0
0.37202787 0.31449413 -0.34991026 0
-0.41902161 0.42478752 -0.3395915 0
-0.32364559 0.42127228 -0.34318256 0
-0.21326303 0.44061375 -0.33848619 0
-0.12344408 0.42095661 -0.34553242 0
-0.044416428 0.43192101 -0.34264183 0
0.091302872 0.41072464 -0.34570742 0
0.21599722 0.42414761 -0.34522438 0
0.039074898 0.49103642 -0.33634806 0
0.91594982 0.10085297 -0.37764311 0
0.95112467 0.16134453 -0.37930775 0
0.72475672 0.26403236 -0.37123346 0
0.96808577 0.20618248 -0.37807751 0
0.5579567 0.35484791 -0.37124062 0
0.74998331 0.35552311 -0.36979532 0
0.58329535 0.45498085 -0.37113285 0
0.78400803 0.42963982 -0.37239027 0
-0.70339394 -0.46366024 -0.40212965 0
-0.61971045 -0.47396755 -0.39831066 0
-0.51255465 -0.46849918 -0.39337111 0
-0.41372681 -0.48206711 -0.39018631 0
-0.32129908 -0.46576118 -0.3838129 0
-0.18166304 -0.48656654 -0.37908125 0
-0.020981312 -0.46015167 -0.37531662 0
0.079117298 -0.44385242 -0.37404156 0
0.19620848 -0.47901726 -0.36948252 0
0.36702299 -0.43875027 -0.36435699 0
0.49833775 -0.47270012 -0.36126947 0
0.68266487 -0.48109818 -0.35530281 0
0.92376232 -0.49984837 -0.35637236 0
0.97832823 -0.46038342 -0.35900402 0
-0.70368242 -0.37880516 -0.40135193 0
-0.6159482 -0.35831356 -0.39465094 0
-0.53220129 -0.37659931 -0.39154196 0
-0.42557192 -0.371665 -0.38519764 0
-0.31697035 -0.35349464 -0.38454199 0
-0.22809458 -0.38869286 -0.38363171 0
-0.12177086 -0.37909698 -0.37937546 0
-0.01856184 -0.36680889 -0.37412643 0
0.1108737 -0.37663364 -0.3715086 0
0.27527952 -0.35163689 -0.37138271 0
0.39919424 -0.38819313 -0.36524343 0
0.56528521 -0.36410809 -0.36133385 0
0.76280069 -0.36518002 -0.35663176 0
-0.6669879 -0.27248573 -0.39834452 0
-0.62386942 -0.26089954 -0.39396095 0
-0.51969814 -0.27919674 -0.39019632 0
-0.41842413 -0.2526207 -0.38474894 0
-0.29176617 -0.27168655 -0.3810854 0
-0.19533205 -0.3010931 -0.38104439 0
-0.069040775 -0.27037144 -0.37954378 0
-0.011373043 -0.27131844 -0.37418747 0
0.16642714 -0.27863693 -0.37298918 0
0.31410837 -0.2609272 -0.36779928 0
0.44397259 -0.31039715 -0.36550379 0
0.62383175 -0.26244736 -0.36147976 0
0.81517506 -0.31965828 -0.35979509 0
0.87156296 -0.27221584 -0.36205482 0
-0.60827494 -0.1670351 -0.39090729 0
-0.51254606 -0.16465378 -0.38510942 0
-0.42784119 -0.16211319 -0.38459969 0
-0.3265214 -0.16380119 -0.38156748 0
-0.22245169 -0.17737961 -0.3796649 0
-0.15066576 -0.18162632 -0.37957239 0
-0.044173241 -0.18181515 -0.37624502 0
0.066677094 -0.17886829 -0.37446499 0
0.22162914 -0.17445374 -0.37496901 0
0.36509562 -0.16158676 -0.36877346 0
0.50515413 -0.19089985 -0.36495924 0
0.63881207 -0.21634007 -0.35778999 0
0.68966103 -0.1585741 -0.36002779 0
0.92304659 -0.2273531 -0.36409235 0
-0.61376524 -0.071550369 -0.38697481 0
-0.50246906 -0.087609291 -0.38147688 0
-0.40513515 -0.073015213 -0.38272476 0
-0.3197794 -0.065443039 -0.38143015 0
-0.22532082 -0.075435638 -0.37911415 0
-0.119277 -0.064553261 -0.37680817 0
-0.014492989 -0.078566551 -0.37414455 0
0.093850613 -0.076087952 -0.37135315 0
0.25496721 -0.081458092 -0.37347126 0
0.39298153 -0.072005272 -0.36602259 0
0.5705061 -0.056812286 -0.36565351 0
0.77294254 -0.068727493 -0.36675882 0
-0.59985447 0.021916389 -0.38438511 0
-0.51290417 0.026794434 -0.38332558 0
-0.40741587 0.021561623 -0.38104248 0
-0.30965519 0.017246246 -0.37825537 0
-0.20664406 0.033104897 -0.37602663 0
-0.084898472 0.047987938 -0.37663221 0
0.02281332 0.040493965 -0.37380457 0
0.14111805 0.034803391 -0.37345934 0
0.1466856 0.070066452 -0.37218666 0
0.27634907 -0.0023546219 -0.37134981 0
0.44105387 0.025445938 -0.36882067 0
0.5875659 0.0033950806 -0.36316824 0
0.86095381 0.029623985 -0.3733325 0
-0.6141181 0.13317108 -0.38220072 0
-0.50107336 0.14049244 -0.37726068 0
-0.37701797 0.11982918 -0.37778473 0
-0.2955966 0.12836075 -0.37552786 0
-0.18994045 0.14957714 -0.37346554 0
-0.073116779 0.14408684 -0.37383223 0
0.028410912 0.093312263 -0.37164164 0
0.046635628 0.14710522 -0.37246561 0
0.16297054 0.13823509 -0.37143278 0
0.3143363 0.12066078 -0.37071848 0
0.46725702 0.12109375 -0.36718369 0
0.65310431 0.12666607 -0.3665657 0
-0.60540438 0.24154282 -0.37614822 0
-0.50201559 0.23862934 -0.37049675 0
-0.39157581 0.22646046 -0.37051725 0
-0.31369781 0.23566055 -0.36775875 0
-0.1901927 0.23272228 -0.37011051 0
-0.080964565 0.20684624 -0.36947918 0
0.050679684 0.20299911 -0.37054443 0
0.17181206 0.21875 -0.36900377 0
0.35237455 0.25035095 -0.37102699 0
0.49976063 0.24087429 -0.36587524 0
-0.61595917 0.3372345 -0.37225723 0
-0.5161109 0.33347321 -0.36813211 0
-0.40049124 0.32147789 -0.36576796 0
-0.32672167 0.35585594 -0.36176395 0
-0.21011782 0.32576752 -0.36342001 0
-0.070748806 0.33756828 -0.36696625 0
-0.047904968 0.28505516 -0.37288284 0
0.059671879 0.29480743 -0.36870098 0
0.20420361 0.33371735 -0.37057161 0
0.36925936 0.32422256 -0.37080431 0
0.714468 0.28252411 -0.36707878 0
-0.65994167 0.46024323 -0.36775684 0
-0.60238361 0.42021084 -0.36959696 0
-0.52061987 0.43786621 -0.36477375 0
-0.41043043 0.42887783 -0.35872364 0
-0.32766676 0.44565868 -0.35954237 0
-0.23739767 0.41835403 -0.35629606 0
-0.10911369 0.4196434 -0.35806465 0
0.027988434 0.41219044 -0.3596921 0
0.10794544 0.42138672 -0.36237144 0
0.1866889 0.42037678 -0.36488342 0
0.37414598 0.42493629 -0.36806297 0
0.5422473 0.3741188 -0.36674786 0
-0.24573421 0.48327923 -0.35365105 0
-0.98154545 -0.48784924 -0.4148078 0
-0.88183022 -0.46785831 -0.41054773 0
-0.77210903 -0.47858429 -0.4065156 0
-0.69566488 -0.47881126 -0.40040255 0
-0.5685358 -0.45288372 -0.39697123 0
-0.48671961 -0.47408295 -0.39448929 0
-0.31639481 -0.44010925 -0.38682556 0
-0.20060158 -0.45327759 -0.38186598 0
-0.082368374 -0.47004032 -0.37567091 0
0.072351456 -0.45180511 -0.37570381 0
0.21926594 -0.47973824 -0.36798859 0
0.40614653 -0.47914505 -0.36184168 0
0.60125494 -0.49433422 -0.35513926 0
-0.97009945 -0.35931206 -0.41063499 0
-0.88128614 -0.3856535 -0.40571499 0
-0.77385235 -0.36326981 -0.40476894 0
-0.67479229 -0.37297726 -0.39772987 0
-0.584548 -0.37631607 -0.39594221 0
-0.51189947 -0.38588619 -0.38792372 0
-0.40532398 -0.37814331 -0.38893032 0
-0.28290653 -0.36448193 -0.38398647 0
-0.14527416 -0.36166763 -0.38201427 0
-0.016251564 -0.36882591 -0.37692642 0
0.10687637 -0.384655 -0.37165356 0
0.29079103 -0.37304211 -0.36841726 0
0.45029449 -0.41175652 -0.36061096 0
0.66955805 -0.4008503 -0.3561182 0
0.67573261 -0.37915134 -0.35070086 0
0.92698383 -0.4366169 -0.3560524 0
-0.98166513 -0.27593422 -0.41378975 0
-0.89026356 -0.26544762 -0.40581179 0
-0.76552105 -0.27971745 -0.40194416 0
-0.6803956 -0.27150536 -0.39649773 0
-0.5769949 -0.27994537 -0.39227295 0
-0.47381163 -0.28140545 -0.38503885 0
-0.37302589 -0.27170086 -0.3831315 0
-0.25742149 -0.29463577 -0.38062239 0
-0.18163252 -0.2785778 -0.37945223 0
-0.10510921 -0.26211834 -0.37820864 0
0.027626991 -0.29275608 -0.37695789 0
0.15189791 -0.30255604 -0.36956835 0
0.19243097 -0.23888016 -0.37115002 0
0.32805634 -0.30457306 -0.36570692 0
0.51838589 -0.30431557 -0.35948515 0
0.80198097 -0.26299763 -0.36190271 0
-0.96925926 -0.17402172 -0.40602779 0
-0.8781476 -0.19169331 -0.40302992 0
-0.78214264 -0.16493416 -0.39917421 0
-0.69906521 -0.16845036 -0.39313126 0
-0.56860638 -0.18769169 -0.3905983 0
-0.46941328 -0.15579987 -0.38612986 0
-0.3776226 -0.16501617 -0.38312626 0
-0.238729 -0.1999855 -0.37325811 0
-0.19450283 -0.14967155 -0.37954617 0
-0.08578825 -0.18814945 -0.3736968 0
0.065121174 -0.19079781 -0.37276936 0
0.23643494 -0.15490818 -0.37128496 0
0.38699198 -0.21267891 -0.36749363 0
0.58641148 -0.19213963 -0.35900879 0
0.8672843 -0.21210575 -0.36514091 0
0.94806194 -0.14728355 -0.36929893 0
-0.96173811 -0.08023262 -0.399755 0
-0.87226677 -0.095219612 -0.39865446 0
-0.77493238 -0.063570976 -0.39340734 0
-0.67357731 -0.060113907 -0.38976002 0
-0.59543276 -0.082501411 -0.38663912 0
-0.50204134 -0.081209183 -0.38433456 0
-0.40665293 -0.078639984 -0.38047218 0
-0.30501795 -0.084252357 -0.37956285 0
-0.16195726 -0.046003342 -0.37674809 0
-0.040822506 -0.06940937 -0.37202072 0
0.11707449 -0.079582214 -0.37257099 0
0.26199579 -0.072090149 -0.36680412 0
0.45339823 -0.082915306 -0.36595917 0
0.66498756 -0.10046768 -0.36190891 0
-0.94759607 0.0017347336 -0.39724445 0
-0.86833 0.014860153 -0.39612103 0
-0.7904563 0.022454262 -0.39045429 0
-0.68569422 0.032325745 -0.38669348 0
-0.58735847 0.034448624 -0.37983322 0
-0.49478769 0.010128021 -0.37876844 0
-0.38517904 0.018157959 -0.37734079 0
-0.28125334 0.030742645 -0.37502623 0
-0.14703989 0.030647278 -0.37339211 0
0.01235342 0.053194046 -0.37330341 0
0.1533494 0.014523506 -0.37124157 0
0.29698515 0.0075273514 -0.36651516 0
0.50353193 0.027910233 -0.36480951 0
0.74675465 -0.021043777 -0.36818171 0
0.78155136 0.0078430176 -0.3675251 0
-0.93784046 0.10055923 -0.39378262 0
-0.86859703 0.10106087 -0.39115286 0
-0.76825905 0.13254738 -0.38454342 0
-0.68340349 0.10859013 -0.38389397 0
-0.5723629 0.14151764 -0.37671041 0
-0.45860434 0.13311768 -0.37872124 0
-0.35826635 0.13475418 -0.3755331 0
-0.25780439 0.12064552 -0.37380362 0
-0.12591839 0.13887215 -0.36994171 0
-0.12186289 0.1067791 -0.37314177 0
0.021947861 0.12255001 -0.36938667 0
0.19216394 0.13456917 -0.36890221 0
0.34361553 0.10644341 -0.36784935 0
0.53898525 0.1098938 -0.36366034 0
0.85280943 0.092540741 -0.37364435 0
-0.94611216 0.19993877 -0.38822317 0
-0.8740015 0.21338558 -0.38845158 0
-0.78490353 0.22561455 -0.38240719 0
-0.66139698 0.23439789 -0.37972021 0
-0.5741086 0.23079014 -0.37218666 0
-0.49056005 0.21570492 -0.3679862 0
-0.36485863 0.23101997 -0.36925316 0
-0.25068998 0.21297836 -0.37020445 0
-0.10975218 0.19413662 -0.36984015 0
0.056173325 0.22840881 -0.36913443 0
0.21874571 0.23549938 -0.36675358 0
0.3569212 0.17185211 -0.36458969 0
0.60588551 0.24414921 -0.36349344 0
0.92979908 0.19912815 -0.37631845 0
-0.94424343 0.34879589 -0.38483572 0
-0.89379168 0.32176781 -0.38634253 0
-0.77509594 0.33647346 -0.37745857 0
-0.68643188 0.29987049 -0.3740592 0
-0.57896757 0.32454967 -0.36772633 0
-0.49942064 0.30515766 -0.36268759 0
-0.37252235 0.32034588 -0.36397409 0
-0.26357889 0.31917858 -0.36305094 0
-0.10248137 0.29466057 -0.36640263 0
0.065827847 0.30031872 -0.3668251 0
0.23404169 0.3068037 -0.36504984 0
0.41442156 0.30786228 -0.36648846 0
0.97173023 0.2722311 -0.37453127 0
-0.9425559 0.42376804 -0.38398457 0
-0.88286924 0.42861176 -0.37888288 0
-0.78437138 0.42632961 -0.37496805 0
-0.67389917 0.41525173 -0.37176466 0
-0.59392738 0.4119463 -0.36264181 0
-0.50890303 0.40031338 -0.35793447 0
-0.39589548 0.41645336 -0.35638332 0
-0.28524971 0.42249203 -0.35537863 0
-0.15267658 0.42200184 -0.35221148 0
-0.11249161 0.38558483 -0.36077213 0
0.048118591 0.41573238 -0.35889816 0
0.090206623 0.38164425 -0.3680315 0
0.26429272 0.41027355 -0.36580563 0
0.4571476 0.44017887 -0.3654685 0
0.68867254 0.40909195 -0.3660984 0
-0.46625996 -0.49152184 -0.38766718 0
-0.9411993 -0.45539856 -0.40869284 0
-0.75172377 -0.4730835 -0.39563227 0
-0.64460897 -0.4633255 -0.39292383 0
-0.5636611 -0.48446369 -0.38724613 0
-0.44438505 -0.47136784 -0.37983751 0
-0.30191469 -0.46337414 -0.37879276 0
-0.16628981 -0.47027683 -0.370574 0
-0.030856609 -0.48558903 -0.36539841 0
0.16893148 -0.47756004 -0.3615284 0
0.38169909 -0.47632885 -0.3563261 0
0.63168097 -0.45390606 -0.34825563 0
0.84923172 -0.49241352 -0.34291124 0
-0.94811392 -0.37353134 -0.40440559 0
-0.82651949 -0.38196659 -0.39814663 0
-0.69674587 -0.35379124 -0.39450741 0
-0.62965822 -0.39738274 -0.38740969 0
-0.51543331 -0.38156128 -0.38632345 0
-0.39808607 -0.36793709 -0.37843323 0
-0.27036476 -0.38831139 -0.37464523 0
-0.12099791 -0.38719559 -0.36767387 0
0.039859295 -0.37932205 -0.3661108 0
0.23917866 -0.37159348 -0.36089993 0
0.44117022 -0.38322163 -0.35246611 0
0.70627022 -0.35198498 -0.34841776 0
0.94395351 -0.43433666 -0.34729385 0
-0.92725992 -0.26131916 -0.40068722 0
-0.85752773 -0.2740097 -0.39874506 0
-0.74286366 -0.2831707 -0.39270639 0
-0.6730752 -0.24818516 -0.38765669 0
-0.52087688 -0.27735615 -0.38142586 0
-0.37081003 -0.28376293 -0.37475681 0
-0.23369074 -0.28823853 -0.36944008 0
-0.061691761 -0.27621174 -0.36756754 0
0.10082626 -0.27478123 -0.3651042 0
0.28743601 -0.28430367 -0.3568058 0
0.51545048 -0.27736855 -0.35401678 0
0.76928616 -0.28401947 -0.34709024 0
-0.93691874 -0.17667961 -0.39812565 0
-0.8338232 -0.17011452 -0.39349651 0
-0.74745941 -0.17821217 -0.38938999 0
-0.6676836 -0.18788433 -0.38239908 0
-0.55333567 -0.17481613 -0.38103676 0
-0.4677124 -0.17247868 -0.3733964 0
-0.32127666 -0.1766758 -0.3744092 0
-0.17065477 -0.15565872 -0.36901665 0
-0.016418934 -0.17109299 -0.36527872 0
0.15126944 -0.16862297 -0.36312485 0
0.35930109 -0.1752491 -0.35927105 0
0.56596899 -0.19435692 -0.35225534 0
0.91525936 -0.17312527 -0.35558939 0
-0.92678404 -0.082047462 -0.39410543 0
-0.81333876 -0.059458733 -0.38839293 0
-0.72853708 -0.086978912 -0.38526773 0
-0.62545919 -0.0817976 -0.38257122 0
-0.54368448 -0.074223518 -0.37341976 0
-0.44079781 -0.083162308 -0.37090874 0
-0.29479837 -0.092981339 -0.37129211 0
-0.14526176 -0.069216728 -0.36518478 0
-0.013210773 -0.12597656 -0.35980415 0
0.1957531 -0.082785606 -0.36272001 0
0.4097681 -0.083956718 -0.35905457 0
0.65095711 -0.073945045 -0.35293436 0
0.99354458 -0.11995029 -0.35838223 0
-0.95717096 0.018089294 -0.38992023 0
-0.83432913 0.03119278 -0.38841486 0
-0.70569944 0.020368576 -0.38193083 0
-0.60772753 0.018662453 -0.37830877 0
-0.50458717 0.035309792 -0.37341166 0
-0.39783812 0.025403976 -0.37090302 0
-0.26266336 0.015033722 -0.36800814 0
-0.10949993 0.049381256 -0.36167336 0
0.047790051 -0.013893127 -0.36280203 0
0.22941923 -0.0034980774 -0.36067438 0
0.44895983 0.0018033981 -0.35700274 0
0.76585388 0.047812462 -0.36004543 0
-0.94617319 0.12178326 -0.38582897 0
-0.83785868 0.12811661 -0.38142586 0
-0.72273827 0.12341309 -0.3772378 0
-0.59834671 0.11751556 -0.37334108 0
-0.50341749 0.11756611 -0.36784124 0
-0.39130402 0.12578487 -0.36486816 0
-0.37358522 0.081198692 -0.37177181 0
-0.22989273 0.13444996 -0.36509371 0
-0.084285736 0.10911274 -0.36216497 0
0.091960907 0.097779274 -0.3611021 0
0.28233051 0.1162014 -0.35948515 0
0.4919138 0.10653305 -0.35392857 0
0.79679155 0.081892014 -0.35817194 0
0.86134911 0.15542698 -0.36026049 0
-0.92676592 0.22987366 -0.38431311 0
-0.85770416 0.22899723 -0.37934494 0
-0.73321247 0.23867798 -0.37441063 0
-0.59076548 0.24385643 -0.36748219 0
-0.52364492 0.21376705 -0.36621141 0
-0.41824341 0.23268032 -0.36156464 0
-0.23139429 0.23073006 -0.35883474 0
-0.057340145 0.23729801 -0.35794497 0
0.13382721 0.20719624 -0.35998392 0
0.31644487 0.19570732 -0.35904598 0
0.32759333 0.24285603 -0.35658073 0
0.56377554 0.23838329 -0.3545022 0
0.9494791 0.25711823 -0.36642265 0
-0.94036341 0.32360077 -0.37813139 0
-0.8437748 0.30935097 -0.37275743 0
-0.74235916 0.33892441 -0.37182522 0
-0.61932468 0.32102013 -0.36593676 0
-0.50762272 0.32215309 -0.35552788 0
-0.39640903 0.33743668 -0.35244703 0
-0.23897171 0.32832336 -0.35229588 0
-0.069033623 0.30824852 -0.35164404 0
0.16258907 0.31508636 -0.35722256 0
0.35058975 0.30625153 -0.35578394 0
0.63416862 0.35257435 -0.35687351 0
0.9764452 0.29378223 -0.36366463 0
-0.93788242 0.43795776 -0.37061167 0
-0.82798719 0.42100143 -0.37070942 0
-0.69224739 0.41973591 -0.3636446 0
-0.59712553 0.45167637 -0.35722017 0
-0.57697678 0.40354633 -0.36274719 0
-0.43986797 0.44572639 -0.35119581 0
-0.22052431 0.42798519 -0.35133362 0
-0.056925297 0.43071842 -0.34820271 0
0.15899944 0.42470837 -0.35065079 0
0.39382792 0.41711998 -0.35649776 0
0.65195227 0.39395142 -0.35529661 0
0.1398077 0.49226475 -0.3438921 0
0.60676718 -0.48267841 -0.35512781 0
-0.22650051 -0.45064735 -0.38527346 0
-0.045728683 -0.40654087 -0.37549877 0
-0.021260738 -0.37871838 -0.37878132 0
0.13906384 -0.4246645 -0.37222719 0
0.38354158 -0.40625 -0.36518908 0
0.62332249 -0.43366814 -0.35352802 0
-0.18479681 -0.28891277 -0.38107586 0
-0.0070080757 -0.29986 -0.37489414 0
0.17177486 -0.34516144 -0.37223864 0
0.18287134 -0.29884434 -0.37060452 0
0.42526484 -0.30773449 -0.36554241 0
0.66160583 -0.35614014 -0.35496998 0
-0.18121719 -0.18042564 -0.37568474 0
0.012495518 -0.2166853 -0.37409544 0
0.22660923 -0.19498539 -0.37244558 0
0.44642162 -0.23012447 -0.3636775 0
0.74060011 -0.2401104 -0.3592453 0
-0.15930462 -0.087808609 -0.37582779 0
0.018394947 -0.11487007 -0.37036514 0
0.23692465 -0.099006653 -0.36899614 0
0.44878531 -0.16504955 -0.35913467 0
0.83142376 -0.14059639 -0.3626523 0
-0.30470037 0.029265404 -0.38118553 0
-0.17323828 -0.030056953 -0.3711195 0
0.044343472 -0.013519287 -0.37113619 0
0.24856663 -0.011333466 -0.36723042 0
0.52394056 -0.014266968 -0.36612463 0
0.94467497 -0.0093841553 -0.37197161 0
-0.13944674 0.080607414 -0.37389708 0
0.054196358 0.075139999 -0.36998653 0
0.26867628 0.082356453 -0.36754322 0
0.53288794 0.094431877 -0.36295223 0
-0.32083797 0.1540184 -0.37541771 0
-0.28089714 0.14753246 -0.3821764 0
-0.12796688 0.1958847 -0.37335157 0
0.059886456 0.18239307 -0.36830759 0
0.27864552 0.20182037 -0.3659668 0
0.55892754 0.18632126 -0.36372519 0
-0.16460991 0.28872013 -0.36681604 0
0.061865807 0.30084801 -0.36693001 0
0.28737164 0.29606915 -0.3656683 0
0.57696533 0.28442097 -0.36348486 0
-0.18078852 0.39203358 -0.36412573 0
0.0093960762 0.39788723 -0.35924435 0
0.27516508 0.42115021 -0.36296892 0
0.29550123 0.36736679 -0.36610556 0
0.60641479 0.39467049 -0.36562681 0
-0.024419785 0.4993391 -0.35497761 0
0.24835682 0.47932243 -0.35961342 0
0.61303282 0.48722458 -0.36505222 0
-0.98404551 -0.47430611 -0.41560078 0
-0.8814249 -0.48993492 -0.41220999 0
-0.77316666 -0.46219063 -0.40483999 0
-0.66392279 -0.48523045 -0.40016222 0
-0.95140123 -0.35947704 -0.41361952 0
-0.8743701 -0.40062428 -0.40619612 0
-0.75585699 -0.38983154 -0.40299082 0
-0.64632463 -0.39122772 -0.39676809 0
-0.53879738 -0.3843441 -0.39041948 0
-0.39248753 -0.40043163 -0.38572454 0
-0.24273014 -0.43805504 -0.37947226 0
-0.2208209 -0.38353634 -0.37964535 0
-0.95258999 -0.29146767 -0.40859079 0
-0.85332632 -0.29344845 -0.40336084 0
-0.74386024 -0.30341053 -0.39972067 0
-0.65420198 -0.26536942 -0.38726091 0
-0.61299992 -0.28365612 -0.39682055 0
-0.52487612 -0.28717709 -0.38721514 0
-0.36835814 -0.27395344 -0.38250685 0
-0.98362684 -0.19313622 -0.40924215 0
-0.84876347 -0.19676781 -0.39885187 0
-0.73572493 -0.20404816 -0.39572334 0
-0.61193419 -0.18309879 -0.39153528 0
-0.50541258 -0.1827879 -0.38578367 0
-0.34181499 -0.18737793 -0.38303995 0
-0.19986391 -0.24427605 -0.37522507 0
-0.98297501 -0.084866524 -0.40572548 0
-0.87644768 -0.098870277 -0.39898157 0
-0.72845745 -0.093378067 -0.39229918 0
-0.6104579 -0.096105576 -0.38812494 0
-0.51324844 -0.079465866 -0.38003302 0
-0.33934593 -0.099647522 -0.37952566 0
-0.93762445 0.0028333664 -0.39821911 0
-0.86555862 0.01778698 -0.39542484 0
-0.73490286 -0.015289307 -0.38845205 0
-0.71402931 0.054110527 -0.3901782 0
-0.61700392 0.0062007904 -0.38354349 0
-0.5126462 -0.015830994 -0.37799072 0
-0.33324623 0.044952393 -0.37572145 0
-0.96345377 0.08779335 -0.39767408 0
-0.85545206 0.11546612 -0.38765192 0
-0.72898149 0.10787487 -0.38644981 0
-0.63236189 0.11671162 -0.37849045 0
-0.5006628 0.065350533 -0.37798262 0
-0.96229076 0.19635868 -0.39029026 0
-0.85726595 0.22900391 -0.3857336 0
-0.74544859 0.21546745 -0.38213491 0
-0.62257671 0.22764111 -0.37839222 0
-0.53032875 0.21136761 -0.37082529 0
-0.49959803 0.1561718 -0.37646627 0
-0.36544895 0.21149921 -0.36777306 0
-0.98323011 0.28087997 -0.38655758 0
-0.86292076 0.31947422 -0.38428497 0
-0.76837349 0.31620789 -0.37785482 0
-0.64024687 0.31968212 -0.37499189 0
-0.56061459 0.31792355 -0.36542082 0
-0.41733885 0.25814915 -0.35948086 0
-0.4007659 0.34560966 -0.3616004 0
-0.98466063 0.39841747 -0.38652658 0
-0.86589384 0.40892029 -0.37600565 0
-0.77703619 0.38821316 -0.37648106 0
-0.67178679 0.41708088 -0.37021685 0
-0.56718826 0.42534256 -0.36433029 0
-0.42365789 0.39006329 -0.35816526 0
-0.21879148 0.42502213 -0.35866404 0
-0.70982361 0.45926762 -0.36505747 0
-0.5936408 0.48356533 -0.36090469 0
-0.43137407 0.4696579 -0.35721827 0
-0.26715088 0.48646736 -0.35209227 0
0.85503817 0.21035957 -0.36222553 0
0.88531876 0.30125999 -0.36460495 0
0.86718702 0.34222507 -0.36039925 0
0.91032028 0.45243835 -0.36562586 0
-0.03498888 -0.48386955 -0.36444378 0
0.48961449 -0.48699474 -0.35030365 0
-0.22501612 -0.41123486 -0.37189627 0
-0.013007641 -0.42881012 -0.36351061 0
0.25522232 -0.4259367 -0.36133099 0
0.25832272 -0.3955698 -0.35817909 0
0.5204339 -0.40741634 -0.34821367 0
0.82420349 -0.44609547 -0.34349155 0
0.87067986 -0.4193716 -0.34242153 0
-0.33613539 -0.27967739 -0.38095522 0
-0.19442034 -0.30649185 -0.37025166 0
0.036378384 -0.32977486 -0.36561728 0
0.27299118 -0.34319592 -0.35602236 0
0.54832745 -0.32554817 -0.34595633 0
-0.17725468 -0.1960392 -0.36719084 0
0.053939819 -0.22767258 -0.36171198 0
0.3238287 -0.23029518 -0.35778999 0
0.6011281 -0.22387505 -0.34920645 0
-0.33162785 -0.14916801 -0.37390232 0
-0.18138361 -0.13048363 -0.36320686 0
0.081550598 -0.10156441 -0.36074162 0
0.33862114 -0.1546402 -0.35510588 0
0.61964417 -0.15957165 -0.34796572 0
-0.31715584 -0.039132118 -0.37190342 0
-0.16050959 -0.034814835 -0.36348629 0
0.091053963 -0.019780159 -0.35901642 0
0.38405752 -0.032719612 -0.3578887 0
0.73178673 -0.035233498 -0.3568902 0
-0.33007097 0.09387207 -0.365798 0
-0.14319658 0.093295097 -0.36292839 0
0.11942673 0.092786789 -0.36053038 0
0.38079405 0.069232941 -0.35311604 0
0.80719137 0.057066917 -0.36073828 0
-0.34446144 0.21629143 -0.36224842 0
-0.31012487 0.16876793 -0.36778212 0
-0.14770651 0.20401764 -0.36041546 0
0.12836981 0.19057846 -0.3597188 0
0.3921423 0.17330265 -0.35206556 0
0.81640244 0.11715698 -0.35895109 0
-0.20373821 0.29453564 -0.35203648 0
0.1219759 0.27206516 -0.35750484 0
0.41159344 0.25303841 -0.35363913 0
0.10682058 0.37539005 -0.35518122 0
0.44555283 0.34619141 -0.35752964 0
0.040668488 0.48173904 -0.34740925 0
0.089822292 0.43882751 -0.35345793 0
0.45491409 0.44270897 -0.35737991 0
-0.87003708 -0.49260807 -0.39546633 0
-0.95375252 -0.42802143 -0.40159369 0
-0.93537283 -0.35376835 -0.4000268 0
-0.82850361 -0.37748718 -0.3956151 0
-0.70821238 -0.39857388 -0.38719559 0
-0.55971909 -0.41372395 -0.3826313 0
-0.40043211 -0.41334343 -0.37601423 0
-0.98133373 -0.30351353 -0.4008131 0
-0.88179731 -0.28328896 -0.3922987 0
-0.81363344 -0.30856323 -0.39400387 0
-0.68591642 -0.29408264 -0.3849678 0
-0.53246641 -0.27967644 -0.37963438 0
-0.39775276 -0.30289459 -0.36896896 0
-0.92380905 -0.21299458 -0.39371157 0
-0.79007435 -0.18526363 -0.3917737 0
-0.68561745 -0.20657825 -0.38042831 0
-0.54512882 -0.2271595 -0.37424517 0
-0.38697529 -0.25129986 -0.36811733 0
-0.92055464 -0.1067152 -0.38963842 0
-0.81663465 -0.12825966 -0.38410568 0
-0.67997599 -0.092071533 -0.37677145 0
-0.52365303 -0.10939121 -0.37337446 0
-0.36033535 -0.13858032 -0.36775827 0
-0.91305828 0.017459869 -0.38704109 0
-0.81150627 -0.0064344406 -0.38112974 0
-0.67835283 0.0074672699 -0.37412214 0
-0.53555107 -0.022542 -0.36822176 0
-0.34731865 -0.0025787354 -0.36527681 0
-0.93886614 0.1061945 -0.3809247 0
-0.8215456 0.10852909 -0.37700176 0
-0.67991495 0.11365795 -0.37178183 0
-0.5503726 0.098322868 -0.36340475 0
-0.50984287 0.046537399 -0.37081718 0
-0.94766426 0.24296856 -0.37816143 0
-0.88805819 0.21301365 -0.37647581 0
-0.82589531 0.18477249 -0.37528515 0
-0.69323969 0.2095356 -0.36857939 0
-0.55898714 0.21166134 -0.3608532 0
-0.97281122 0.29447365 -0.3744421 0
-0.84377146 0.29717255 -0.37198114 0
-0.70802355 0.30942059 -0.36593103 0
-0.58851194 0.30081654 -0.35613585 0
-0.44281912 0.33176613 -0.34787321 0
-0.38992977 0.27727985 -0.35541248 0
-0.98144197 0.41844749 -0.37387609 0
-0.87589931 0.39914989 -0.36783409 0
-0.76437283 0.41882133 -0.3584671 0
-0.72414446 0.37621689 -0.36370659 0
-0.6037879 0.40619373 -0.35426521 0
-0.44301033 0.40479088 -0.34814453 0
-0.2595458 0.4029007 -0.34487677 0
-0.61923456 0.48927212 -0.35286331 0
-0.94452333 -0.38563919 -0.42208242 0
-0.83444977 -0.39033413 -0.41377878 0
-0.72014046 -0.40548801 -0.40755272 0
-0.95167637 -0.29909325 -0.41718149 0
-0.82625103 -0.31058502 -0.41208982 0
-0.7164712 -0.30072784 -0.40414667 0
-0.9503026 -0.20505142 -0.41393471 0
-0.82141113 -0.20980549 -0.40923834 0
-0.70982647 -0.19478893 -0.40155697 0
-0.96193457 -0.12473297 -0.40906143 0
-0.82794952 -0.097401619 -0.4042697 0
-0.6980381 -0.10282516 -0.40060186 0
-0.93935537 -0.00011920929 -0.40925312 0
-0.83117533 0.0035495758 -0.40072107 0
-0.71582365 0.0067911148 -0.39425278 0
-0.68729687 -0.039887428 -0.40054703 0
-0.95787239 0.080374718 -0.4037776 0
-0.82613897 0.092795372 -0.39917803 0
-0.71309853 0.1211319 -0.39173508 0
-0.95799828 0.17965412 -0.40133047 0
-0.8278842 0.19982338 -0.39627171 0
-0.70057726 0.22038651 -0.39149094 0
-0.97466183 0.26389313 -0.39668989 0
-0.84469604 0.31109619 -0.39102125 0
-0.72281504 0.2824316 -0.38639259 0
-0.96629524 0.40164471 -0.39550209 0
-0.85598564 0.41012669 -0.38730574 0
-0.7425127 0.39961815 -0.38085461 0
-0.89595127 0.49487782 -0.37952232 0
-0.60624313 -0.48586273 -0.39689302 0
-0.37890577 -0.49242592 -0.40178633 0
-0.024325371 -0.49415684 -0.38183641 0
-0.55276251 -0.38205719 -0.40280724 0
-0.42118263 -0.41215992 -0.39042473 0
-0.37776661 -0.44543171 -0.39980221 0
-0.20259142 -0.39137745 -0.38652325 0
-0.16958809 -0.4009819 -0.39346743 0
-0.010887146 -0.41709614 -0.37982655 0
-0.55994797 -0.31022072 -0.3987484 0
-0.38975048 -0.29243088 -0.39182138 0
-0.19685745 -0.28364468 -0.38314152 0
-0.18896341 -0.32747841 -0.38643169 0
0.0046672821 -0.35600185 -0.37937164 0
-0.54491663 -0.18961334 -0.39721298 0
-0.38543797 -0.20991898 -0.38949156 0
-0.16468763 -0.2000103 -0.38587523 0
0.050462723 -0.22024441 -0.38245344 0
-0.55205393 -0.092741013 -0.39272928 0
-0.3387413 -0.084997177 -0.39344501 0
-0.17866516 -0.15212631 -0.3814168 0
0.049231529 -0.11048317 -0.37790012 0
-0.53454304 0.0051136017 -0.39282942 0
-0.36221218 -0.035768509 -0.38739252 0
-0.1454215 -0.038677216 -0.38338947 0
0.088923454 0.016153336 -0.38027477 0
-0.54598522 0.081748009 -0.38878822 0
-0.35670757 0.076296806 -0.38476801 0
-0.14574051 0.074645996 -0.3793869 0
0.1015873 0.081907272 -0.37996864 0
-0.55589819 0.19526863 -0.38436747 0
-0.40865469 0.1714325 -0.3743844 0
-0.16492605 0.13633347 -0.37388515 0
0.090453625 0.14918709 -0.37516832 0
-0.58760405 0.30848312 -0.37661791 0
-0.57711506 0.25459385 -0.37948656 0
-0.40653467 0.29423714 -0.37274599 0
-0.18564939 0.27384281 -0.36856365 0
-0.14799023 0.23569584 -0.37510586 0
0.10096645 0.24809265 -0.37333584 0
0.42340994 0.27993393 -0.37215233 0
-0.59589815 0.39255333 -0.37362862 0
-0.42860889 0.36261559 -0.36770916 0
-0.20539045 0.42101002 -0.36358356 0
-0.17754078 0.36984921 -0.36861324 0
0.059183121 0.37573242 -0.36491013 0
0.12202787 0.34586239 -0.37510681 0
0.46441889 0.38600445 -0.37492943 0
-0.60032082 0.47899342 -0.37136602 0
-0.43303013 0.48275375 -0.364748 0
-0.24905491 0.45526409 -0.35631561 0
0.034238815 0.47889423 -0.35996819 0
0.46634245 0.47828674 -0.37204027 0
0.25235415 -0.44606495 -0.3761425 0
0.53404236 -0.453619 -0.3660655 0
0.90557432 -0.4823513 -0.36220312 0
0.98186016 -0.40782452 -0.36610556 0
0.28194714 -0.32452965 -0.37447977 0
0.57291651 -0.34206772 -0.36669397 0
0.31808853 -0.21649742 -0.37529993 0
0.58945131 -0.26074219 -0.36453629 0
0.33247566 -0.12228298 -0.3732996 0
0.65664148 -0.1232605 -0.36849689 0
0.36868811 -0.0029706955 -0.37462664 0
0.72398376 -0.027014732 -0.37077475 0
0.37780952 0.058832169 -0.37344503 0
0.77793217 0.073939323 -0.37434816 0
0.39008904 0.16123676 -0.37106323 0
0.8150177 0.1534729 -0.37587547 0
0.86372375 0.26708603 -0.37705135 0
0.91286087 0.39080715 -0.37752342 0
-0.98494339 -0.42975998 -0.4196167 0
-0.82845211 -0.41578674 -0.41870403 0
-0.95715427 -0.33629227 -0.41911411 0
-0.82405472 -0.32244968 -0.41286659 0
-0.93516254 -0.23236942 -0.41618395 0
-0.81799126 -0.23065758 -0.40681934 0
-0.91772223 -0.13002682 -0.41178226 0
-0.78902674 -0.13980293 -0.40567017 0
-0.90718031 -0.033099174 -0.40566301 0
-0.76724339 -0.014260292 -0.399158 0
-0.89757729 0.052796364 -0.39974308 0
-0.75883436 0.073616028 -0.39253187 0
-0.98069954 0.1899662 -0.40184832 0
-0.8612566 0.17394543 -0.39645624 0
-0.95716047 0.3297596 -0.39267921 0
-0.94423294 0.30291271 -0.3991766 0
-0.83858109 0.27829266 -0.39076757 0
-0.92893505 0.4029274 -0.39174604 0
-0.81586981 0.37912083 -0.38487959 0
-0.90738869 0.49762154 -0.38754034 0
-0.78757715 0.46664524 -0.38173246 0
-0.70301104 -0.41053772 -0.40727615 0
-0.56157351 -0.44069862 -0.40286827 0
-0.69309378 -0.33258915 -0.4034462 0
-0.56309605 -0.37564278 -0.39751482 0
-0.52484035 -0.28753471 -0.39917231 0
-0.65375566 -0.20567131 -0.40191126 0
-0.52047205 -0.21670532 -0.39382935 0
-0.63745975 -0.12423611 -0.39829874 0
-0.49147081 -0.11877823 -0.39152861 0
-0.62023401 -0.046053886 -0.39472771 0
-0.46613789 -0.03077507 -0.38870764 0
-0.59573507 0.063558578 -0.38958168 0
-0.44841433 0.06889534 -0.38176727 0
-0.73097897 0.17021275 -0.38936758 0
-0.5728054 0.17105389 -0.38369131 0
-0.68837643 0.29555893 -0.38634443 0
-0.56969357 0.26730442 -0.3731761 0
-0.6641264 0.38849354 -0.38157654 0
-0.53159189 0.37569332 -0.37041616 0
-0.65964937 0.47423744 -0.37164593 0
-0.51238823 0.46149254 -0.36461067 0
-0.38740492 -0.4071703 -0.39393234 0
-0.36788845 -0.30990696 -0.39040756 0
-0.35986757 -0.23780823 -0.38542557 0
-0.31304121 -0.11583042 -0.38322926 0
-0.27330875 -0.021505356 -0.3815403 0
-0.25416136 0.031863213 -0.37909842 0
-0.43744564 0.2038908 -0.37026119 0
-0.40606689 0.19028759 -0.38025284 0
-0.1977725 0.14247894 -0.37879848 0
-0.43673849 0.25126648 -0.36470079 0
-0.18741512 0.24557972 -0.36896753 0
-0.39000845 0.37037277 -0.36265659 0
-0.15783453 0.35869789 -0.36354637 0
-0.34727287 0.48722553 -0.35917616 0
-0.14277077 0.45083427 -0.35564232 0
-0.22633886 -0.48508358 -0.38363981 0
-0.18363285 -0.41232777 -0.38624954 0
0.04987812 -0.43824959 -0.37898922 0
-0.14235115 -0.32186604 -0.3869915 0
0.095405579 -0.34422207 -0.3778224 0
-0.12949419 -0.25412273 -0.38224363 0
0.12365866 -0.27040958 -0.37413073 0
-0.094831467 -0.16134167 -0.37976265 0
0.1719346 -0.17927837 -0.37511015 0
-0.039428234 -0.048113823 -0.37954187 0
0.013745785 0.063843727 -0.3777647 0
0.062907219 0.16076946 -0.3755846 0
0.12042904 0.25798035 -0.37356901 0
0.13755941 0.3032465 -0.36852646 0
0.18334103 0.42635632 -0.36378336 0
0.25334454 -0.49035072 -0.36602879 0
0.34418726 -0.34887028 -0.3707037 0
0.38161135 -0.26873875 -0.36677217 0
0.44685125 -0.1697979 -0.36849308 0
0.23421574 -0.069956779 -0.37461472 0
0.48888683 -0.10167694 -0.36833286 0
0.51672316 -0.043623924 -0.36475754 0
0.30724621 0.048792839 -0.37469387 0
0.36863089 0.15471363 -0.37201834 0
0.42809486 0.25475025 -0.36886454 0
0.46646547 0.31874657 -0.36583281 0
0.56090403 0.42263699 -0.36991835 0
0.58348608 -0.46810246 -0.36465693 0
0.61818314 -0.40463734 -0.36397171 0
0.68789577 -0.28682995 -0.36289501 0
0.74881029 -0.20449638 -0.35981178 0
0.56580687 0.038798332 -0.36286354 0
0.65128946 0.13989067 -0.36759567 0
0.69957876 0.18969536 -0.36364841 0
0.80015421 0.28464031 -0.36753416 0
0.93064308 0.38021946 -0.37285995 0
0.89632225 -0.098860741 -0.36840439 0
-0.9891305 -0.35148144 -0.44329691 0
-0.97064972 -0.25872993 -0.43733454 0
-0.96717548 0.071822166 -0.43374777 0
-0.97280073 0.12002277 -0.42389822 0
-0.928298 0.23493195 -0.41823339 0
-0.99039268 0.32270622 -0.42435408 0
-0.89602566 0.31885719 -0.41331482 0
-0.9658494 0.42629433 -0.41447258 0
-0.84314966 0.4261322 -0.41071892 0
-0.90029192 -0.49397469 -0.4403882 0
-0.85778189 -0.36970329 -0.43816614 0
-0.83617687 -0.26803493 -0.43139982 0
-0.94681501 -0.17743778 -0.43356228 0
-0.80858326 -0.18528938 -0.42782259 0
-0.89644384 -0.069371223 -0.43320894 0
-0.773458 -0.095493317 -0.4248457 0
-0.86275864 0.039011955 -0.42688036 0
-0.71475697 0.040975571 -0.42141485 0
-0.85025597 0.10369015 -0.41998386 0
-0.70005035 0.10433197 -0.41508675 0
-0.80127811 0.20665741 -0.41781807 0
-0.64461088 0.21932983 -0.41227341 0
-0.76561022 0.31254959 -0.40938997 0
-0.63100576 0.28328133 -0.40372038 0
-0.73651266 0.39398193 -0.4026413 0
-0.70957232 0.45613575 -0.39877558 0
-0.74413967 -0.46653461 -0.43138933 0
-0.60007429 -0.48893833 -0.42573404 0
-0.72429037 -0.38725471 -0.42731762 0
-0.57132816 -0.40288353 -0.42309093 0
-0.69737148 -0.31710243 -0.42578173 0
-0.52296543 -0.27435112 -0.4194169 0
-0.64110994 -0.20348644 -0.4262681 0
-0.49175596 -0.1859827 -0.41524696 0
-0.62226439 -0.12656784 -0.41992712 0
-0.61103153 -0.081642151 -0.41576195 0
-0.46148491 -0.1004467 -0.41010714 0
-0.57409525 0.0089187622 -0.41186857 0
-0.43424416 -0.028438568 -0.40390348 0
-0.51246309 0.12835979 -0.41076612 0
-0.51501274 0.16469479 -0.40268898 0
-0.47634029 0.24489212 -0.40056658 0
-0.58899975 0.36284733 -0.40219307 0
-0.4551363 0.30561447 -0.39554977 0
-0.57402563 0.41544247 -0.39629745 0
-0.41870689 0.39710426 -0.38879681 0
-0.38567591 0.48829174 -0.37969637 0
-0.42903996 -0.47037601 -0.41563082 0
-0.39985704 -0.47760487 -0.42469072 0
-0.37555408 -0.37002659 -0.41772079 0
-0.34449959 -0.27885628 -0.41351318 0
-0.30228519 -0.18457222 -0.40961361 0
-0.25377703 -0.097901344 -0.40735054 0
-0.21231222 -0.018585205 -0.40254974 0
-0.36389351 0.094676018 -0.40285397 0
-0.13035393 0.10231495 -0.40233564 0
-0.31307077 0.20593548 -0.3990531 0
-0.29180861 0.26789379 -0.39355516 0
-0.27892637 0.32081032 -0.38609362 0
-0.23411131 0.3990078 -0.3849597 0
-0.20190382 0.46909904 -0.37983799 0
-0.19080019 -0.44483471 -0.41413069 0
-0.17057276 -0.38266468 -0.40835285 0
-0.14134645 -0.30636406 -0.40239477 0
-0.078351498 -0.21159077 -0.40455246 0
-0.027385235 -0.12170124 -0.40107441 0
0.058767796 0.011660576 -0.39758205 0
-0.090188503 0.18122959 -0.39493656 0
0.17035866 0.15114307 -0.39955568 0
-0.018651485 0.29504299 -0.39671278 0
0.0094447136 0.35489941 -0.39145041 0
0.039402962 0.41659164 -0.3848052 0
0.085183144 0.49136925 -0.38080645 0
0.028467655 -0.49819851 -0.40453339 0
0.039078236 -0.46640015 -0.39976978 0
0.093250751 -0.38766766 -0.40055943 0
0.16401148 -0.28241634 -0.3996439 0
0.24197435 -0.17102146 -0.39840364 0
0.27558374 -0.11829758 -0.39429045 0
0.35192299 -0.020840645 -0.39586544 0
0.23005915 0.22345638 -0.39727306 0
0.27186966 0.27311802 -0.39335966 0
0.34739065 0.35936356 -0.39218616 0
0.43079758 0.4802103 -0.38681078 0
0.31692648 -0.43926716 -0.39555407 0
0.38253975 -0.34517384 -0.39367819 0
0.48901844 -0.20900726 -0.39583111 0
0.52254915 -0.1623888 -0.39045858 0
0.57602835 -0.093654633 -0.38830471 0
0.4377594 0.089147568 -0.39312172 0
0.54277134 0.21616364 -0.39163542 0
0.61976194 0.27723026 -0.38889313 0
0.71927404 0.36243439 -0.39069939 0
0.59221029 -0.48864746 -0.38676214 0
0.65193415 -0.40685844 -0.38534689 0
0.72322369 -0.31756592 -0.38670397 0
0.76798391 -0.27114201 -0.38343906 0
0.66501427 0.0065364838 -0.38889647 0
0.77462244 0.082245827 -0.39064646 0
0.91996574 0.17918682 -0.39803791 0
0.90918016 -0.18926239 -0.38961315 0
-0.99775743 -0.31002331 -0.42914534 0
-0.99780321 -0.017990112 -0.41880941 0
-0.93778372 0.10525417 -0.41210222 0
-0.99763775 0.19980812 -0.41616678 0
-0.8970232 0.19383526 -0.40563059 0
-0.97923183 0.26427078 -0.40679932 0
-0.86357546 0.27291775 -0.39792967 0
-0.92512941 0.36490345 -0.402843 0
-0.80071735 0.38286877 -0.39430618 0
-0.92120409 0.4440794 -0.38630486 0
-0.86598349 0.4647522 -0.40244675 0
-0.76583624 0.47379303 -0.38458252 0
-0.91743803 -0.43902874 -0.42941284 0
-0.7694993 -0.43801498 -0.41941214 0
-0.87275743 -0.32906914 -0.42115259 0
-0.71620655 -0.34073544 -0.41588783 0
-0.96668148 -0.21664047 -0.41924047 0
-0.82147551 -0.22375107 -0.41446066 0
-0.89983416 -0.10022449 -0.41753435 0
-0.7759347 -0.13572502 -0.40918541 0
-0.86715937 -0.024232864 -0.41113901 0
-0.72505808 -0.039829254 -0.40426254 0
-0.78474045 0.10730934 -0.41095018 0
-0.67724323 0.054862022 -0.39781523 0
-0.75208426 0.18787384 -0.40186214 0
-0.6213932 0.1561079 -0.39226198 0
-0.70546103 0.29155159 -0.39132881 0
-0.57334709 0.24891663 -0.38564587 0
-0.65547609 0.38579273 -0.3849206 0
-0.51072741 0.36554241 -0.37877893 0
-0.61540794 0.45941544 -0.38115788 0
-0.60616398 -0.41626549 -0.41075754 0
-0.46455669 -0.48226357 -0.4044013 0
-0.5698576 -0.33986759 -0.40436363 0
-0.67496157 -0.25792694 -0.41025496 0
-0.51521063 -0.25261402 -0.40280437 0
-0.59842539 -0.13738823 -0.40893412 0
-0.46100807 -0.15845394 -0.39763546 0
-0.55641842 -0.044190407 -0.39792919 0
-0.3973937 -0.06390667 -0.39282179 0
-0.48494005 0.073634148 -0.39432621 0
-0.30717564 0.049178123 -0.39121389 0
-0.44311762 0.16695404 -0.38509321 0
-0.26290846 0.12642288 -0.38123894 0
-0.38578939 0.27733612 -0.37712908 0
-0.33629322 0.36925602 -0.3689847 0
-0.42139006 -0.40633488 -0.40106487 0
-0.23474646 -0.4586916 -0.39691496 0
-0.36588192 -0.32271004 -0.40095043 0
-0.1310277 -0.33007622 -0.39657593 0
-0.32356071 -0.25583839 -0.39757299 0
-0.10116005 -0.28920174 -0.39150906 0
-0.052359581 -0.22948456 -0.38998842 0
-0.27779675 -0.19552994 -0.394835 0
-0.23557043 -0.13953114 -0.39054871 0
-0.17421341 -0.064296722 -0.38927555 0
-0.090473175 0.037296295 -0.38496399 0
-0.18336344 0.25065136 -0.37631941 0
0.041694164 0.18725586 -0.38598585 0
0.077180386 0.21957493 -0.37936926 0
-0.10638571 0.37150002 -0.36971331 0
0.18323469 0.34372616 -0.38115454 0
0.083913326 -0.39518929 -0.39168119 0
0.20153332 -0.27157974 -0.38648415 0
0.025200844 -0.13717556 -0.38825655 0
0.29787254 -0.16982651 -0.38228273 0
0.072023392 -0.081198692 -0.38314533 0
0.16918564 0.020012856 -0.38637733 0
0.22238207 0.067091942 -0.37927914 0
0.29245234 0.13395405 -0.37805986 0
0.42301416 0.26540089 -0.38158846 0
0.51587868 0.35311031 -0.38042259 0
0.2490325 0.42597198 -0.37809229 0
0.29625797 -0.44491005 -0.3835516 0
0.35955572 -0.38204479 -0.38019705 0
0.43062687 -0.31216145 -0.37820578 0
0.53513575 -0.2079525 -0.38002253 0
0.38529825 -0.078621864 -0.38156557 0
0.60222912 -0.14781284 -0.37523365 0
0.45533514 -0.008644104 -0.37767696 0
0.5522542 0.088134766 -0.37615299 0
0.65890312 0.17110538 -0.37682343 0
0.7718854 0.2504921 -0.37696409 0
0.62947941 0.42994118 -0.37770319 0
0.58232355 -0.46617985 -0.3767271 0
0.65830278 -0.39435673 -0.37425804 0
0.71196651 -0.34883595 -0.36880922 0
0.85403156 -0.26234436 -0.37273026 0
0.7123971 -0.068687439 -0.37614489 0
0.89773083 0.038918495 -0.38631105 0
0.951056 0.3405838 -0.38291311 0
-0.95316744 0.20072937 -0.39967775 0
-0.89978027 0.2691164 -0.39235783 0
-0.93447733 0.40024662 -0.38838959 0
-0.83014822 0.35356426 -0.38925648 0
-0.78447866 0.41238499 -0.3817811 0
-0.90202713 0.45914268 -0.37967825 0
-0.739676 0.47419548 -0.37349415 0
-0.97672462 -0.32563877 -0.41775417 0
-0.93088484 -0.27200127 -0.41205168 0
-0.87006235 -0.20712185 -0.40685987 0
-0.92323017 -0.10819817 -0.40759134 0
-0.79567814 -0.12801552 -0.39677477 0
-0.84237957 -0.016030312 -0.39874411 0
-0.70068359 -0.024682999 -0.39050817 0
-0.90751123 0.088962555 -0.39810419 0
-0.75458145 0.082704544 -0.3906889 0
-0.61375666 0.069578171 -0.38940573 0
-0.80952406 0.20607281 -0.39096403 0
-0.66092968 0.18715572 -0.38239527 0
-0.76251936 0.26150131 -0.38350677 0
-0.58474827 0.2745409 -0.37653351 0
-0.68900299 0.34534264 -0.38008165 0
-0.50436306 0.36838245 -0.37373924 0
-0.62759686 0.42087364 -0.37202406 0
-0.45905161 0.42488766 -0.363132 0
-0.91500616 -0.42879295 -0.41736984 0
-0.76539087 -0.45564079 -0.40346718 0
-0.8055501 -0.31157303 -0.40781593 0
-0.65900087 -0.34510612 -0.40555191 0
-0.73043966 -0.23537922 -0.39884853 0
-0.60689116 -0.29526806 -0.39793968 0
-0.52733755 -0.21566296 -0.39512062 0
-0.63063192 -0.13158226 -0.39802217 0
-0.47321653 -0.16502571 -0.38749504 0
-0.57193089 -0.072835922 -0.39207888 0
-0.36920738 -0.073442459 -0.38643789 0
-0.46380329 0.032996178 -0.38418245 0
-0.51594114 0.1768465 -0.3849678 0
-0.35443544 0.13469315 -0.37581396 0
-0.44931173 0.25681019 -0.36969471 0
-0.26391315 0.21842384 -0.36944675 0
-0.34960938 0.36670113 -0.35911036 0
-0.18425131 0.29153824 -0.36392307 0
-0.25470018 0.45918751 -0.35415649 0
-0.084194183 0.37748718 -0.35830545 0
0.040137291 0.48310947 -0.35732651 0
-0.59956789 -0.47832203 -0.40391445 0
-0.53123522 -0.41704082 -0.3920784 0
-0.40234137 -0.46956825 -0.3913765 0
-0.31465769 -0.38833046 -0.38872862 0
-0.38480949 -0.27588654 -0.3899889 0
-0.23022032 -0.32746124 -0.38564157 0
-0.1439538 -0.27247047 -0.37940073 0
-0.23851871 -0.16103172 -0.38442469 0
-0.1418438 -0.087169647 -0.38207674 0
-0.29196501 -0.017663002 -0.38115358 0
-0.19459152 0.059386253 -0.37863445 0
-0.040351868 -0.0099163055 -0.37977791 0
-0.10588884 0.12460613 -0.37383461 0
0.077778816 0.0768013 -0.37763691 0
0.022716999 0.223032 -0.37173033 0
0.22160816 0.17122555 -0.37589502 0
0.1453228 0.31868649 -0.36889505 0
0.30909538 0.45295238 -0.36904955 0
-0.18613052 -0.4920826 -0.3844223 0
-0.063214302 -0.39850712 -0.38601685 0
0.046974182 -0.32203674 -0.38444233 0
0.004597187 -0.15097427 -0.38168335 0
0.16218615 -0.25166035 -0.37760448 0
0.22977018 -0.21774197 -0.37293863 0
0.10599136 -0.087509155 -0.37573767 0
0.37957001 -0.11238194 -0.37169218 0
0.24704599 0.0086488724 -0.3765769 0
0.34745598 0.061466217 -0.36958694 0
0.33379221 0.2347517 -0.371171 0
0.49847364 0.16644382 -0.36661768 0
0.69365263 0.27875519 -0.36965179 0
0.51349783 0.36381054 -0.37270784 0
0.6771698 0.44235039 -0.370327 0
0.19608498 -0.40364933 -0.38189602 0
0.29511213 -0.35612011 -0.37447166 0
0.43908882 -0.26136208 -0.37306738 0
0.57794476 -0.16899967 -0.37230301 0
0.69465446 -0.13023853 -0.3653059 0
0.53004599 -0.016986847 -0.36682892 0
0.66772795 0.053981781 -0.36505175 0
0.95424795 0.17662716 -0.37778807 0
0.92221975 0.38266277 -0.37529707 0
0.56291294 -0.39706326 -0.36558151 0
0.71262789 -0.31203556 -0.36136007 0
0.94493246 -0.23383808 -0.3681674 0
0.98109674 -0.017486572 -0.37723303 0
0.9443965 -0.40374851 -0.36321068 0
-0.99356699 0.24711704 -0.4085474 0
-0.86711884 0.33581734 -0.3989315 0
-0.97001791 0.37068176 -0.40037441 0
-0.87626028 0.42224693 -0.39243698 0
-0.97810507 -0.40974712 -0.42841148 0
-0.96268368 -0.18114281 -0.41752672 0
-0.89595318 -0.096646309 -0.41406107 0
-0.96372271 0.020640373 -0.40820837 0
-0.85006905 -0.037478447 -0.40832424 0
-0.91402292 0.08791256 -0.40259743 0
-0.767344 0.066199303 -0.40027523 0
-0.85996866 0.16038704 -0.39664078 0
-0.67498827 0.18014145 -0.39199638 0
-0.78403807 0.25780106 -0.39194632 0
-0.71769667 0.33748627 -0.39177179 0
-0.58295059 0.29389191 -0.38450003 0
-0.6691165 0.40264416 -0.38153553 0
-0.61964464 0.4713974 -0.37415791 0
-0.71844292 -0.48870087 -0.41419554 0
-0.82935143 -0.4059 -0.42158031 0
-0.88789511 -0.2905674 -0.41707659 0
-0.73911095 -0.2997427 -0.41633654 0
-0.71552515 -0.27045536 -0.40654659 0
-0.79249763 -0.17752361 -0.41150427 0
-0.64906693 -0.19506454 -0.40259027 0
-0.75618887 -0.13376617 -0.40506506 0
-0.57066631 -0.10731983 -0.39988422 0
-0.6871748 -0.052463531 -0.40166712 0
-0.49010038 -0.017943382 -0.39744759 0
-0.58755684 0.066514015 -0.39332294 0
