# .PCD v0.7 - Point Cloud Data file format
VERSION 0.7
FIELDS x y z intensity
SIZE 4 4 4 4
TYPE F F F F
COUNT 1 1 1 1
WIDTH 1340
HEIGHT 1
VIEWPOINT 0 0 0 1 0 0 0
POINTS 1340
DATA ascii
0.3904295 0.37997293 0.53514361 0
0.48014927 0.48016536 0.49153864 0
0.039956093 0.20547128 0.50023937 0
0.096495628 0.2326045 0.46711436 0
-0.10011005 0.20746917 0.48974892 0
-0.038218975 0.24109566 0.49710611 0
0.024697304 0.27860132 0.49763557 0
-0.12784386 0.24111676 0.51041704 0
-0.11928892 0.26446134 0.49591032 0
0.89393806 0.0082910359 0.46171996 0
0.94237947 -0.0050471425 0.47385958 0
0.86474562 0.0032050312 0.45624134 0
0.8960886 0.085889995 0.46592027 0
0.94724512 0.15217873 0.49206474 0
0.83350563 0.1494118 0.51179254 0
0.87957954 0.2050913 0.54561198 0
0.94363499 0.25134826 0.56954736 0
0.68673897 0.16912758 0.53810453 0
0.7410717 0.19742405 0.54360032 0
0.80976582 0.28212222 0.52118391 0
0.85108232 0.3362028 0.57776564 0
0.56174564 0.10170496 0.49160475 0
0.60291338 0.19209847 0.52255839 0
0.66146517 0.23611936 0.5749948 0
0.75318098 0.37300083 0.54259998 0
0.7453227 0.41576314 0.60143942 0
0.19139814 -0.091317594 0.51668906 0
0.23560047 -0.016295314 0.52186257 0
0.29235077 0.045622975 0.53753984 0
0.58967447 0.27757764 0.52582729 0
0.6593132 0.42040822 0.542418 0
0.74183464 0.43627709 0.58814222 0
0.16613245 -0.057947099 0.5376696 0
0.22278881 0.01394859 0.52212948 0
0.27585506 0.082981765 0.53238678 0
0.33076811 0.19681022 0.54656386 0
0.36523914 0.26171699 0.58389264 0
0.45163584 0.33760244 0.5853706 0
0.51849699 0.36801967 0.60340297 0
0.59829092 0.44736072 0.5503931 0
0.045338154 0.074649036 0.54223084 0
0.095541 0.10483429 0.52618903 0
0.14293337 0.14187005 0.50917935 0
0.31133938 0.24743241 0.55922723 0
0.34158802 0.30156419 0.56512159 0
0.39388514 0.35490772 0.57679969 0
-0.061788559 0.043298841 0.54413199 0
-0.013967991 0.097625136 0.54796153 0
0.032215118 0.17089677 0.53806388 0
0.10336924 0.18005013 0.51907307 0
0.14334822 0.31254542 0.5835765 0
-0.096911907 0.15798235 0.55545819 0
-0.049574375 0.19811529 0.53653508 0
0.094320297 0.36172989 0.62956035 0
0.032120705 0.38125074 0.64979339 0
0.9682374 0.023783654 0.56185019 0
0.98549271 0.07828778 0.55178434 0
0.85091209 -0.038748235 0.53516394 0
0.89844799 0.079835385 0.58283031 0
0.96032524 0.13700378 0.57937038 0
0.99881887 0.19788888 0.59855771 0
0.78464556 0.076407224 0.60047108 0
0.82902479 0.12221193 0.60188037 0
0.8967824 0.19401917 0.60056096 0
0.94835377 0.2273815 0.59119987 0
0.76546335 0.19231823 0.59832186 0
0.82419634 0.26201332 0.63806474 0
0.67394638 0.25790411 0.62236333 0
0.73150635 0.32325819 0.67418283 0
0.2766223 0.0038326979 0.57048494 0
0.3081336 0.076046407 0.58637166 0
0.58440351 0.34149626 0.65943205 0
0.67019987 0.34140295 0.68844575 0
0.29747486 0.084648937 0.60524291 0
0.3251605 0.19167998 0.64747536 0
0.37788677 0.24082753 0.65575975 0
0.45020199 0.31552371 0.66972107 0
0.52046824 0.35171545 0.67589003 0
0.31400013 0.22865966 0.66215891 0
0.37366104 0.30645832 0.64080715 0
0.40008163 0.30921695 0.69518924 0
0.033746719 0.37338981 0.67062813 0
0.89096212 0.37657404 0.72733575 0
0.87075806 0.38740286 0.74900967 0
0.83766699 0.43682623 0.77452767 0
0.95625782 0.47180894 0.75912774 0
0.80413961 0.44395623 0.78954828 0
0.49585199 0.30476189 0.72419769 0
0.52068663 0.32094628 0.73229748 0
0.96615791 0.40375757 -0.14250228 0
0.99574661 0.45456752 -0.11432187 0
0.48844194 0.37333146 -0.043604951 0
0.44058228 0.40425548 -0.037268091 0
0.37941456 0.43810916 -0.042492528 0
0.8312788 0.10938534 -0.036681183 0
0.83879328 0.12480509 -0.023613237 0
0.78204679 0.19497383 -0.010197151 0
0.68506813 0.24058926 -0.024130031 0
0.72766495 0.26016787 0.00016859174 0
0.75541639 0.34111103 0.034339592 0
0.32804823 0.00095671415 -0.028998718 0
0.34233522 0.041107804 -0.0054550059 0
0.69291115 0.32193047 -0.00071731955 0
0.73091745 0.40924135 0.0427242 0
0.16641855 -0.053137749 -0.013667732 0
0.26417017 0.057867169 -0.020457637 0
0.31121445 0.068480462 -0.00061171129 0
0.52796221 0.37819937 -0.027947549 0
0.036681175 -0.0063998997 -0.014405672 0
0.086452007 0.026810437 0.0043579824 0
0.20942068 0.12345895 -0.024675202 0
-0.0080590248 0.032764077 0.0081708841 0
0.053253174 0.061052442 0.005776681 0
0.098777771 0.14186093 0.023557071 0
0.12745523 0.23468092 0.047625832 0
-0.065018654 0.097239852 -0.0073480569 0
-0.061483383 0.14519233 0.0059085712 0
0.12146139 0.26958123 0.065875024 0
0.88949585 -0.010217547 0.028281838 0
0.9326148 0.025867224 0.047153253 0
0.81519222 0.047023565 0.056872685 0
0.86854267 0.14460188 0.0077962242 0
0.91589975 0.18175125 0.029742904 0
0.53620291 -0.056669176 0.010594122 0
0.56692743 -0.050580442 0.035607245 0
0.71838808 0.12879604 0.082675308 0
0.82162666 0.20634255 0.028808843 0
0.85337305 0.26653886 0.067079797 0
0.91147518 0.33835793 0.10561009 0
0.37034035 -0.10833552 0.04252097 0
0.48331785 -0.023943365 0.013236042 0
0.53950644 0.01587975 0.060232129 0
0.67258978 0.16262844 0.093126252 0
0.78120804 0.27560207 0.03343311 0
0.80937004 0.34670088 0.064245664 0
0.85617161 0.38076425 0.093926907 0
0.94286299 0.48599413 0.16114461 0
0.26611614 -0.090648353 0.010670703 0
0.32551479 -0.072249919 0.054851361 0
0.40918732 0.028885841 0.014725737 0
0.46179438 0.084890187 0.063407101 0
0.52559614 0.17603767 0.10287786 0
0.58016205 0.21658453 0.12163863 0
0.20518017 -0.045815945 0.014218844 0
0.24943399 -0.01498127 0.066283695 0
0.3990407 0.14453146 0.060254961 0
0.47192907 0.23899719 0.12200207 0
0.47520399 0.28234276 0.15032138 0
0.11923409 0.027806193 0.030190375 0
0.1872344 0.066441268 0.079557411 0
0.20334959 0.13547787 0.13225152 0
0.44791746 0.30031615 0.15860535 0
-0.028670788 0.035620809 0.044855021 0
0.034765244 0.071366072 0.074112937 0
0.10684013 0.12475541 0.10845736 0
0.17513561 0.18635395 0.14430548 0
-0.051595688 0.07365343 0.06469886 0
-0.010829449 0.10848007 0.10754634 0
0.042750359 0.16213086 0.15029554 0
0.11650038 0.23512247 0.13953477 0
0.28339005 0.47259572 0.22211695 0
-0.05937767 0.31260499 0.15555072 0
-0.088554859 0.34375304 0.14421806 0
-0.054430962 0.37350342 0.1915243 0
0.90338612 0.014244527 0.059819929 0
0.93900776 0.036450177 0.086227469 0
0.76287603 0.0015773177 0.14452818 0
0.83276892 0.033364773 0.099962182 0
0.89117146 0.083302975 0.12126006 0
0.95641708 0.16061568 0.16618936 0
0.60044956 -0.026491851 0.13732533 0
0.62419796 0.017746329 0.085581914 0
0.75032711 0.076431602 0.17254165 0
0.83551121 0.13023725 0.11941977 0
0.89232159 0.16877738 0.16948345 0
0.94657087 0.29071441 0.21142839 0
0.53912783 -0.0082605481 0.16338831 0
0.62614346 0.083339751 0.14042595 0
0.68697119 0.15798783 0.14976132 0
0.72176027 0.22065744 0.15609823 0
0.81037426 0.24923491 0.22015372 0
0.88094473 0.39233434 0.2543509 0
0.96908712 0.44093916 0.22593892 0
0.3413806 -0.045829237 0.097111337 0
0.39037228 0.0018354654 0.13450825 0
0.46569109 0.049776465 0.18165764 0
0.53849459 0.16615418 0.16075653 0
0.60142231 0.23117349 0.13981369 0
0.67289257 0.26063514 0.16594997 0
0.73208189 0.3112663 0.18354946 0
0.77799559 0.39949772 0.24382061 0
0.27922773 0.017307043 0.11838466 0
0.32840919 0.060173988 0.15585776 0
0.39634895 0.12282193 0.20143761 0
0.52101851 0.28187814 0.17075527 0
0.25552559 0.11416286 0.15383451 0
0.31426859 0.15476844 0.19316797 0
0.46421909 0.30836993 0.17173806 0
0.094219685 0.14527234 0.16367355 0
0.16043854 0.20376498 0.18519533 0
0.24230289 0.27176404 0.22035407 0
0.30470133 0.31601882 0.23571149 0
0.044084072 0.18722072 0.19888815 0
0.10526466 0.23744747 0.23561341 0
0.18728638 0.30791971 0.26948276 0
0.2832098 0.49875981 0.24774684 0
-0.15636969 0.1029512 0.26482311 0
-0.097018242 0.17629328 0.24791691 0
-0.029436588 0.23840058 0.24773845 0
0.046815872 0.28007737 0.28866223 0
0.12291336 0.32716885 0.29759601 0
-0.13374662 0.24245238 0.24137399 0
-0.10940456 0.28031784 0.2701591 0
0.98060513 0.02843681 0.2381299 0
0.83668709 0.044065326 0.23626219 0
0.88795757 0.063673884 0.25318861 0
0.61141253 -0.015675277 0.19208711 0
0.66470575 0.014285088 0.23727602 0
0.78571796 0.097581029 0.24245718 0
0.81201077 0.12947354 0.26507014 0
0.58027363 0.0025010407 0.19050068 0
0.61664391 0.047293395 0.23359284 0
0.70739985 0.12696227 0.25248525 0
0.74133158 0.21180153 0.26473674 0
0.8266263 0.27943432 0.31616628 0
0.94863462 0.44562861 0.28291777 0
0.2653451 -0.16386274 0.22760415 0
0.30577135 -0.11311668 0.27026334 0
0.51190901 0.068241209 0.21831968 0
0.53586245 0.10399806 0.25359756 0
0.62415504 0.14793378 0.28335354 0
0.69112158 0.29705462 0.27995113 0
0.75915718 0.29302886 0.27873668 0
0.84185553 0.43470386 0.32030532 0
0.21076727 -0.1184614 0.23741689 0
0.27819681 -0.045599937 0.26419622 0
0.32464743 0.062739998 0.26796052 0
0.42492485 0.1195316 0.288102 0
0.47210741 0.15955439 0.29977953 0
0.52335691 0.21228093 0.32094529 0
0.63943481 0.36487636 0.30310711 0
0.66244555 0.39737588 0.3347314 0
0.74283886 0.45281416 0.36429605 0
0.10809278 -0.021589011 0.27314737 0
0.16726542 0.028395385 0.28487009 0
0.30895329 0.10109258 0.26949623 0
0.32313347 0.19059944 0.29748172 0
0.39170122 0.2336213 0.31966436 0
0.57968283 0.39751509 0.3160401 0
0.65808868 0.45390275 0.36511737 0
0.010407925 -0.050682813 0.25873092 0
0.073307991 0.0049974322 0.28859121 0
0.1759491 0.18092379 0.31929302 0
0.24641466 0.22568595 0.32160747 0
0.33181238 0.28469297 0.32368606 0
-0.11445236 0.040849179 0.26219851 0
-0.0009188652 0.10293907 0.29508772 0
0.045976639 0.17560908 0.30164677 0
0.13199759 0.21780655 0.3307946 0
0.18399334 0.24386376 0.33858985 0
0.26416588 0.37488881 0.35282743 0
0.36831284 0.4561905 0.3315182 0
-0.081953526 0.16235265 0.28472298 0
-0.016093254 0.22591913 0.29598093 0
0.048084736 0.32079932 0.31656927 0
0.11050653 0.34213763 0.31577635 0
-0.11847115 0.45719165 0.38405749 0
0.9034977 0.056382269 0.31270683 0
0.97337246 0.13633654 0.31486452 0
0.80411148 0.051307619 0.32167694 0
0.84786129 0.093676746 0.33625054 0
0.8974514 0.17930868 0.36094776 0
0.99700546 0.22169998 0.39901862 0
0.40949917 -0.15508732 0.329694 0
0.62262726 0.039234489 0.32505786 0
0.77764845 0.18559229 0.3545323 0
0.81033039 0.24121907 0.38945609 0
0.89534521 0.32389864 0.4240669 0
0.94421387 0.35245159 0.44463637 0
0.3389163 -0.19003907 0.26899549 0
0.36130667 -0.13678074 0.30795494 0
0.40801668 -0.090946555 0.35934356 0
0.55925941 0.10093167 0.32970288 0
0.60527277 0.14969486 0.36758175 0
0.71781349 0.22192103 0.40956482 0
0.76033163 0.31782395 0.42676756 0
0.81476498 0.38203982 0.42150936 0
0.86362648 0.49371448 0.40283442 0
0.31825209 -0.050345778 0.30551055 0
0.34298706 -0.00091761351 0.36790246 0
0.49992752 0.17507312 0.34413499 0
0.54672956 0.21740928 0.37839985 0
0.61765003 0.33906022 0.44982326 0
0.67031097 0.38247249 0.43782201 0
0.7585187 0.42811409 0.39761907 0
0.84149504 0.49998817 0.40382966 0
0.29839277 0.091465831 0.41750947 0
0.31964254 0.1407907 0.40943855 0
0.41220474 0.21379057 0.38663948 0
0.44952536 0.26041466 0.42949235 0
0.55866766 0.38283786 0.45056483 0
0.57585144 0.41711715 0.47520825 0
0.1997242 0.1827215 0.42503241 0
0.25307083 0.20098072 0.41904181 0
0.32804346 0.27392095 0.41508427 0
0.37353802 0.32017097 0.46288085 0
0.52281523 0.42478859 0.45910907 0
0.51364088 0.46359012 0.48484275 0
0.12758398 0.21928605 0.42583549 0
0.18412685 0.24737781 0.42412588 0
0.28833485 0.32496929 0.40846294 0
0.32090855 0.37851369 0.47108465 0
-0.0030832291 0.2135269 0.4652628 0
0.050856113 0.23007694 0.45343369 0
-0.06913662 0.23956817 0.48513949 0
0.90031481 0.046209306 0.41995198 0
0.95892191 0.08958447 0.4273304 0
0.85510492 0.090618044 0.43494609 0
0.90777636 0.13564724 0.46467239 0
0.4645462 -0.13499603 0.37001392 0
0.77102757 0.19591695 0.46452606 0
0.83681345 0.24637187 0.47431725 0
0.87936258 0.30631703 0.48895082 0
0.91933155 0.39549443 0.46736476 0
0.34963322 -0.075082839 0.39101124 0
0.44350576 -0.087696046 0.37971419 0
0.54332781 0.11407924 0.46393979 0
0.60569429 0.15661126 0.50235707 0
0.69410515 0.20566821 0.52369356 0
0.787498 0.31437737 0.49364913 0
0.79860497 0.33842131 0.51837504 0
0.2687912 -0.078482747 0.45507544 0
0.3279438 -0.012196809 0.42201766 0
0.49528503 0.14374262 0.43701574 0
0.55130053 0.21775603 0.48015678 0
0.68939495 0.38387689 0.50362289 0
0.74787855 0.39169446 0.53162283 0
0.24361515 -0.026408494 0.47726101 0
0.28661537 0.053666025 0.47632363 0
0.30909443 0.10649329 0.47328299 0
0.37102938 0.1844503 0.51801157 0
0.47564602 0.3199048 0.54958928 0
0.50875044 0.34999388 0.55923402 0
0.60283899 0.41615853 0.5136649 0
0.6597991 0.44777563 0.55438155 0
0.19782686 0.1341297 0.48665413 0
0.23312664 0.17189401 0.46181542 0
0.36474276 0.23740727 0.52920866 0
0.42618322 0.32414109 0.53691727 0
0.46922302 0.34522098 0.53313631 0
0.54548311 0.43834913 0.51629174 0
-0.0059933662 0.038880289 0.53832674 0
0.071899414 0.1051223 0.53332794 0
0.12571192 0.16564095 0.49919024 0
-0.086063385 0.010796458 0.54605812 0
-0.075658321 0.093360573 0.55531496 0
-0.011759758 0.16942811 0.52920443 0
0.050054073 0.21888128 0.51671994 0
0.19440413 0.31244743 0.57314086 0
0.16784763 0.34292111 0.60234213 0
-0.09914732 0.15396342 0.54456156 0
-0.070781708 0.20330843 0.52120841 0
0.94724846 -0.10456857 0.48010555 0
0.96688318 -0.10618031 0.52941346 0
0.86495352 -0.029907018 0.55270296 0
0.92905188 -0.031773299 0.52791578 0
0.8670578 0.10263446 0.53732061 0
0.91152191 0.14123458 0.56615376 0
0.9774642 0.20260614 0.57328433 0
0.78370905 0.16018286 0.55418676 0
0.8463583 0.17988914 0.57769954 0
0.89144707 0.26434374 0.58232737 0
0.63493299 0.12069958 0.52011573 0
0.71002436 0.19176447 0.56407452 0
0.75237846 0.22745952 0.62067449 0
0.83285952 0.34977674 0.57409942 0
0.20673275 -0.12056121 0.49332178 0
0.25484133 -0.10042986 0.54872996 0
0.36473799 0.03626895 0.55435359 0
0.66667271 0.2641367 0.61781633 0
0.66637087 0.2956734 0.65078568 0
0.76649189 0.42529488 0.60152519 0
0.10946655 -0.17491776 0.576379 0
0.16386318 -0.12443784 0.5586918 0
0.23159885 -0.057789266 0.55653042 0
0.29476976 0.0038087666 0.54755294 0
0.33677006 0.080733001 0.57700968 0
0.38617945 0.20343781 0.60891175 0
0.48445702 0.30094492 0.6281513 0
0.54285955 0.33345956 0.63360137 0
0.59749269 0.37852257 0.66082293 0
0.21835613 0.027148634 0.62612587 0
0.37532091 0.2295222 0.61260414 0
0.43216324 0.28236312 0.63395184 0
0.47604895 0.34247568 0.62318665 0
0.10927153 0.33919561 0.61933649 0
0.15375471 0.37411094 0.63227612 0
0.071284294 0.35413224 0.65911222 0
0.11154318 0.38303789 0.65678948 0
0.79304075 0.014615148 0.58833319 0
0.83796883 0.034996897 0.58447313 0
0.75379229 0.037585378 0.59889096 0
0.80016088 0.10428262 0.60590452 0
0.95391607 0.23094741 0.67101324 0
0.98295259 0.32786658 0.73253369 0
0.83808994 0.29008797 0.66744214 0
0.98123646 0.46592903 0.73849452 0
0.75874472 0.35491115 0.69308639 0
0.85324097 0.43601155 0.77168494 0
0.11959791 -0.1922226 0.59510303 0
0.16180849 -0.13755661 0.61275458 0
0.20309067 -0.053051054 0.62712765 0
0.29131889 0.028262347 0.67864162 0
0.41721773 0.18045253 0.70120496 0
0.48145866 0.27332592 0.71541148 0
0.55394173 0.32115236 0.69649184 0
0.17986298 -0.044377983 0.65741259 0
0.25436306 0.050495833 0.69022298 0
0.36124277 0.19502759 0.71792752 0
0.4441905 0.26952288 0.6997506 0
0.49836111 0.33058733 0.70895064 0
0.97874069 0.10196823 0.72454929 0
0.98441744 0.17073771 0.7454139 0
0.9418087 0.22119695 0.77180696 0
0.99365044 0.31412935 0.77268046 0
0.88755703 0.31664369 0.82388568 0
0.92010164 0.36145961 0.80411953 0
0.8426218 0.41158572 0.83344197 0
0.79754448 0.46634272 0.85536933 0
0.36716652 0.2107287 0.7950027 0
0.31969833 0.22093883 0.80048692 0
0.9702673 0.31096038 0.84836245 0
0.94894695 0.34899205 0.89112777 0
0.94429874 0.40202358 0.88922971 0
0.82723999 0.39590907 0.88500959 0
0.9463253 0.1684711 -0.20782743 0
0.9307065 0.29830328 -0.18348002 0
0.89723682 0.34434754 -0.1899841 0
0.91470814 0.43258065 -0.15662989 0
0.94327641 0.49325997 -0.12735623 0
0.85950565 0.42392203 -0.18915556 0
-0.21281385 0.41604319 -0.070082143 0
0.97798347 0.145255 -0.19558907 0
0.96495056 0.3120935 -0.1618716 0
0.96916199 0.42413586 -0.13054183 0
0.49582672 0.3933087 -0.030343585 0
0.1522646 0.084615707 -0.08249186 0
0.14133978 0.12273604 -0.076136425 0
0.42678976 0.38219529 -0.071399853 0
0.45121336 0.41473806 -0.027557764 0
0.096489906 0.20934653 -0.060433798 0
-0.027478218 0.25319096 -0.06474065 0
0.021696091 0.24615186 -0.051293764 0
-0.070802212 0.34238943 -0.048793938 0
-0.1620059 0.38189951 -0.069762759 0
-0.11697197 0.39372057 -0.051087007 0
-0.19298363 0.4128657 -0.054590572 0
-0.14606905 0.46060562 -0.028350975 0
0.82829237 0.12213311 -0.022423811 0
0.86700344 0.13159662 -0.011099655 0
0.78179359 0.16865426 -0.014004242 0
0.78000498 0.21815923 0.016231254 0
0.70680428 0.24503472 -0.010654122 0
0.74662209 0.28733593 0.024737205 0
0.77655649 0.35319781 0.055506371 0
0.27737093 -0.02916944 -0.075245939 0
0.3205452 0.00091308355 -0.036553461 0
0.70163298 0.34186158 0.016144596 0
0.74349642 0.39643133 0.047630597 0
0.14334869 -0.053671598 -0.024320822 0
0.2058773 -0.010400951 -0.047137834 0
0.25031662 0.047785729 -0.029650066 0
0.31918001 0.085922718 0.0094476193 0
0.52464962 0.39269873 -0.010228492 0
0.055160046 0.01080212 -0.009877 0
0.10442257 0.033971727 -0.00053307042 0
0.17864561 0.11458352 -0.045348696 0
0.47847843 0.41589943 -0.0023335777 0
-0.0044951439 0.047005594 0.00087183714 0
0.079181194 0.10451785 -0.0020050295 0
0.10828447 0.13842562 0.028715648 0
0.13632441 0.27046672 0.063419126 0
-0.086325645 0.12250429 -0.0026604123 0
-0.049411774 0.16134468 0.01389876 0
-0.1120677 0.32195786 0.039203957 0
-0.11274338 0.37528661 0.079231068 0
-0.12864351 0.43164623 0.1337876 0
0.85098076 -0.02935487 0.023496222 0
0.89522362 0.0076283813 0.041874275 0
0.94595814 0.066904306 0.075346418 0
0.80917501 0.016169339 0.046990395 0
0.82237244 0.059917122 0.052578032 0
0.88025045 0.15882933 0.023224451 0
0.55613184 -0.062483728 0.027105119 0
0.59160614 -0.014612734 0.068208396 0
0.75898027 0.12726852 0.092790753 0
0.82697153 0.21024382 0.039073426 0
0.87922335 0.31745741 0.094999343 0
0.35158205 -0.12704217 0.024744093 0
0.4058156 -0.07831648 0.014405549 0
0.49307251 -0.013965309 0.026445489 0
0.54517746 0.044421673 0.07678362 0
0.67919302 0.1321021 0.067157552 0
0.67833281 0.18937325 0.11297022 0
0.79095602 0.27577129 0.044146959 0
0.82718134 0.34598809 0.077547722 0
0.87503004 0.38280872 0.10325278 0
0.28519058 -0.079184175 0.035490889 0
0.33029652 -0.061700732 0.068616867 0
0.41659689 0.048181564 0.028774038 0
0.46277523 0.1137974 0.078724161 0
0.55428791 0.19630694 0.1141796 0
0.60283709 0.22385269 0.13567102 0
0.21022987 -0.032716304 0.032540884 0
0.24662638 0.014652312 0.097198501 0
0.48265076 0.24222165 0.13469604 0
0.13654852 0.053410739 0.054940149 0
0.1832943 0.094818711 0.10221078 0
0.43688536 0.29860094 0.13695794 0
0.49500132 0.48347807 0.11912516 0
-0.014066219 0.049208432 0.05270398 0
0.052763939 0.096316844 0.085021555 0
0.11961842 0.15301046 0.13345638 0
0.18173885 0.21699777 0.16038898 0
-0.059141159 0.10102823 0.080584273 0
-0.0038862228 0.13381588 0.13182111 0
0.079609871 0.18650588 0.14206114 0
0.28973579 0.4526135 0.2161963 0
-0.046988487 0.30899227 0.16195086 0
-0.088469505 0.35079658 0.15726852 0
-0.064730167 0.39129066 0.20114625 0
-0.10958099 0.45992276 0.19673339 0
0.90466738 0.031374007 0.089445807 0
0.94881868 0.074330807 0.10300349 0
0.77564335 0.013775975 0.14535002 0
0.83933735 0.064913779 0.1207087 0
0.90246964 0.1128667 0.14667761 0
0.95804644 0.17436394 0.17793778 0
0.58123398 -0.040649503 0.16266525 0
0.70648479 0.060618997 0.16095179 0
0.75989056 0.080736518 0.18184829 0
0.9008522 0.18786454 0.17883721 0
0.98225403 0.35229138 0.23679036 0
0.49286318 -0.0073873103 0.15892126 0
0.53994989 0.0074260235 0.17785832 0
0.61378574 0.10636246 0.15688142 0
0.68626642 0.16818571 0.16644754 0
0.72396612 0.25699124 0.15417968 0
0.79233456 0.34701082 0.23567544 0
0.87938881 0.36580101 0.24931902 0
0.96043968 0.44575316 0.2386698 0
0.34652805 -0.028971106 0.11050949 0
0.41765642 0.02871567 0.16270423 0
0.47211027 0.085590601 0.19298287 0
0.55363894 0.17820969 0.15987752 0
0.65255499 0.23645702 0.15840553 0
0.69374418 0.27906916 0.16809462 0
0.75738621 0.3620868 0.22622356 0
0.86057043 0.44626018 0.28493857 0
0.29474163 0.011254549 0.12407734 0
0.33909893 0.085311234 0.17408782 0
0.42457056 0.14699554 0.22020106 0
0.5083437 0.30769089 0.17725226 0
0.24516058 0.099996179 0.14372452 0
0.26198816 0.11032546 0.16105372 0
0.33167601 0.20878512 0.23647344 0
0.4712162 0.32437548 0.18300959 0
0.11110735 0.16971365 0.17829528 0
0.18270397 0.23093006 0.20653507 0
0.25824451 0.28490108 0.2398887 0
0.32716227 0.35275784 0.2765992 0
-0.0080533028 0.17158392 0.19462694 0
0.051352978 0.19871539 0.2122622 0
0.12162399 0.2743544 0.25747341 0
0.18156052 0.31447926 0.27716839 0
0.29190254 0.49276918 0.24648482 0
-0.15606499 0.13911891 0.26968217 0
-0.07495594 0.20632148 0.22766624 0
-0.025205135 0.25329074 0.27069721 0
0.059692383 0.30364037 0.2965205 0
-0.13115644 0.2543925 0.26708546 0
-0.092964172 0.29829609 0.25487849 0
0.9466939 0.054591835 0.23916806 0
0.8373189 0.048372895 0.24834315 0
0.91310072 0.079265565 0.2731612 0
0.60210371 -0.023161978 0.18950734 0
0.65762663 0.033756942 0.24312335 0
0.78100157 0.11513385 0.2522268 0
0.84741449 0.16420162 0.27317631 0
0.29840231 -0.2236236 0.2139807 0
0.57195711 0.039077163 0.2165162 0
0.61266088 0.056020856 0.2451074 0
0.70538902 0.16536123 0.26018289 0
0.79601383 0.19789767 0.29355833 0
0.78775072 0.31624377 0.31159642 0
0.22275162 -0.18655068 0.21783561 0
0.28010607 -0.15176091 0.24311097 0
0.34540367 -0.10796881 0.22344786 0
0.50742531 0.089302629 0.27272958 0
0.55029821 0.19246006 0.3019788 0
0.61251163 0.16973048 0.29307333 0
0.66689396 0.31783551 0.2920031 0
0.80926037 0.4332903 0.30623826 0
0.88697815 0.49179587 0.37210488 0
0.21645641 -0.10555923 0.24045937 0
0.28217936 -0.018281996 0.28671181 0
0.3136549 0.083049089 0.26784933 0
0.42019367 0.1382699 0.29333249 0
0.48209858 0.17426026 0.31629753 0
0.60452938 0.35231337 0.30523962 0
0.67778921 0.42462403 0.35327628 0
0.77559757 0.47601664 0.36376163 0
0.05597353 -0.081371248 0.25262728 0
0.12300634 -0.026340395 0.26984748 0
0.28258944 0.16007003 0.26830584 0
0.35103655 0.20870134 0.31504771 0
0.40193081 0.24360618 0.32678682 0
0.54615116 0.40723312 0.32125288 0
-0.015089989 -0.099687755 0.24065751 0
-0.0038232803 -0.02917698 0.26638362 0
0.066685677 0.0073767602 0.28937 0
0.15417337 0.1304535 0.30411193 0
0.19528675 0.20771134 0.31907964 0
0.25698614 0.24165213 0.31897479 0
0.28353214 0.30716658 0.38207492 0
-0.094744682 -0.013296962 0.25069872 0
-0.080913544 0.060324788 0.27741629 0
0.056883335 0.19920105 0.30453995 0
0.13763332 0.20968899 0.33821443 0
-0.13599586 0.099679261 0.2749632 0
-0.064019203 0.16502184 0.28380299 0
-0.020985126 0.24986807 0.30440089 0
0.078791618 0.3296555 0.32358548 0
0.10386467 0.37129542 0.32943305 0
-0.027013302 0.43826601 0.38428032 0
-0.11191702 0.38458413 0.36313254 0
-0.083460331 0.42845172 0.38001543 0
0.85883522 0.025901288 0.35010201 0
0.92648411 0.061142474 0.33617818 0
0.98277569 0.15783912 0.33690843 0
0.82456827 0.05597803 0.35242879 0
0.85836697 0.12796563 0.34205878 0
0.90771484 0.1890654 0.37017363 0
0.35465193 -0.17712864 0.28824091 0
0.43466139 -0.14413369 0.35514516 0
0.58959723 0.021582633 0.30858839 0
0.61328745 0.053584158 0.33650589 0
0.77362967 0.22056201 0.37388918 0
0.84096432 0.27958357 0.41216525 0
0.92361927 0.35200045 0.43366942 0
0.94796753 0.3764804 0.44313401 0
0.32025576 -0.1552147 0.27581117 0
0.37498045 -0.1099461 0.33451992 0
0.55296135 0.06337893 0.31580213 0
0.5602684 0.12435424 0.34494916 0
0.64743567 0.16822231 0.38254905 0
0.73548126 0.27048209 0.4363308 0
0.77887774 0.32198396 0.43396035 0
0.81896067 0.39094898 0.42744088 0
0.3249321 -0.031617343 0.35226631 0
0.34509516 0.016392112 0.39015627 0
0.5081687 0.21949157 0.36651629 0
0.55165052 0.2185711 0.38663933 0
0.6402173 0.33990106 0.44298869 0
0.69142389 0.38187376 0.45371962 0
0.29094982 0.097390503 0.41201171 0
0.29897165 0.16560838 0.42525882 0
0.57343435 0.39087021 0.46774054 0
0.62217379 0.3899788 0.48170877 0
0.20858574 0.18795496 0.42480978 0
0.2515173 0.22548828 0.42319998 0
0.3430419 0.30789006 0.42938846 0
0.41626787 0.3472878 0.48807886 0
0.093503475 0.19796839 0.39061487 0
0.13084602 0.22281536 0.43138024 0
0.21423769 0.28405035 0.40152559 0
0.28787804 0.35077271 0.44025469 0
-0.0053119659 0.23443106 0.4647527 0
0.052929401 0.25101513 0.46435764 0
-0.086259842 0.2031197 0.48807433 0
-0.079947948 0.23042774 0.48509979 0
0.91350031 0.05290246 0.43861684 0
0.97233677 0.10076779 0.45429343 0
0.8357749 0.051170886 0.40236306 0
0.85231733 0.12321696 0.45119518 0
0.91957808 0.16894019 0.49545047 0
0.46654463 -0.11314496 0.38467589 0
0.72827339 0.13851714 0.51482332 0
0.79001713 0.19582072 0.51361972 0
0.83920193 0.26384592 0.49028489 0
0.88274717 0.28972328 0.51886833 0
0.50499821 0.071748316 0.4486177 0
0.56750154 0.07315895 0.47671354 0
0.6821084 0.15204692 0.52025175 0
0.77998924 0.33273339 0.50683099 0
0.78107786 0.3746399 0.57973695 0
0.28070021 -0.031580657 0.44046614 0
0.31830645 0.026477456 0.42159805 0
0.61576653 0.22770852 0.51428562 0
0.69920683 0.37922901 0.51660979 0
0.75051737 0.40854746 0.55091727 0
0.19917202 -0.07405749 0.49701142 0
0.24703455 -0.0059720576 0.4797262 0
0.2952795 0.074414402 0.48401147 0
0.36424398 0.17428651 0.51520234 0
0.48852587 0.32599819 0.54848063 0
0.54193783 0.36595586 0.53844005 0
0.63678217 0.42892647 0.5282712 0
0.13447666 0.1173144 0.51274908 0
0.20900154 0.14662275 0.49293557 0
0.38337898 0.28732982 0.57934618 0
0.4434967 0.33453888 0.55335504 0
0.48541069 0.3692663 0.55017662 0
-0.061812401 0.01101321 0.53676689 0
-0.01843214 0.05431959 0.53939348 0
0.073512077 0.14048773 0.52138042 0
0.13709497 0.1841591 0.49353939 0
-0.094316006 0.044115245 0.55193377 0
-0.071150303 0.14404339 0.54085797 0
-0.006231308 0.18338519 0.5217042 0
0.045135975 0.24619064 0.50178397 0
0.14938641 0.35677484 0.62186402 0
0.18218565 0.36594266 0.6038118 0
-0.094902515 0.18021983 0.54048812 0
-0.051918983 0.22811967 0.51165146 0
0.9556303 -0.11002359 0.51173145 0
0.98645735 -0.023519516 0.5198741 0
0.87846327 -0.036046296 0.54107118 0
0.9426384 -0.020834893 0.52945781 0
0.80113029 0.01791963 0.58154792 0
0.86017656 0.095213115 0.5781039 0
0.92773533 0.16465968 0.57466429 0
0.99840641 0.2183764 0.56831867 0
0.75708961 0.067905247 0.60257542 0
0.77911615 0.17120868 0.5581159 0
0.86052465 0.20136747 0.5992955 0
0.87952948 0.30248794 0.56936127 0
0.67899895 0.17092186 0.54506946 0
0.70298195 0.21942469 0.58862031 0
0.753757 0.27644736 0.65162581 0
0.83556795 0.3467007 0.58464384 0
0.14481401 -0.1998516 0.57119048 0
0.23461962 -0.11095926 0.57912648 0
0.28056717 -0.065193981 0.56117314 0
0.32096148 0.01375854 0.54078931 0
0.65768576 0.28308663 0.63413244 0
0.69933128 0.28518108 0.66049027 0
0.76048326 0.40713653 0.59390098 0
0.11939192 -0.1813024 0.56428611 0
0.16997147 -0.1085273 0.55711448 0
0.23484993 -0.036567122 0.54809052 0
0.30523777 0.042365134 0.55749685 0
0.35882235 0.13136813 0.55819917 0
0.41242981 0.22369885 0.64216483 0
0.47662878 0.30630216 0.62694424 0
0.54684639 0.34099239 0.64337969 0
0.24515581 0.086954236 0.611211 0
0.38134623 0.24745032 0.62826157 0
0.44034481 0.30799946 0.63681936 0
0.50435925 0.34677687 0.68318802 0
0.21700525 0.26191536 0.62664866 0
0.20863485 0.32848543 0.67107379 0
0.073025227 0.37909681 0.6607917 0
0.9842639 0.0076859891 0.58807099 0
0.95503664 0.29410022 0.73528826 0
0.98915243 0.30492979 0.74267393 0
0.90198088 0.3945868 0.75267166 0
0.97589254 0.45359153 0.75376284 0
0.83119392 0.42093036 0.79040945 0
0.11422634 -0.18126512 0.61173457 0
0.14312696 -0.13587528 0.62224996 0
0.25767565 -0.039674491 0.70937616 0
0.28131962 0.015909046 0.67800784 0
0.36651278 0.14821208 0.68668306 0
0.41869116 0.20184591 0.7204988 0
0.49612284 0.29209799 0.71611851 0
0.55333805 0.33691487 0.70651555 0
0.21930265 0.01130268 0.73393822 0
0.22914076 0.050357372 0.70506567 0
0.35514259 0.20769408 0.73835635 0
0.43862295 0.28963196 0.71624881 0
0.50259352 0.34974405 0.70261186 0
0.93252277 0.035358369 0.72497338 0
0.97541904 0.07265082 0.71766478 0
0.89983082 -0.0080858171 0.77047867 0
0.95129585 0.11153975 0.76414305 0
0.97194242 0.18739259 0.76347017 0
0.90481043 0.15528572 0.77857232 0
0.92676497 0.2523126 0.79480189 0
0.98901033 0.29055339 0.79116255 0
0.87732601 0.3374255 0.82132828 0
0.92992878 0.35850981 0.82998359 0
0.83095932 0.38458052 0.86290419 0
0.82585907 0.41829872 0.84135431 0
0.24433899 -0.039668947 0.73687303 0
0.27669239 -0.019044101 0.73945951 0
0.1260848 -0.041485131 0.73236179 0
0.20163584 0.0019136071 0.74953264 0
0.36626816 0.21880248 0.80343419 0
0.93117666 0.10822919 0.84513766 0
0.88198757 0.19122669 0.87530631 0
0.92709732 0.19106549 0.8558526 0
0.82749891 0.20316902 0.89502406 0
0.92933702 0.36133835 0.90537012 0
0.91224909 0.41471019 0.95811296 0
0.91692209 0.45334753 0.93322784 0
0.9187007 0.48974395 1.026723 0
0.93796492 0.33418906 -0.17454529 0
0.94371748 0.38947403 -0.15673445 0
0.93577719 0.454267 -0.14464051 0
0.96297312 0.24268699 -0.18691555 0
0.9852457 0.46608877 -0.11570504 0
0.49030018 0.36873555 -0.049268845 0
0.5293088 0.36790928 -0.027764019 0
0.44820309 0.38097531 -0.057562742 0
0.46873665 0.41988859 -0.021346685 0
0.10367298 0.23920944 -0.053660583 0
-0.0019593239 0.24369553 -0.051597521 0
0.064137936 0.24221718 -0.052375644 0
-0.029923439 0.27948412 -0.027325459 0
-0.15463972 0.43118027 -0.040028676 0
-0.096664906 0.42058921 -0.034107901 0
0.83118439 0.11868513 -0.028313503 0
0.78072357 0.18260172 -0.007779561 0
0.70901442 0.25890002 -0.008383356 0
0.76214886 0.32217047 0.034086987 0
0.28225708 -0.038460791 -0.067768067 0
0.3187089 -0.010701418 -0.041040581 0
0.66662359 0.34874681 -0.00647901 0
0.70199585 0.32278234 0.0048401915 0
0.8112812 0.41228536 0.080311537 0
0.11894608 -0.046536982 -0.037117794 0
0.23626804 0.015906751 -0.053077344 0
0.29091501 0.035557151 -0.019805018 0
0.55041742 0.39284489 -0.0066562817 0
0.074822426 0.0033360124 -0.025153898 0
0.17148447 0.10926041 -0.057203367 0
0.21954966 0.11100322 -0.019712005 0
0.47572041 0.44118509 0.0087608173 0
0.0015163422 -0.0072538257 -0.047908306 0
-0.0021352768 0.049071848 -0.015356358 0
0.10282612 0.12326443 0.0045513697 0
0.11532784 0.21551511 -0.040428802 0
-0.053221226 0.12979397 0.0020826831 0
0.033951759 0.2408019 -0.035168044 0
0.048449039 0.28232312 -0.02746591 0
-0.071308136 0.29884353 0.014518153 0
-0.11247873 0.34790203 0.056591596 0
-0.089376926 0.37910798 0.089221664 0
-0.11952496 0.43026692 0.11172848 0
0.87196445 -0.019730628 0.023947101 0
0.91087389 0.0329386 0.035132352 0
0.81381464 0.020299137 0.048710808 0
0.87752581 0.13329533 0.011871442 0
0.91654491 0.15296763 0.027491406 0
0.51362801 -0.094213009 -0.014010832 0
0.54945183 -0.049192309 0.027840421 0
0.69918251 0.11641371 0.067869753 0
0.82608509 0.17978606 0.019790903 0
0.83338594 0.24841651 0.052868992 0
0.87055731 0.30073518 0.083886355 0
0.34414577 -0.13357574 0.016673092 0
0.45455647 -0.029859215 0.0012761168 0
0.50735378 -0.0071656406 0.035892762 0
0.55078077 0.039649785 0.074873306 0
0.6449213 0.16660622 0.109318 0
0.70293713 0.18643364 0.10896887 0
0.86467505 0.37896976 0.096919507 0
0.97665644 0.48851496 0.17133875 0
0.29941988 -0.085773408 0.033248525 0
0.38920021 0.025751889 0.0073954388 0
0.45281506 0.06970492 0.051067878 0
0.48543453 0.13756284 0.093746737 0
0.57557201 0.22158617 0.12593052 0
0.17489815 -0.060324758 -0.010584272 0
0.22106981 -0.031265587 0.040741336 0
0.32198048 0.068027318 0.0015404448 0
0.50984621 0.24502125 0.13648856 0
0.13232279 -0.0077751875 -0.0038048588 0
0.15964127 0.053193331 0.058986284 0
0.19415903 0.09766221 0.11112507 0
-0.022747993 1.2010336e-05 0.011591718 0
0.022041321 0.036995173 0.03585292 0
0.085019112 0.11064482 0.09029673 0
0.15561008 0.12746876 0.11014497 0
0.19257832 0.20889524 0.15090534 0
-0.058827877 0.042074829 0.040708154 0
-0.03451395 0.088288575 0.088335112 0
0.017258167 0.12511796 0.11552765 0
0.15946531 0.2814697 0.078507945 0
-0.073525429 0.28347215 0.12570481 0
-0.034058094 0.31456813 0.15985152 0
-0.092515469 0.32770705 0.11800142 0
-0.070957184 0.3631413 0.17437607 0
0.93023634 0.022643059 0.072163031 0
0.9643445 0.059788346 0.10439365 0
0.81985092 -0.00075554848 0.10248873 0
0.85579109 0.050614357 0.10400324 0
0.92789221 0.11986175 0.15567623 0
0.98935843 0.16138521 0.15984291 0
0.59034634 -0.025776327 0.060595348 0
0.73208141 0.051080495 0.15971456 0
0.80709553 0.10455257 0.15295029 0
0.97150612 0.26793367 0.23388013 0
0.35944128 -0.10923532 0.047330238 0
0.52507591 -0.0060904622 0.15713046 0
0.59390926 0.0039026141 0.10692348 0
0.64935446 0.099813223 0.1638177 0
0.69495869 0.20700508 0.13745788 0
0.75871611 0.25268406 0.19180162 0
0.7926507 0.32749331 0.22580959 0
0.95234394 0.40639809 0.25261241 0
0.97658682 0.47394311 0.27862179 0
0.3112154 -0.060218394 0.075108416 0
0.35469103 -0.032579243 0.099907771 0
0.44035244 0.026188612 0.16342816 0
0.50673723 0.1127688 0.1736127 0
0.55982924 0.16520017 0.15506104 0
0.65027809 0.22671834 0.151235 0
0.85769796 0.4368633 0.27033541 0
0.26503754 -0.030842483 0.085193627 0
0.28990602 0.038319707 0.13228822 0
0.36277819 0.09784621 0.18067545 0
0.41886854 0.13686296 0.21075308 0
0.50692081 0.28258178 0.16978824 0
0.55270338 0.27724904 0.18072367 0
0.22314787 0.10063261 0.12954061 0
0.28229666 0.14654419 0.17433499 0
0.11764812 0.11108804 0.13236752 0
0.13458014 0.18112314 0.17210153 0
0.20933485 0.24130368 0.19840212 0
0.28469896 0.28214359 0.24097197 0
0.017855644 0.15901405 0.17698005 0
0.0827384 0.20617461 0.21766128 0
0.15595579 0.28662524 0.2657958 0
0.20838213 0.32353449 0.26559952 0
-0.13092852 0.19474646 0.23265962 0
-0.052631378 0.19980478 0.22765419 0
0.0047211647 0.25372028 0.27042973 0
0.061567307 0.32226941 0.29645061 0
-0.11353874 0.26934451 0.25793877 0
-0.077116489 0.30113596 0.24966615 0
0.85900164 0.039706171 0.24838439 0
0.95504379 0.067643046 0.26150584 0
0.80073977 0.10615784 0.24516168 0
0.83769321 0.12853625 0.29253972 0
0.88551807 0.23646995 0.3319543 0
0.38053656 -0.17500955 0.20063972 0
0.56110907 -0.028346866 0.17413013 0
0.58500051 0.026373714 0.20535642 0
0.64322996 0.068644732 0.25169316 0
0.73974752 0.16654128 0.24994957 0
0.79439592 0.15803573 0.2797437 0
0.83939838 0.28042665 0.31669316 0
0.25644875 -0.19158188 0.21117687 0
0.51237202 0.087231547 0.23373288 0
0.58770466 0.15498701 0.28838363 0
0.75347662 0.36512837 0.2942932 0
0.8882618 0.48932272 0.37729949 0
0.24913692 -0.10375097 0.2421869 0
0.44676924 0.13516685 0.29127297 0
0.52047634 0.2047618 0.30967537 0
0.63967276 0.33836803 0.31350851 0
0.74990606 0.43425268 0.38326508 0
0.15553093 -0.058237851 0.25696769 0
0.25689554 0.019924134 0.26875392 0
0.28399944 0.12561762 0.28110358 0
0.40233707 0.17371607 0.29688299 0
0.4458437 0.23283151 0.33997265 0
0.53614759 0.41043997 0.32204533 0
0.00062274933 -0.083493829 0.24605498 0
0.031095505 -0.031448543 0.26532871 0
0.076300144 0.0075551867 0.29081941 0
0.16581297 0.14663804 0.29750654 0
0.2283988 0.20207298 0.3008067 0
0.24277735 0.24982548 0.30460176 0
-0.077914715 -0.020806253 0.24927336 0
-0.043412685 0.0093468726 0.26985341 0
0.10163307 0.20282683 0.30452082 0
0.15162182 0.22747666 0.33977446 0
0.26365185 0.30461526 0.37927791 0
-0.13750601 0.10491055 0.26813379 0
-0.061839104 0.18237278 0.28336731 0
-0.0072574615 0.2350381 0.2893402 0
0.0782094 0.34395203 0.31945747 0
0.14173794 0.37094706 0.32220715 0
-0.06058073 0.33043855 0.34356382 0
-0.10675716 0.38471445 0.35588816 0
-0.043492317 0.41625807 0.3802608 0
0.93428183 -0.022425592 0.33340767 0
0.86708498 0.029352844 0.33641672 0
0.92670012 0.08412388 0.32324606 0
0.9806447 0.14696562 0.32649082 0
0.83301115 0.059163272 0.33489886 0
0.87848902 0.13226596 0.3546958 0
0.95064306 0.19521344 0.38304299 0
0.61212349 0.040010273 0.32142758 0
0.78967333 0.20088279 0.38480824 0
0.85561943 0.23200554 0.38170066 0
0.92736053 0.35731825 0.42120972 0
0.31646061 -0.14780641 0.27135235 0
0.37371874 -0.11869183 0.3271755 0
0.54768229 0.067898661 0.30818698 0
0.57149744 0.10904965 0.3410092 0
0.66683435 0.16075379 0.37870863 0
0.72641754 0.21971515 0.41330814 0
0.79671717 0.30169508 0.43131396 0
0.84444761 0.38837916 0.4295519 0
0.326612 -0.035793811 0.32344514 0
0.34483814 0.025863767 0.39102745 0
0.51924038 0.18151149 0.35494506 0
0.63941574 0.34972134 0.46996808 0
0.70335245 0.36933893 0.46763027 0
0.30529165 0.11103129 0.40215874 0
0.58907032 0.39211968 0.46076989 0
0.23332882 0.17901826 0.41398063 0
0.29619741 0.22708252 0.39023748 0
0.36621094 0.28504965 0.43005234 0
0.43501472 0.31515491 0.45913133 0
0.097731113 0.19565725 0.38874903 0
0.14788485 0.2080079 0.41900536 0
0.27597427 0.3049354 0.4083927 0
0.029195786 0.23643973 0.44698852 0
0.066239357 0.24458218 0.45178294 0
-0.10459089 0.24583769 0.47801214 0
-0.05170393 0.2406905 0.47507527 0
0.86340666 -0.022094578 0.44093502 0
0.94349623 0.060225844 0.42147171 0
0.96384573 0.12283996 0.46630982 0
0.83958626 0.054841071 0.41298932 0
0.87078142 0.10948887 0.45789123 0
0.917243 0.16972977 0.49720046 0
0.44683504 -0.16620198 0.35072863 0
0.47375822 -0.12496185 0.38141081 0
0.7738533 0.1437546 0.51908469 0
0.86183023 0.24627391 0.48121166 0
0.88825607 0.28541237 0.54488504 0
0.4121995 -0.092551231 0.36445552 0
0.6182375 0.093907297 0.50505966 0
0.69649363 0.13683954 0.51133287 0
0.75542212 0.2044065 0.52000505 0
0.79929399 0.31009373 0.50129294 0
0.86011696 0.305756 0.55342454 0
0.32468891 -0.037216783 0.40853867 0
0.33075285 0.029420435 0.40392172 0
0.52369499 0.21435875 0.47221223 0
0.59739637 0.21008089 0.5002569 0
0.74189949 0.37173972 0.52725399 0
0.76279259 0.41378894 0.59416306 0
0.216856 -0.078338146 0.47149298 0
0.25362062 -0.013595998 0.45777145 0
0.29405928 0.057158381 0.44590694 0
0.38437366 0.16397512 0.51732874 0
0.50927639 0.31365192 0.5546779 0
0.51527548 0.342383 0.57745534 0
0.67639303 0.40927333 0.52053171 0
0.16318178 0.099549621 0.49477005 0
0.22721386 0.13862172 0.47980234 0
0.36140776 0.21509856 0.54396504 0
0.46173859 0.32417741 0.57099307 0
0.044274807 0.064390719 0.53230429 0
0.088085651 0.12840366 0.51818448 0
0.14204025 0.18633875 0.48579231 0
-0.035877228 0.13266462 0.53376985 0
0.015356541 0.19215629 0.50906295 0
0.089680672 0.2165584 0.49331042 0
-0.087790012 0.18087772 0.51777488 0
-0.048844337 0.22147748 0.50277501 0
0.95419502 -0.11110887 0.50494462 0
0.90344429 -0.05112797 0.53104609 0
0.96465349 -0.023177803 0.56087351 0
0.78935337 -0.0063964128 0.57483071 0
0.84769821 0.063989162 0.58462888 0
0.9406209 0.14199096 0.57548082 0
0.79324627 0.16835713 0.55337477 0
0.86784601 0.18985525 0.58846557 0
0.90414047 0.2868121 0.56705058 0
0.70301294 0.15808001 0.54892808 0
0.72290802 0.18827075 0.58515704 0
0.81193638 0.26812845 0.64171451 0
0.97625399 0.4074426 0.69809109 0
0.29462528 -0.080345005 0.5684846 0
0.66587114 0.25567654 0.62016773 0
0.70680428 0.29193318 0.65480703 0
0.13985014 -0.16468376 0.53504485 0
0.19079733 -0.11492884 0.53044224 0
0.2550559 -0.043502301 0.54485619 0
0.31077719 0.032269835 0.5309974 0
0.34034777 0.09204936 0.54613334 0
0.41673565 0.20736301 0.60861933 0
0.50743151 0.30701229 0.61045146 0
0.5649662 0.32684273 0.63992465 0
0.23395967 0.082334757 0.56883067 0
0.39941025 0.23816106 0.63923228 0
0.46580601 0.2980825 0.63918871 0
0.50743294 0.33865553 0.67470008 0
-0.038127422 0.034302294 0.53788632 0
0.22285652 0.24356914 0.61612058 0
-0.077805996 0.034813821 0.54248798 0
-0.091336727 0.10342297 0.5539068 0
0.21192074 0.31130096 0.65121424 0
0.22612381 0.30836046 0.68479437 0
0.99378586 -0.1269826 0.54054689 0
0.99287891 -0.0053696632 0.58621883 0
0.97461319 0.11344427 0.61837369 0
0.76705599 0.013096124 0.58847612 0
0.96119308 0.26633069 0.73550647 0
0.92242479 0.29676679 0.77109885 0
0.90956593 0.37183809 0.75407839 0
0.84361458 0.41397673 0.78271717 0
0.10989666 -0.18849805 0.59210616 0
0.15937805 -0.13333645 0.59682041 0
0.28196859 0.015500873 0.66370797 0
0.45075989 0.21386597 0.68049115 0
0.48651028 0.24984309 0.71042854 0
0.56005812 0.31103048 0.70254451 0
0.79261065 0.4613055 0.82251275 0
0.24054861 0.042259693 0.69149584 0
0.36559916 0.19649071 0.74658161 0
0.45323467 0.25815296 0.70798236 0
0.88394117 -0.069690645 0.75703734 0
0.88244915 -0.038036019 0.74786603 0
0.94452143 0.089650184 0.7488904 0
0.99245024 0.1605522 0.8026073 0
0.91692638 0.14573976 0.77197462 0
0.93404436 0.21781531 0.79103529 0
0.97499514 0.32345518 0.80413443 0
0.88722897 0.30483574 0.81760675 0
0.94754457 0.35137489 0.86241663 0
0.8395319 0.36853129 0.8449139 0
0.84195328 0.3876366 0.83508879 0
0.92516136 0.44586542 0.89772606 0
0.17851114 -0.12389708 0.76889008 0
0.25497818 -0.067845851 0.74402159 0
0.29170132 -0.01129207 0.72843039 0
0.81568623 0.44267622 0.86755997 0
0.19694376 -0.029189527 0.74791092 0
0.3757019 0.20752314 0.79279745 0
0.11133575 0.010518223 0.73564762 0
0.88538456 -0.097944111 0.76793605 0
0.97805738 0.071150213 0.85755765 0
0.78262663 -0.011394918 0.86824656 0
0.84188318 0.040012091 0.87726396 0
0.88086748 0.12991425 0.88738394 0
0.92485237 0.17951003 0.85573959 0
0.76794386 0.11716211 0.9278208 0
0.81284332 0.16536328 0.90449989 0
0.87457323 0.20548248 0.86759222 0
0.92272568 0.367073 0.91695029 0
0.71967888 0.16036877 0.93462265 0
0.74333858 0.19406974 0.91846919 0
0.92137337 0.37998265 0.94708538 0
0.92302418 0.47195423 1.0161247 0
0.9741497 -0.21093306 0.88430053 0
0.98724651 -0.11949387 0.88957596 0
0.77970886 0.026393324 0.92794633 0
0.94915915 0.15753204 0.99275041 0
0.74680185 0.081920326 0.94063246 0
0.82204485 0.13472012 1.0309089 0
0.8700738 0.17271978 1.0057378 0
0.95016146 0.14622369 1.0555006 0
0.83543873 0.14458665 1.0631849 0
0.9680481 0.26269135 1.1397973 0
0.82080317 0.22843108 0.066430107 0
0.84723759 0.30716929 0.09048593 0
0.9776926 0.43386328 0.18014202 0
0.79878569 0.36091176 0.08348415 0
0.92888641 0.48166794 0.16533962 0
0.85065508 -0.0059256256 0.058735766 0
0.90369749 0.076185822 0.10649294 0
0.77141142 -0.0021018982 0.039107341 0
0.79750156 0.051271051 0.091648623 0
0.87666559 0.10083953 0.13630973 0
0.91019678 0.16541806 0.18231821 0
0.50778008 -0.052004665 0.040548686 0
0.52398825 -0.026741624 0.06033244 0
0.6594224 0.12295371 0.078540519 0
0.92870235 0.34917313 0.23642875 0
0.45149517 0.0085175931 0.047045849 0
0.49842405 0.028041422 0.069712982 0
0.63860369 0.11852646 0.05870343 0
0.64225388 0.17631316 0.11880482 0
0.84390926 0.39387235 0.24310413 0
0.90012789 0.4300209 0.26458207 0
0.40785408 0.060856044 0.052885287 0
0.42914009 0.10806298 0.079575554 0
0.53332281 0.18736646 0.11467797 0
0.58991146 0.23220804 0.1467354 0
0.47359085 0.23003432 0.1318343 0
0.50072384 0.29110277 0.18102384 0
0.10371065 0.035873652 0.041795596 0
0.038338661 0.074898124 0.045787156 0
0.1152401 0.25563318 0.063850433 0
-0.13654995 0.28594384 0.10371974 0
-0.090884686 0.32327375 0.053850796 0
-0.12236834 0.3657026 0.085961558 0
-0.17111492 0.42237309 0.10950608 0
0.90756845 0.040778637 0.23956177 0
0.96788597 0.078133136 0.2264927 0
0.72398996 -0.015058845 0.1338248 0
0.767066 0.015093952 0.15758789 0
0.93434668 0.089952588 0.26992995 0
0.53178453 -0.060218424 0.14490002 0
0.6737361 0.035900295 0.156592 0
0.7288146 0.076482236 0.21624859 0
0.74150324 0.14508769 0.22893411 0
0.44547796 -0.031315833 0.14803939 0
0.49043941 -0.0036742985 0.16889642 0
0.56838322 0.091524333 0.16947502 0
0.67571402 0.13636968 0.23579517 0
0.71411657 0.23652568 0.276683 0
0.7794323 0.23994029 0.30872205 0
0.90931559 0.34797916 0.36807156 0
0.25754499 -0.088957399 0.042723935 0
0.28978682 -0.057546437 0.086701103 0
0.36578035 0.014107883 0.14822964 0
0.42783022 0.053778738 0.18884356 0
0.49089479 0.13752791 0.1650036 0
0.6282506 0.28528193 0.2835744 0
0.75490618 0.3867729 0.30709246 0
0.82659769 0.48876101 0.37377468 0
0.1741271 -0.026098579 0.049877539 0
0.21898556 0.0055784583 0.10266059 0
0.29010963 0.070752412 0.16657147 0
0.35047865 0.10975552 0.19770667 0
0.41247606 0.14423832 0.22970435 0
0.5706954 0.33496332 0.29773679 0
0.015565395 0.023815304 0.035181466 0
0.095206738 0.048627555 0.063783444 0
0.14280748 0.082340091 0.099938199 0
0.20468187 0.10836661 0.15182823 0
0.26074696 0.2392711 0.21740702 0
0.50330687 0.360401 0.31342006 0
-0.056246758 0.036973029 0.052013166 0
0.0067820549 0.077474594 0.090357587 0
0.0764575 0.14129761 0.13377112 0
0.1368742 0.20608851 0.18078251 0
0.20514488 0.26935977 0.21682459 0
0.28441668 0.29861963 0.26034331 0
-0.10093498 0.088260889 0.080002949 0
-0.047537327 0.10975048 0.12103508 0
-0.0039401054 0.17735606 0.17969334 0
0.063524723 0.20805526 0.20135552 0
0.15551996 0.2829423 0.23921928 0
-0.069096088 0.28757674 0.15581405 0
-0.040780067 0.33980682 0.21195321 0
-0.14235401 0.29025364 0.1191112 0
-0.12258196 0.34393203 0.16183695 0
-0.077144623 0.36343491 0.20439251 0
0.91862345 -0.010145277 0.32791215 0
0.96530724 0.10753167 0.29345548 0
0.79636049 0.018919855 0.2533344 0
0.84875011 0.057703018 0.27788034 0
0.90255833 0.10875225 0.34445605 0
0.96168518 0.17774227 0.36340436 0
0.99258518 0.24155638 0.39004755 0
0.5479908 -0.029307961 0.18332794 0
0.61920357 -0.025054663 0.22265178 0
0.77699041 0.11925742 0.30424583 0
0.80016899 0.15064079 0.37978742 0
0.87712049 0.22285947 0.4004626 0
0.3345046 -0.18931359 0.19731149 0
0.52450275 -0.027444839 0.1827668 0
0.54307795 0.055917054 0.24951664 0
0.61602926 0.11982995 0.27000278 0
0.73356581 0.17349717 0.35510343 0
0.76357651 0.23406273 0.39328712 0
0.84981823 0.30468249 0.41251481 0
0.88239098 0.34732592 0.4340401 0
0.2043643 -0.15897995 0.19647668 0
0.29953861 -0.11839202 0.22397786 0
0.44241762 0.070485741 0.27123219 0
0.49600267 0.092983454 0.28312895 0
0.56918716 0.15185398 0.29247335 0
0.20454693 -0.061670482 0.22972926 0
0.40725374 0.15624359 0.31468022 0
0.47053719 0.2185232 0.36673686 0
0.62399912 0.39474946 0.36771506 0
0.68269539 0.42348808 0.3767496 0
0.23465967 0.10532477 0.26566398 0
0.24555779 0.18591851 0.29297292 0
0.30892229 0.24177176 0.35649914 0
0.43952274 0.36599517 0.33014217 0
0.1342206 0.18853739 0.28285018 0
0.2036047 0.23571035 0.28773242 0
0.26867151 0.3193489 0.38834417 0
-0.07858181 0.1632899 0.21071333 0
-0.0087914467 0.18526605 0.23522049 0
0.055049419 0.22609481 0.26355362 0
0.13465261 0.30772814 0.28000978 0
-0.14536905 0.2126627 0.22642443 0
-0.085540295 0.22365749 0.25813249 0
-0.00233078 0.29471651 0.30332038 0
0.059014797 0.33899385 0.31792569 0
-0.19600582 0.23331136 0.24454194 0
-0.15109015 0.27406165 0.2894108 0
-0.10301208 0.35582367 0.34529063 0
-0.083152771 0.42804742 0.38137788 0
0.9117198 0.019088596 0.39606935 0
0.83029127 0.025649101 0.3839542 0
0.87834072 0.073327333 0.43391281 0
0.97689581 0.1117608 0.48345453 0
0.80998802 0.067858428 0.42101648 0
0.8256321 0.11196229 0.45923132 0
0.87159443 0.23534393 0.45609307 0
0.28096819 -0.20487997 0.22836536 0
0.32993793 -0.17105359 0.30392399 0
0.57136822 0.028615355 0.32281926 0
0.59624004 0.070491493 0.35036412 0
0.74460506 0.22628537 0.44389722 0
0.82019901 0.25752842 0.50288904 0
0.20956469 -0.1628941 0.22288248 0
0.27449942 -0.15300021 0.27200019 0
0.30948639 -0.085713446 0.32880053 0
0.52805376 0.088107944 0.33467349 0
0.54685163 0.14789563 0.36611003 0
0.6803298 0.21920171 0.41307226 0
0.7069869 0.30484742 0.48163199 0
0.73181581 0.33407336 0.51504964 0
0.24076319 -0.050440192 0.27584642 0
0.26211596 -0.011085242 0.31087956 0
0.2885561 0.056038141 0.39728841 0
0.50665951 0.1860261 0.37393534 0
0.63121367 0.37241966 0.4774158 0
0.67554951 0.35482475 0.51242632 0
-0.0027298927 -0.073395103 0.25988808 0
0.038048267 -0.02503705 0.27408323 0
0.15574694 0.094965816 0.29364741 0
0.25383997 0.13012469 0.39798334 0
0.31244326 0.22936785 0.39218196 0
0.37939167 0.30105525 0.45541707 0
0.58094215 0.47091693 0.5591827 0
-0.053323746 -0.041500926 0.26209819 0
0.0097756386 0.0046594441 0.29295763 0
0.12161732 0.16683716 0.35184374 0
0.17106104 0.19407672 0.38575941 0
0.27132273 0.28936732 0.40527955 0
0.32649136 0.32211778 0.42826617 0
0.47453403 0.45415437 0.5028457 0
-0.090992928 0.024377048 0.2730304 0
