# .PCD v0.7 - Point Cloud Data file format
VERSION 0.7
FIELDS x y z intensity
SIZE 4 4 4 4
TYPE F F F F
COUNT 1 1 1 1
WIDTH 1287
HEIGHT 1
VIEWPOINT 0 0 0 1 0 0 0
POINTS 1287
DATA ascii
-0.89878094 -0.45689738 -0.35110265 0
-0.81772053 -0.45985246 -0.35939664 0
-0.74663699 -0.48137486 -0.36558759 0
-0.99937725 -0.35273659 -0.34290773 0
-0.9216671 -0.37118757 -0.35058057 0
-0.81668127 -0.37425601 -0.36148715 0
-0.73121655 -0.37824595 -0.3730281 0
-0.92349112 -0.27929044 -0.35256428 0
-0.81682944 -0.28452373 -0.36020261 0
-0.72146416 -0.28467274 -0.37468708 0
-0.63193202 -0.27252388 -0.37842768 0
-0.90468907 -0.17529047 -0.35719985 0
-0.80652797 -0.19902122 -0.367746 0
-0.70606434 -0.1865716 -0.37591332 0
-0.6030221 -0.17679381 -0.38135201 0
-0.51328754 -0.1936028 -0.38261026 0
-0.43643606 -0.16048872 -0.38313317 0
-0.91203082 -0.086045265 -0.36177349 0
-0.80572009 -0.087982416 -0.37128103 0
-0.70094323 -0.075589299 -0.37710786 0
-0.59924018 -0.078566074 -0.3807072 0
-0.51791894 -0.091889262 -0.38159955 0
-0.42624736 -0.090739608 -0.38324839 0
-0.80195391 0.016026974 -0.37310666 0
-0.70184231 0.025317311 -0.37352061 0
-0.6149528 0.030397892 -0.37538636 0
-0.50725842 0.026640654 -0.37885654 0
-0.40610981 0.00070905685 -0.37907428 0
-0.34376025 0.022000074 -0.37072414 0
-0.70775342 0.10406458 -0.37355244 0
-0.60022259 0.12012208 -0.36846912 0
-0.50848782 0.11519217 -0.36872989 0
-0.40776968 0.11190689 -0.37415928 0
-0.31710315 0.10777974 -0.36947769 0
-0.58670235 0.20894051 -0.37541246 0
-0.4876411 0.21290839 -0.36843014 0
-0.40682387 0.21588743 -0.36562228 0
-0.30717134 0.2118839 -0.37219489 0
-0.23121262 0.23102129 -0.36655617 0
-0.40677869 0.29524755 -0.36517596 0
-0.29638767 0.30749345 -0.36400425 0
-0.20749807 0.31689191 -0.36545974 0
-0.25536752 0.37961555 -0.3685286 0
-0.19761562 0.41285944 -0.36877757 0
-0.13383174 0.41818643 -0.3712194 0
-0.19571686 0.49557054 -0.37888193 0
-0.95932794 -0.12756991 -0.34808367 0
-0.93817043 -0.066411853 -0.35236245 0
-0.91341794 0.025393367 -0.3595891 0
-0.81657016 0.057991982 -0.36638188 0
-0.91514158 0.13476908 -0.36386931 0
-0.83202577 0.12649989 -0.37225962 0
-0.72322297 0.12984395 -0.36623573 0
-0.90235496 0.22322822 -0.36800492 0
-0.79948711 0.22826958 -0.36851084 0
-0.7058816 0.22842693 -0.36364472 0
-0.62168753 0.22590709 -0.36610645 0
-0.52820563 0.24120796 -0.36527812 0
-0.91743422 0.33740091 -0.3680191 0
-0.80955029 0.34613705 -0.36808467 0
-0.70454264 0.32271051 -0.36240232 0
-0.6094358 0.31495333 -0.36122012 0
-0.51719832 0.32785773 -0.36089015 0
-0.41105247 0.33353674 -0.35993165 0
-0.32931781 0.33472514 -0.35524124 0
-0.98421335 0.41552925 -0.3657006 0
-0.91821909 0.44176781 -0.36564392 0
-0.80845511 0.44629407 -0.36696494 0
-0.7041018 0.42704129 -0.36020237 0
-0.59850097 0.41721046 -0.35732514 0
-0.49494147 0.42834836 -0.3516348 0
-0.4100368 0.41916376 -0.35875332 0
-0.30318284 0.41816092 -0.36301035 0
-0.23563814 0.40643251 -0.35817027 0
-0.97317219 0.47210264 -0.36383331 0
-0.39184928 -0.49101162 -0.38944995 0
-0.53959858 -0.43690324 -0.38929009 0
-0.47036374 -0.40124857 -0.39111573 0
-0.37839448 -0.39522505 -0.39363056 0
-0.28968406 -0.38124728 -0.38930953 0
-0.37287486 -0.30195665 -0.395679 0
-0.29944479 -0.30211842 -0.39473128 0
-0.24536681 -0.21465337 -0.39724821 0
-0.22373056 -0.22475207 -0.38731778 0
-0.97901976 -0.49143696 -0.35508889 0
-0.90193951 -0.47688925 -0.35499388 0
-0.80261672 -0.48214626 -0.36515307 0
-0.69542384 -0.47586441 -0.38013148 0
-0.59588194 -0.45860124 -0.38272685 0
-0.88266826 -0.37444532 -0.36096179 0
-0.79023385 -0.35295975 -0.37168813 0
-0.67103112 -0.35719204 -0.3844409 0
-0.58909845 -0.38574493 -0.38525838 0
-0.50959182 -0.36322653 -0.38788974 0
-0.77976012 -0.25388932 -0.37584484 0
-0.68547702 -0.2658304 -0.38349307 0
-0.57574582 -0.28930414 -0.38623357 0
-0.48888767 -0.29410577 -0.38867784 0
-0.41881645 -0.25521863 -0.39514422 0
-0.76821816 -0.19306874 -0.37737852 0
-0.69867444 -0.17611194 -0.38272268 0
-0.60184968 -0.18340147 -0.38701338 0
-0.47990644 -0.18247056 -0.39258009 0
-0.38452089 -0.18553841 -0.39352512 0
-0.29449296 -0.20643687 -0.38599646 0
-0.2178241 -0.16856837 -0.38803273 0
-0.67212164 -0.10742474 -0.38096166 0
-0.58085561 -0.092273235 -0.38598239 0
-0.4793551 -0.088214159 -0.38774174 0
-0.37356472 -0.08586359 -0.3867895 0
-0.2906754 -0.099681497 -0.38450342 0
-0.18475235 -0.097795486 -0.38452309 0
-0.12856913 -0.047901869 -0.38450044 0
-0.56240869 -0.017608881 -0.38505244 0
-0.48468256 -0.011985421 -0.38123941 0
-0.38956904 0.013932467 -0.38208097 0
-0.28138185 0.016918421 -0.38479048 0
-0.18570125 0.0077387094 -0.38033503 0
-0.10178614 0.011910677 -0.37852663 0
-0.36561978 0.079904556 -0.38145626 0
-0.27842975 0.094694257 -0.37714547 0
-0.17371774 0.11851299 -0.37695366 0
-0.078163743 0.09723115 -0.37286842 0
-0.0075320005 0.15115619 -0.36974627 0
-0.157722 0.18063962 -0.37960815 0
-0.081600428 0.21128929 -0.37628269 0
0.0057728291 0.2077961 -0.37220114 0
-0.056014299 0.27586412 -0.37553084 0
0.023483515 0.287341 -0.37252086 0
0.092343092 0.33244836 -0.36966687 0
0.05899024 0.39090025 -0.38542056 0
0.12955213 0.40065515 -0.37332386 0
-0.98968315 -0.43641508 -0.3426187 0
-0.9270376 -0.32274687 -0.35682845 0
-0.99083829 -0.26519454 -0.34756023 0
-0.89752257 -0.25560462 -0.3612569 0
-0.83723927 -0.2376591 -0.36347866 0
-0.89909875 -0.16664672 -0.36029536 0
-0.79647362 -0.14727187 -0.37238115 0
-0.72834396 -0.12202036 -0.37768376 0
-0.98896217 -0.057772279 -0.35626847 0
-0.89572001 -0.069854617 -0.36837673 0
-0.7938329 -0.055591345 -0.37734324 0
-0.66791892 -0.045554042 -0.37905163 0
-0.62732756 -0.048805118 -0.37422079 0
-0.88990784 0.029423594 -0.36756265 0
-0.78544927 0.033302784 -0.37123495 0
-0.69312978 0.036351681 -0.37787735 0
-0.58651662 0.050585628 -0.3797816 0
-0.50482059 0.036126494 -0.37797445 0
-0.85300589 0.1576643 -0.38042325 0
-0.79486394 0.14213276 -0.37228823 0
-0.68029583 0.13959229 -0.37293029 0
-0.58135891 0.13324702 -0.36979795 0
-0.48564398 0.13052905 -0.37684065 0
-0.37607408 0.12389815 -0.3770209 0
-0.29106021 0.13749099 -0.36934334 0
-0.67134118 0.24206626 -0.37037724 0
-0.59032536 0.24126947 -0.36840147 0
-0.48271537 0.21819782 -0.36868018 0
-0.39049387 0.23694837 -0.37043232 0
-0.28454471 0.23557842 -0.37513947 0
-0.19007039 0.23064387 -0.37056077 0
-0.55909789 0.30854225 -0.36168677 0
-0.49064279 0.30613863 -0.36734545 0
-0.3791275 0.35512006 -0.36606652 0
-0.28688312 0.32359302 -0.36534745 0
-0.18330455 0.32133824 -0.37240797 0
-0.080393314 0.32065713 -0.37282842 0
-0.011859894 0.32145542 -0.37297434 0
-0.44692075 0.38561082 -0.37147355 0
-0.3819437 0.40232491 -0.36295837 0
-0.28392541 0.43713892 -0.3702628 0
-0.18493199 0.42373347 -0.37268692 0
-0.081271648 0.42149806 -0.3742339 0
0.019113541 0.40850616 -0.37311065 0
0.11651897 0.42660838 -0.37035751 0
0.18814659 0.4471494 -0.36642492 0
-0.36542559 0.48751885 -0.36983955 0
-0.99311125 0.15674877 -0.36172563 0
-0.90933776 0.16235948 -0.37442374 0
-0.8934865 0.23499417 -0.37457156 0
-0.78727674 0.25496864 -0.36944437 0
-0.98788834 0.3480047 -0.36289281 0
-0.89454412 0.32998633 -0.36950952 0
-0.78142834 0.35491133 -0.36400509 0
-0.68972945 0.32531404 -0.36296326 0
-0.59522653 0.34803009 -0.36139745 0
-0.50540483 0.37123513 -0.36304712 0
-0.98593152 0.43141365 -0.36724854 0
-0.88940442 0.46702254 -0.36632049 0
-0.80968595 0.4461962 -0.36198616 0
-0.68353653 0.44573379 -0.35937893 0
-0.58029926 0.44967604 -0.35746497 0
-0.48885643 0.42162466 -0.36001813 0
-0.41434121 0.44570386 -0.36152291 0
-0.027329683 -0.4993304 -0.39340135 0
0.017426848 -0.43037224 -0.39254984 0
0.066260219 -0.41539729 -0.39300683 0
-0.54430616 -0.49422228 -0.39411205 0
-0.4301002 -0.47540951 -0.39653373 0
-0.3261385 -0.48916626 -0.39070177 0
-0.25214279 -0.49627864 -0.38719755 0
-0.13624287 -0.49182665 -0.39034593 0
-0.039057374 -0.46425903 -0.38670701 0
-0.48766792 -0.42473292 -0.40126735 0
-0.42285573 -0.3872062 -0.39560688 0
-0.3374548 -0.37139654 -0.3969391 0
-0.23411179 -0.39141786 -0.39648169 0
-0.13205242 -0.37897885 -0.39366364 0
-0.043854833 -0.39492524 -0.39011189 0
0.046519756 -0.39006925 -0.38334098 0
-0.31472421 -0.29369795 -0.39501429 0
-0.22486973 -0.28455126 -0.39769179 0
-0.14492452 -0.29468417 -0.3922053 0
-0.033724308 -0.30458367 -0.38875306 0
0.077509165 -0.28860617 -0.38676697 0
-0.21540439 -0.17966783 -0.39553565 0
-0.12426162 -0.18631411 -0.39178431 0
-0.029893994 -0.19404244 -0.38371548 0
0.06423223 -0.19730794 -0.3838428 0
0.15213048 -0.18059063 -0.38463742 0
-0.11256504 -0.13225019 -0.38549644 0
-0.016815662 -0.092611313 -0.38486832 0
0.070379138 -0.092282891 -0.37888655 0
0.16286361 -0.080589771 -0.37820414 0
0.0070931911 -0.027350783 -0.38039297 0
0.083466887 -0.01351428 -0.37907404 0
0.17209899 0.0094157457 -0.3787764 0
0.2380358 0.018054724 -0.37610734 0
0.18175495 0.098203897 -0.379197 0
0.25069737 0.097621262 -0.37631461 0
0.27990317 0.18357164 -0.37741271 0
0.34112132 0.2161454 -0.37218583 0
0.3640002 0.27526212 -0.37309992 0
-0.84188211 -0.44703221 -0.37438238 0
-0.74137962 -0.46488941 -0.37978739 0
-0.64961302 -0.4866544 -0.3885929 0
-0.59205437 -0.42374599 -0.3886196 0
-0.74764097 -0.35070801 -0.38584042 0
-0.64138281 -0.37223995 -0.38740677 0
-0.53204966 -0.37979782 -0.39508408 0
-0.46829355 -0.38301468 -0.39530194 0
-0.73220217 -0.25619185 -0.38896573 0
-0.64719594 -0.25566137 -0.38969344 0
-0.53176808 -0.2793932 -0.39521611 0
-0.43083894 -0.2755512 -0.39899063 0
-0.36307311 -0.24297976 -0.40569878 0
-0.6167419 -0.15688193 -0.39113384 0
-0.55123341 -0.19103515 -0.38863564 0
-0.43472886 -0.16107762 -0.39829469 0
-0.33819687 -0.17899942 -0.39832407 0
-0.26239765 -0.17405868 -0.39392161 0
-0.55639505 -0.083583832 -0.39767593 0
-0.44245625 -0.052095532 -0.3968724 0
-0.33084965 -0.09435153 -0.39663136 0
-0.2371527 -0.064916372 -0.39289945 0
-0.1396997 -0.093714595 -0.38577563 0
-0.063758373 -0.054522514 -0.37821978 0
-0.52079201 -0.0049817562 -0.39621341 0
-0.41981244 0.0055971146 -0.38696808 0
-0.32932234 0.013996959 -0.38947999 0
-0.23417044 0.01408875 -0.38544255 0
-0.13379359 0.0074939728 -0.38161027 0
-0.023986816 0.02916038 -0.37986249 0
0.04359591 0.015305042 -0.37651849 0
0.12675428 0.051568985 -0.36841708 0
-0.31637073 0.11462569 -0.38610089 0
-0.22895503 0.11609256 -0.3848244 0
-0.13556433 0.11894643 -0.37715286 0
-0.039722323 0.11485445 -0.37847793 0
0.07945013 0.11445403 -0.37891209 0
0.13960338 0.12813771 -0.37596363 0
-0.21963501 0.18671155 -0.39187247 0
-0.14395511 0.23524058 -0.37769079 0
-0.029578686 0.22690809 -0.38050681 0
0.064173222 0.21429896 -0.37921441 0
0.1657629 0.22252768 -0.38065058 0
0.25635827 0.2243585 -0.37472382 0
-0.14350677 0.28750813 -0.38180459 0
-0.035648108 0.30930161 -0.37450802 0
0.060940504 0.31612468 -0.37717354 0
0.16821134 0.31801605 -0.37910986 0
0.26973724 0.31149697 -0.37509769 0
0.36797142 0.31534845 -0.36751902 0
0.42445326 0.34940457 -0.3670238 0
0.075717926 0.4162941 -0.37658256 0
0.16648996 0.4159354 -0.3750205 0
0.26374304 0.41635585 -0.37436312 0
0.36710119 0.41336465 -0.36964199 0
0.45684135 0.40963244 -0.36595505 0
0.46777868 0.49400949 -0.37300298 0
-0.96617091 -0.45965362 -0.35183799 0
-0.96926355 -0.33287621 -0.35984838 0
-0.85926449 -0.3651365 -0.37164366 0
-0.95438111 -0.26008439 -0.36074865 0
-0.84521449 -0.25414181 -0.37427706 0
-0.75303459 -0.25329471 -0.37499261 0
-0.93692195 -0.16207743 -0.3648144 0
-0.8545208 -0.13442445 -0.37474304 0
-0.75871193 -0.16211641 -0.38161093 0
-0.68349576 -0.17660034 -0.3827377 0
-0.90772998 -0.035968542 -0.37940699 0
-0.85308242 -0.052355766 -0.37593341 0
-0.75098073 -0.040267348 -0.38244355 0
-0.64758885 -0.07321322 -0.39227158 0
-0.58640075 -0.02235043 -0.38800937 0
-0.81810939 0.014447212 -0.38142842 0
-0.74977922 0.063770652 -0.37789911 0
-0.64845467 0.045731068 -0.3885262 0
-0.54142511 0.04276669 -0.38095289 0
-0.43855429 0.043457389 -0.37890327 0
-0.75323963 0.14451611 -0.38266385 0
-0.64413142 0.13224006 -0.37599391 0
-0.55339503 0.140288 -0.3782261 0
-0.44858384 0.15557182 -0.38282156 0
-0.34976637 0.1610254 -0.38634783 0
-0.6167295 0.25005639 -0.37584066 0
-0.54950714 0.23243761 -0.3763234 0
-0.43463135 0.2383219 -0.37667781 0
-0.33318782 0.23018944 -0.37634867 0
-0.24966121 0.23032427 -0.37282383 0
-0.444291 0.3301785 -0.36929291 0
-0.34742618 0.33648908 -0.37069571 0
-0.22281981 0.32655656 -0.37586391 0
-0.14223266 0.33486843 -0.3786301 0
-0.050520897 0.34356624 -0.37391633 0
-0.34482884 0.43329501 -0.37158489 0
-0.24964857 0.43705976 -0.3772338 0
-0.12609601 0.42441881 -0.37801617 0
-0.042793989 0.4347167 -0.3772136 0
0.045982122 0.45423979 -0.37299705 0
-0.95811093 -0.029546976 -0.36556888 0
-0.89877546 -0.035566807 -0.35878736 0
-0.96065903 0.053056836 -0.36893803 0
-0.86585295 0.033624768 -0.37026459 0
-0.9609561 0.151021 -0.36836594 0
-0.87151575 0.1462481 -0.37231028 0
-0.73868871 0.18611336 -0.37216789 0
-0.92185855 0.27475548 -0.37573177 0
-0.84737885 0.25070596 -0.37246138 0
-0.74567056 0.23862445 -0.37492794 0
-0.6711092 0.25325716 -0.36577487 0
-0.57385612 0.28817618 -0.36844933 0
-0.94468403 0.35128391 -0.37538898 0
-0.84176958 0.35957551 -0.37498242 0
-0.75831676 0.34072685 -0.37072986 0
-0.66799998 0.34536994 -0.36972535 0
-0.5592128 0.36441147 -0.37123692 0
-0.48634124 0.3849417 -0.36650407 0
-0.85018897 0.4410733 -0.37056816 0
-0.75895047 0.46819019 -0.371553 0
-0.63326406 0.4625653 -0.36662292 0
-0.56007731 0.44038749 -0.36650485 0
-0.4397285 0.47305596 -0.37000072 0
-0.36017144 0.46971762 -0.36482537 0
-0.98958707 0.38322592 -0.36944944 0
-0.95702672 0.46697021 -0.3740654 0
0.20891881 -0.49046719 -0.37502289 0
0.28615725 -0.46425027 -0.35946155 0
-0.31090736 -0.45607483 -0.40170604 0
-0.21623898 -0.46425617 -0.40440866 0
-0.12203145 -0.48713171 -0.40196931 0
-0.018134952 -0.45964766 -0.40408435 0
0.096639991 -0.45607567 -0.3915388 0
0.24696767 -0.4337635 -0.36550826 0
-0.21596909 -0.35753059 -0.40713388 0
-0.11081171 -0.37185645 -0.40652147 0
-0.0031138659 -0.39349401 -0.40124255 0
0.091845632 -0.35937488 -0.39665997 0
0.18306172 -0.37205005 -0.39066795 0
0.29848039 -0.36052138 -0.37072521 0
-0.22918463 -0.30197442 -0.41668975 0
-0.090016007 -0.26952612 -0.40771469 0
-0.00088536739 -0.28456068 -0.40222633 0
0.086503267 -0.2671659 -0.39641345 0
0.19953394 -0.27085471 -0.38897681 0
0.28440356 -0.27455592 -0.37635389 0
0.34624684 -0.2797727 -0.36568558 0
-0.011944771 -0.19679677 -0.40000546 0
0.093997359 -0.17092454 -0.39467859 0
0.19002545 -0.17716348 -0.39242706 0
0.29805017 -0.16644734 -0.38474429 0
0.37486184 -0.15923542 -0.37645957 0
0.10600924 -0.099555969 -0.39344403 0
0.19983697 -0.079781055 -0.39175832 0
0.2875278 -0.058046222 -0.39180237 0
0.37532997 -0.075993776 -0.38148385 0
0.19310319 -0.003788352 -0.39351651 0
0.30421102 0.035278797 -0.39149249 0
0.38678944 0.029129922 -0.38369012 0
0.45931745 0.049082041 -0.36968192 0
0.29972839 0.094620764 -0.39119694 0
0.39605665 0.11030674 -0.38465747 0
0.47795403 0.14822817 -0.37687364 0
0.40742147 0.19095421 -0.39018849 0
0.50628638 0.22239435 -0.37983501 0
0.56273901 0.24585795 -0.37465611 0
0.57446361 0.29567552 -0.37458047 0
-0.70787513 -0.44927001 -0.39921975 0
-0.62851691 -0.45645583 -0.39729565 0
-0.51453876 -0.4670254 -0.40319699 0
-0.4336611 -0.44021547 -0.40529317 0
-0.34389937 -0.44498134 -0.39900678 0
-0.6050961 -0.37314296 -0.40310699 0
-0.51371515 -0.34538603 -0.40363961 0
-0.41823125 -0.3500849 -0.40893435 0
-0.32581556 -0.35048985 -0.40219969 0
-0.54873681 -0.27275395 -0.40594971 0
-0.42594576 -0.2466594 -0.405258 0
-0.3282609 -0.22831726 -0.41187143 0
-0.21720326 -0.2428627 -0.40661335 0
-0.14069402 -0.2447859 -0.40422732 0
-0.38981247 -0.11837351 -0.40465319 0
-0.31731772 -0.15186596 -0.40431994 0
-0.21922588 -0.14525318 -0.40482503 0
-0.10620785 -0.14280236 -0.39999765 0
-0.021508098 -0.16537631 -0.39207596 0
-0.30936909 -0.060292482 -0.40567422 0
-0.21547818 -0.055243134 -0.39892387 0
-0.13082862 -0.075111628 -0.39877748 0
-0.012705326 -0.054847479 -0.39509648 0
0.065201044 -0.048517704 -0.39355814 0
-0.19643652 0.03565228 -0.39879578 0
-0.11433423 0.033251405 -0.39283544 0
-0.01523912 0.048397422 -0.38756704 0
0.094718099 0.041389465 -0.39122933 0
0.17584729 0.048288465 -0.38846645 0
0.24590552 0.059223771 -0.38950512 0
-0.10273361 0.10469031 -0.38811702 0
-0.0081861019 0.153777 -0.38648874 0
0.077440619 0.15868533 -0.38701802 0
0.18410683 0.14483261 -0.3893314 0
0.28043425 0.14192128 -0.39033881 0
0.36516488 0.16465503 -0.37907279 0
0.078442931 0.23525715 -0.3865732 0
0.17062068 0.24509585 -0.3886283 0
0.29106224 0.24069053 -0.38603508 0
0.38187146 0.22858071 -0.37949732 0
0.46643567 0.24196631 -0.37626114 0
0.5882442 0.27320725 -0.3568444 0
0.11760986 0.29964089 -0.39051646 0
0.1945045 0.33555233 -0.38671553 0
0.28411722 0.3508873 -0.38308975 0
0.39535427 0.34291643 -0.37859419 0
0.48885691 0.33214432 -0.37488508 0
0.57176721 0.34742624 -0.37199959 0
0.20269477 0.42596948 -0.39157873 0
0.29268634 0.44520414 -0.3838852 0
0.38347173 0.43128073 -0.37505558 0
0.48765898 0.44524497 -0.3774271 0
0.59886873 0.42408407 -0.37619328 0
0.65581501 0.43407243 -0.37842867 0
-0.94768631 -0.49458218 -0.37233371 0
-0.91351593 -0.39376223 -0.37838429 0
-0.82959473 -0.42797887 -0.37938678 0
-0.76035619 -0.45589077 -0.38855678 0
-0.67734301 -0.39772654 -0.39419758 0
-0.95180571 -0.35904956 -0.37185186 0
-0.85108519 -0.33549392 -0.37978852 0
-0.72790062 -0.34526229 -0.39605486 0
-0.66028726 -0.31579947 -0.39858568 0
-0.82382333 -0.21959734 -0.38835943 0
-0.72657073 -0.2335614 -0.39553648 0
-0.62306833 -0.23357606 -0.40392077 0
-0.56525588 -0.19701457 -0.40717947 0
-0.74130118 -0.14286363 -0.39473146 0
-0.61794698 -0.12706482 -0.40231049 0
-0.52792239 -0.14203608 -0.40502244 0
-0.44994068 -0.11728752 -0.40460068 0
-0.71549129 -0.036464572 -0.40032578 0
-0.63709176 -0.032585859 -0.3972733 0
-0.50731826 -0.02946198 -0.40499598 0
-0.43252969 -0.015433073 -0.40188169 0
-0.33254266 0.00013518333 -0.40333951 0
-0.64562964 0.043907642 -0.39601856 0
-0.53257561 0.071965575 -0.39541769 0
-0.41597843 0.072847366 -0.39492929 0
-0.32880449 0.058175683 -0.39499658 0
-0.25050306 0.076377273 -0.39388454 0
-0.16618943 0.083535194 -0.38778037 0
-0.42930388 0.174703 -0.39405417 0
-0.32242179 0.17356479 -0.39394158 0
-0.22674501 0.16521978 -0.3852098 0
-0.1197567 0.1725148 -0.38647288 0
-0.06166625 0.1616894 -0.38536179 0
-0.3919276 0.24757659 -0.38761282 0
-0.30369592 0.24974084 -0.38802236 0
-0.22271109 0.27292192 -0.3803277 0
-0.12767053 0.26132894 -0.3861208 0
-0.02327466 0.248101 -0.38778007 0
0.05906558 0.27021718 -0.38357735 0
-0.22646153 0.35776436 -0.38476181 0
-0.1173737 0.36588323 -0.38858539 0
-0.020021677 0.36285895 -0.38753873 0
0.062536716 0.34096706 -0.38406897 0
0.16956484 0.3950212 -0.38152766 0
-0.11647677 0.46553898 -0.38842422 0
-0.01999402 0.46305746 -0.38712823 0
0.093561172 0.45153761 -0.38681245 0
0.18052483 0.47006589 -0.3856557 0
0.26973712 0.48271745 -0.38310331 0
-0.96647596 -0.30583072 -0.36721045 0
-0.92654574 -0.25409412 -0.37008262 0
-0.85551429 -0.17534864 -0.38553405 0
-0.9519434 -0.11192226 -0.37512493 0
-0.85216689 -0.11129248 -0.38472325 0
-0.93361402 0.0028710365 -0.38072693 0
-0.8470943 -0.0021134615 -0.38607168 0
-0.76953614 -0.025513411 -0.39672124 0
-0.90577149 0.08690989 -0.38189602 0
-0.83391047 0.073637724 -0.38379836 0
-0.74148512 0.088123679 -0.38644618 0
-0.64326406 0.07781899 -0.39067614 0
-0.58019495 0.10171831 -0.38391912 0
-0.84561229 0.16790128 -0.38676083 0
-0.73389781 0.18951845 -0.3870905 0
-0.62472987 0.18424487 -0.39130145 0
-0.5449506 0.18704069 -0.38711351 0
-0.73788345 0.28616071 -0.39110237 0
-0.65321398 0.29627061 -0.38512635 0
-0.54679942 0.29683721 -0.38097745 0
-0.4562223 0.27730966 -0.38518423 0
-0.37160468 0.2992034 -0.38140529 0
-0.62242794 0.40038919 -0.38787168 0
-0.55711544 0.41546082 -0.38229305 0
-0.44936943 0.39524329 -0.37682354 0
-0.31493652 0.37984633 -0.38785791 0
-0.27984405 0.37450224 -0.37973583 0
-0.55427694 0.44684947 -0.37525022 0
-0.43844199 0.48099738 -0.37690043 0
-0.34079742 0.46063018 -0.38417333 0
-0.23212934 0.47354275 -0.38826025 0
-0.14305401 0.48140275 -0.38402957 0
-0.97926581 0.067125082 -0.37145221 0
-0.93640828 0.20967841 -0.38782954 0
-0.95265794 0.27468204 -0.38278383 0
-0.84123957 0.26163924 -0.38676673 0
-0.94264603 0.40047181 -0.38550997 0
-0.83212066 0.36957169 -0.38603318 0
-0.73900032 0.35272551 -0.38187897 0
-0.66742826 0.41664469 -0.37867469 0
-0.8434149 0.49962986 -0.38095653 0
-0.74075222 0.47399879 -0.37866199 0
-0.64479017 0.4761492 -0.37383997 0
-0.55783582 0.48933733 -0.3713721 0
0.0059500933 -0.49410021 -0.39292759 0
0.16292894 -0.49819928 -0.37521189 0
0.36137271 -0.49505436 -0.33556998 0
0.11716259 -0.39537585 -0.38789448 0
0.19516015 -0.42417568 -0.37656289 0
0.27404261 -0.39124429 -0.36561093 0
0.38731611 -0.397205 -0.34275758 0
0.20202732 -0.3247996 -0.38922644 0
0.29092479 -0.32728857 -0.3619445 0
0.401847 -0.28998309 -0.35352466 0
0.40489841 -0.20787728 -0.3651782 0
0.45192754 -0.1813426 -0.36425537 0
-0.39258468 -0.43333912 -0.39788789 0
-0.31975973 -0.4871316 -0.39515287 0
-0.2242167 -0.46146023 -0.39764905 0
-0.12604308 -0.48989987 -0.39637968 0
-0.045172691 -0.4609834 -0.39707491 0
-0.3167417 -0.36628485 -0.39991808 0
-0.21657336 -0.3616643 -0.40197289 0
-0.12897694 -0.40019763 -0.39959472 0
-0.011508703 -0.38798475 -0.38942546 0
0.062340498 -0.4150995 -0.38510585 0
0.14213133 -0.34444356 -0.38393188 0
-0.21900177 -0.26738334 -0.40253025 0
-0.12210441 -0.27209449 -0.39755979 0
-0.023188829 -0.28202236 -0.38831216 0
0.084921837 -0.29178858 -0.38871607 0
0.20706618 -0.27298141 -0.38596287 0
0.29118264 -0.25112724 -0.3761349 0
0.34259045 -0.26919597 -0.35724121 0
-0.10266519 -0.16245341 -0.39633685 0
-0.008788228 -0.16683292 -0.39071602 0
0.080600977 -0.19285774 -0.38347697 0
0.18367636 -0.19279587 -0.3843483 0
0.29061329 -0.19011164 -0.37453455 0
0.3735925 -0.19563496 -0.36494076 0
0.46174502 -0.15247822 -0.35666433 0
-0.013123631 -0.11831903 -0.38107949 0
0.084776044 -0.083534002 -0.38231072 0
0.18255782 -0.090969443 -0.38215473 0
0.27985394 -0.089755177 -0.381937 0
0.38863051 -0.094408095 -0.37434176 0
0.46584237 -0.077351451 -0.36701337 0
0.1951139 0.0094518661 -0.38163406 0
0.27907479 -0.0010814667 -0.38012895 0
0.38092053 0.012274742 -0.37476993 0
0.4929477 -0.010123253 -0.36292887 0
0.54489326 0.01598525 -0.35656506 0
0.19722915 0.074116468 -0.38261551 0
0.28558576 0.097126365 -0.37973419 0
0.38116682 0.10345137 -0.3717342 0
0.48603344 0.087102711 -0.36511916 0
0.58220387 0.11128938 -0.35492557 0
0.39892113 0.19330919 -0.37701112 0
0.48173034 0.20631468 -0.37104797 0
0.58423269 0.19918168 -0.35692853 0
0.6530863 0.21480739 -0.34974515 0
0.51787341 0.2746098 -0.36633393 0
0.60071278 0.31048578 -0.36329696 0
0.67194033 0.297966 -0.3556605 0
0.61136198 0.36697 -0.36392891 0
0.6923933 0.4066844 -0.3680461 0
0.75492764 0.42708004 -0.36675513 0
-0.80947399 -0.49654603 -0.38397264 0
-0.76175725 -0.45919144 -0.38401794 0
-0.62771404 -0.47216272 -0.39769149 0
-0.52962065 -0.47455633 -0.40036601 0
-0.45647514 -0.4304651 -0.39240426 0
-0.71358156 -0.36446059 -0.39197612 0
-0.63173914 -0.36076391 -0.39182442 0
-0.52092898 -0.37241971 -0.40172642 0
-0.43000257 -0.34176111 -0.3990376 0
-0.61709487 -0.26325738 -0.3935762 0
-0.52287078 -0.26432002 -0.40265602 0
-0.44823933 -0.24732113 -0.404212 0
-0.33039451 -0.25653863 -0.40313184 0
-0.52836156 -0.1562047 -0.39890707 0
-0.42337108 -0.14921212 -0.39977187 0
-0.32316899 -0.14399886 -0.40356636 0
-0.21699977 -0.17282236 -0.39613938 0
-0.13984692 -0.13342571 -0.39242923 0
-0.3920511 -0.055688262 -0.38748455 0
-0.32331085 -0.073611617 -0.39316988 0
-0.22246027 -0.051190972 -0.39629507 0
-0.11471486 -0.051323533 -0.3943069 0
-0.029859781 -0.068191648 -0.38130403 0
0.053352833 -0.055102468 -0.37588072 0
-0.31763637 0.047276616 -0.39287949 0
-0.22615361 0.042169333 -0.38974136 0
-0.12483823 0.029256344 -0.38716274 0
-0.031681895 0.028829694 -0.3832823 0
0.085427284 0.023628235 -0.38068181 0
-0.18549824 0.106668 -0.37625295 0
-0.10752237 0.13406491 -0.38036978 0
-0.021991491 0.14624059 -0.37771988 0
0.075668335 0.12994254 -0.38142484 0
0.16975594 0.11967784 -0.37870544 0
0.23860216 0.14051282 -0.38060531 0
-0.019008875 0.23513412 -0.37950891 0
0.095272779 0.2456094 -0.38178444 0
0.18955326 0.22274625 -0.37713349 0
0.29070282 0.22090757 -0.3767072 0
0.38050961 0.21858728 -0.37099281 0
0.019243002 0.30274904 -0.37858927 0
0.077443838 0.31512088 -0.37730962 0
0.16966558 0.3159467 -0.37640351 0
0.29080284 0.32692522 -0.37349862 0
0.38474607 0.30981874 -0.37198764 0
0.47805846 0.31750941 -0.36708921 0
0.54238069 0.33296347 -0.36094558 0
0.20626104 0.41128123 -0.37875378 0
0.30042505 0.42476189 -0.37121207 0
0.39809382 0.41669494 -0.36852109 0
0.48848224 0.40872395 -0.36905211 0
0.58267975 0.42225516 -0.37039348 0
-0.9607389 -0.44547725 -0.36194921 0
-0.85836744 -0.42212951 -0.3751561 0
-0.93637073 -0.31917524 -0.36705214 0
-0.83036053 -0.34608281 -0.3794899 0
-0.70089078 -0.29909515 -0.38863629 0
-0.92843497 -0.23142719 -0.36836267 0
-0.84065306 -0.2641921 -0.37722892 0
-0.75110352 -0.25695109 -0.39219016 0
-0.6646893 -0.2385112 -0.39351058 0
-0.84868288 -0.16066921 -0.37886262 0
-0.74264383 -0.13738108 -0.38839251 0
-0.63590777 -0.16150403 -0.39173084 0
-0.82645917 -0.048724771 -0.38637924 0
-0.74790382 -0.043434381 -0.38413906 0
-0.63401961 -0.050857186 -0.38595313 0
-0.53100455 -0.087969899 -0.38905108 0
-0.4600395 -0.057302952 -0.38556147 0
-0.76135707 0.051025629 -0.39617157 0
-0.66220999 0.066549301 -0.39066678 0
-0.53912497 0.069035769 -0.38982415 0
-0.44281197 0.023790598 -0.39005077 0
-0.36137366 0.080013156 -0.38010103 0
-0.27335095 0.08954823 -0.38466895 0
-0.60202706 0.12191272 -0.38333416 0
-0.52919304 0.16235769 -0.37655085 0
-0.42504406 0.14173877 -0.38051748 0
-0.28127539 0.17188263 -0.39159894 0
-0.21795511 0.15019298 -0.37969077 0
-0.17943466 0.18067873 -0.36873269 0
-0.44040048 0.24822128 -0.37765437 0
-0.32044888 0.243011 -0.37916422 0
-0.23567247 0.25122356 -0.37868422 0
-0.10729504 0.24512804 -0.38278961 0
-0.30306423 0.35848337 -0.37424129 0
-0.22041965 0.3426823 -0.37821293 0
-0.12021184 0.34627128 -0.3802948 0
-0.033022881 0.33429718 -0.38125932 0
0.081737995 0.35869402 -0.37399966 0
-0.21463609 0.45904875 -0.37890935 0
-0.12431049 0.45110238 -0.37645185 0
-0.014681816 0.42479676 -0.37761295 0
0.072441578 0.44803041 -0.37866241 0
0.18041754 0.47181892 -0.37764609 0
-0.97600126 -0.18533957 -0.36589265 0
-0.95488358 -0.10987222 -0.36628568 0
-0.94149494 0.0014899969 -0.37363368 0
-0.86878538 -0.00063502789 -0.38143224 0
-0.95156193 0.071884632 -0.37502462 0
-0.80248833 0.086498618 -0.38522464 0
-0.72476196 0.067386508 -0.38279253 0
-0.68035984 0.11221635 -0.38040978 0
-0.94341397 0.15497756 -0.37284952 0
-0.85412776 0.1282506 -0.38076264 0
-0.75209522 0.17728567 -0.3784169 0
-0.60673296 0.20020175 -0.3841486 0
-0.93934226 0.24054587 -0.38011605 0
-0.86684489 0.27522612 -0.38332736 0
-0.75006366 0.27541399 -0.36768925 0
-0.64373994 0.26648033 -0.37408072 0
-0.54140234 0.28583908 -0.37542534 0
-0.41752625 0.30053592 -0.36993694 0
-0.6380688 0.38527107 -0.36775237 0
-0.54627109 0.37292492 -0.36883342 0
-0.45482302 0.36461067 -0.36911762 0
-0.34820104 0.38576758 -0.37145656 0
-0.53127432 0.47434604 -0.36483771 0
-0.4221704 0.43806714 -0.37114084 0
-0.33472848 0.46072495 -0.37349319 0
-0.9770999 0.30676413 -0.37748951 0
-0.84202957 0.31701624 -0.36967278 0
-0.9616611 0.39591634 -0.37440687 0
-0.76302016 0.38497078 -0.36700785 0
-0.8571918 0.4639616 -0.37891352 0
-0.65358019 0.48462057 -0.36566013 0
0.54443729 -0.4159258 -0.33349124 0
0.63645005 -0.41912967 -0.32671297 0
0.64412677 -0.31745678 -0.33978671 0
0.69836152 -0.25950402 -0.33545384 0
-0.16060817 -0.4985162 -0.39715546 0
-0.071568608 -0.47913241 -0.3956055 0
0.13046098 -0.48367053 -0.3830663 0
0.24184823 -0.49769312 -0.36423007 0
-0.03410995 -0.40570581 -0.39888692 0
0.029774427 -0.40729725 -0.39092267 0
0.144575 -0.39392924 -0.38461396 0
0.24045467 -0.40145171 -0.37223262 0
0.32835233 -0.40427363 -0.35757923 0
0.43501902 -0.41704255 -0.33745626 0
0.52476585 -0.39245182 -0.33515239 0
0.051031828 -0.32628119 -0.38602716 0
0.12482584 -0.28605115 -0.38673812 0
0.22592175 -0.30177635 -0.38650316 0
0.3505801 -0.31163311 -0.36123991 0
0.44300115 -0.30216998 -0.34969354 0
0.53085721 -0.3316679 -0.3423883 0
0.17414987 -0.20924091 -0.38785028 0
0.23724771 -0.21156669 -0.38804418 0
0.33714044 -0.20330578 -0.37346762 0
0.44218397 -0.20050764 -0.36357978 0
0.54888391 -0.2184999 -0.35810402 0
0.63397181 -0.21762699 -0.34673125 0
0.72257769 -0.1989339 -0.33284298 0
0.25435078 -0.12310469 -0.38520908 0
0.33204663 -0.11156428 -0.38277048 0
0.44207752 -0.10369027 -0.36799702 0
0.5468837 -0.12305683 -0.35665199 0
0.63506818 -0.12288445 -0.34649211 0
0.72760737 -0.12230498 -0.33851182 0
0.35467577 -0.026506066 -0.38545519 0
0.44802535 0.0037021637 -0.37268567 0
0.54275918 -0.010852158 -0.3614966 0
0.63659453 -0.024143398 -0.34829143 0
0.73372638 -0.019368112 -0.34045056 0
0.79914391 0.012577713 -0.34405649 0
0.53731644 0.075791836 -0.36259362 0
0.63904452 0.092518985 -0.35352093 0
0.73962152 0.083028316 -0.3448092 0
0.83182454 0.093359888 -0.34304848 0
0.55673468 0.15450633 -0.36766624 0
0.65949142 0.1802848 -0.35498363 0
0.75374067 0.20048088 -0.35218337 0
0.83893847 0.17660213 -0.34638694 0
0.75177634 0.27240127 -0.35683709 0
0.8475244 0.2892921 -0.35606405 0
0.91142642 0.28885084 -0.35635355 0
0.79501283 0.39320982 -0.36891231 0
0.85042608 0.38411397 -0.36618486 0
0.93497229 0.38698146 -0.36422935 0
0.86900675 0.48443568 -0.37617376 0
0.95462978 0.48388818 -0.37171051 0
-0.5361762 -0.46986198 -0.40510112 0
-0.48371983 -0.47337639 -0.39728045 0
-0.37630558 -0.48966193 -0.3998611 0
-0.26344764 -0.45700181 -0.40023768 0
-0.18563855 -0.46313512 -0.39444578 0
-0.479877 -0.3793956 -0.40084696 0
-0.36804771 -0.35979986 -0.40216291 0
-0.26529372 -0.36410332 -0.40449071 0
-0.18173468 -0.37820852 -0.39769575 0
-0.079039931 -0.38221979 -0.39386404 0
-0.4467572 -0.32135999 -0.40359062 0
-0.34801841 -0.2618227 -0.40436405 0
-0.26981294 -0.29921865 -0.39839107 0
-0.17034853 -0.28328109 -0.39325035 0
-0.086485028 -0.30190098 -0.39067864 0
0.02063942 -0.26299381 -0.38684544 0
-0.27678072 -0.17141044 -0.40074742 0
-0.18534279 -0.18724906 -0.3937183 0
-0.066568732 -0.18472731 -0.38831061 0
0.030514002 -0.19756544 -0.3817082 0
0.13719916 -0.16312551 -0.38215724 0
-0.14770198 -0.11307907 -0.38722807 0
-0.069634438 -0.065844536 -0.38827944 0
0.041563392 -0.095962167 -0.3829017 0
0.14339399 -0.076708198 -0.38362786 0
0.23815095 -0.076675415 -0.38082331 0
-0.066243529 -0.0092476606 -0.38275689 0
0.034379721 0.0090345144 -0.38033158 0
0.12022507 0.0068062544 -0.37906289 0
0.22915626 0.021851659 -0.38331819 0
0.33183074 0.011483431 -0.37719566 0
0.44242322 0.042801023 -0.36187831 0
-0.023034692 0.06850481 -0.3940028 0
0.078580379 0.11387813 -0.38262665 0
0.13767672 0.11911023 -0.38253361 0
0.23055196 0.11620981 -0.38087761 0
0.32597709 0.093274415 -0.37742558 0
0.43126309 0.096116424 -0.37515932 0
0.13015723 0.19012153 -0.38196981 0
0.22568977 0.21375346 -0.37713057 0
0.32481837 0.19277233 -0.37772438 0
0.43734527 0.19471002 -0.37632504 0
0.53307068 0.19091141 -0.36535135 0
0.60884655 0.20412987 -0.35608834 0
0.27263677 0.31201601 -0.38047397 0
0.34483874 0.27856904 -0.37290362 0
0.43767583 0.30147791 -0.36819622 0
0.53586221 0.28637779 -0.3673867 0
0.65038717 0.30456913 -0.36236987 0
0.71715677 0.29747152 -0.35700637 0
0.37114751 0.37101072 -0.37288707 0
0.43982291 0.38895512 -0.36728269 0
0.54344928 0.39641738 -0.36822641 0
0.62373078 0.38245773 -0.36300904 0
0.73113036 0.3971597 -0.36627495 0
0.46563458 0.48349434 -0.37714779 0
0.64897525 0.49727845 -0.37884665 0
0.74750698 0.47842911 -0.37312853 0
-0.86926568 -0.44285929 -0.37730253 0
-0.78949475 -0.49447167 -0.37809765 0
-0.70188212 -0.44848526 -0.39010668 0
-0.60678589 -0.47366178 -0.39503795 0
-0.75953412 -0.37328386 -0.38554215 0
-0.6785655 -0.33715451 -0.39880389 0
-0.59451294 -0.37465429 -0.39304215 0
-0.70988441 -0.28848112 -0.38905776 0
-0.59650469 -0.25902677 -0.3936432 0
-0.50027311 -0.29560077 -0.40027237 0
-0.40581095 -0.2625649 -0.39811075 0
-0.65966082 -0.19988906 -0.40079927 0
-0.5986073 -0.15578449 -0.39327335 0
-0.47655141 -0.17919886 -0.39863002 0
-0.3703692 -0.15498912 -0.40300745 0
-0.30280542 -0.13117766 -0.39230525 0
-0.55071139 -0.059520841 -0.39584267 0
-0.47213984 -0.052655101 -0.39525807 0
-0.3769269 -0.064021587 -0.39447635 0
-0.28576207 -0.054469466 -0.39651859 0
-0.20772767 -0.064873338 -0.39165503 0
-0.36867976 0.057978272 -0.38576478 0
-0.28079462 0.017488599 -0.38910109 0
-0.15129006 0.027418256 -0.38606244 0
-0.094213247 0.032937646 -0.37643075 0
-0.28072476 0.12239826 -0.38818628 0
-0.19851375 0.11652458 -0.38656378 0
-0.088855386 0.14392292 -0.37833917 0
0.00077342987 0.082467437 -0.37923324 0
-0.24651527 0.20964837 -0.38908648 0
-0.18986464 0.20385242 -0.37953192 0
-0.077169657 0.23645723 -0.38167101 0
0.024830818 0.20718801 -0.38263291 0
0.12853146 0.23661721 -0.38069808 0
-0.17699051 0.2937848 -0.38646919 0
-0.08474946 0.31114841 -0.37818152 0
0.021926641 0.32008761 -0.37888724 0
0.1165024 0.30981183 -0.38256776 0
0.21880674 0.32523918 -0.37319934 0
-0.029528141 0.38948047 -0.38279492 0
0.029198408 0.43397844 -0.38152516 0
0.12873077 0.42503333 -0.38003755 0
0.21642768 0.41587013 -0.37725395 0
0.31791782 0.38878787 -0.37087762 0
0.40564394 0.44302469 -0.36854222 0
0.05239296 0.48321533 -0.37646192 0
0.32630002 0.49320221 -0.37263179 0
-0.88900292 -0.41742992 -0.36742359 0
-0.99444032 -0.33360839 -0.36283761 0
-0.87039351 -0.30340195 -0.38312757 0
-0.80510437 -0.33516419 -0.36993879 0
-0.96703565 -0.2265538 -0.36548388 0
-0.90775311 -0.24984241 -0.36850464 0
-0.80743182 -0.25686777 -0.38828492 0
-0.88911855 -0.15458262 -0.37139583 0
-0.80240417 -0.15187216 -0.37868685 0
-0.71215618 -0.16895497 -0.39031595 0
-0.86530209 -0.050060511 -0.37960649 0
-0.80158114 -0.030809522 -0.38076764 0
-0.69907808 -0.046847105 -0.38424742 0
-0.61562204 -0.051264405 -0.38543618 0
-0.51076913 -0.026572347 -0.38624316 0
-0.79112518 0.050911665 -0.38239241 0
-0.70043278 0.082988024 -0.38015211 0
-0.61387372 0.057683229 -0.38751519 0
-0.50111198 0.038244128 -0.38746899 0
-0.68964243 0.15958798 -0.38162482 0
-0.58413887 0.13684654 -0.38396192 0
-0.48849988 0.1280359 -0.38319266 0
-0.38208842 0.14255238 -0.38173676 0
-0.58850861 0.23029935 -0.38491142 0
-0.48037338 0.26342666 -0.3810972 0
-0.39236867 0.25536716 -0.37632656 0
-0.28928471 0.2426908 -0.37306988 0
-0.53623009 0.32735908 -0.38280869 0
-0.37679768 0.36957639 -0.37675452 0
-0.26801157 0.34200251 -0.37680793 0
-0.18303573 0.31219018 -0.37483472 0
-0.34829175 0.44092053 -0.37651277 0
-0.28900981 0.44635266 -0.380023 0
-0.18038893 0.43533033 -0.37805277 0
-0.078031063 0.43586993 -0.38170493 0
-0.9959141 -0.13224852 -0.36626899 0
-0.92798233 -0.018300056 -0.37479305 0
-0.90472782 0.089454174 -0.37893307 0
-0.84208202 0.11106372 -0.38195688 0
-0.96928191 0.19318318 -0.37667131 0
-0.89184809 0.17123735 -0.37877947 0
-0.80827212 0.19379091 -0.37694275 0
-0.92666197 0.26336014 -0.38583624 0
-0.78261924 0.26699245 -0.37237304 0
-0.69636333 0.24627554 -0.37531686 0
-0.60942459 0.28100061 -0.37256598 0
-0.8763051 0.33137655 -0.39129913 0
-0.80449641 0.36182404 -0.37310988 0
-0.68555069 0.36841285 -0.37585074 0
-0.59411526 0.39222491 -0.36859542 0
-0.49301779 0.38124073 -0.36976713 0
-0.71179581 0.44421434 -0.37072867 0
-0.61536574 0.4960705 -0.36708307 0
-0.47881007 0.46337748 -0.36691934 0
-0.42037272 0.43369693 -0.37084341 0
-0.95649862 0.31699157 -0.3704415 0
-0.88290906 0.40300333 -0.37772053 0
-0.79021788 0.47911155 -0.37359273 0
0.70123112 -0.45523989 -0.30021673 0
0.76959455 -0.44774216 -0.29339883 0
0.87297475 -0.44781256 -0.26808441 0
0.91533411 -0.46975577 -0.25587881 0
0.78871834 -0.34604037 -0.30861381 0
0.8580817 -0.34510785 -0.29257113 0
0.91672361 -0.34844732 -0.28239986 0
0.86317325 -0.28340292 -0.30349594 0
0.91842246 -0.24058813 -0.29898834 0
0.92641509 -0.18014514 -0.30436262 0
0.64562511 -0.49946374 -0.29488519 0
0.099602938 -0.45801556 -0.36769846 0
0.17348313 -0.4038797 -0.36537564 0
0.25910342 -0.43377721 -0.35141575 0
0.35967982 -0.438604 -0.33280045 0
0.45034349 -0.42043942 -0.31991464 0
0.55114543 -0.42263544 -0.31330955 0
0.66306722 -0.41040313 -0.30767348 0
0.27454305 -0.32231373 -0.35664245 0
0.37818348 -0.34476328 -0.33492273 0
0.47745967 -0.33083797 -0.32920706 0
0.56760442 -0.32439017 -0.32177204 0
0.65296292 -0.3415733 -0.31664485 0
0.75008547 -0.31946218 -0.31223369 0
0.27992094 -0.23117912 -0.3708955 0
0.36075568 -0.23093075 -0.35557023 0
0.45722091 -0.22896487 -0.34303695 0
0.57042491 -0.19612122 -0.33567917 0
0.66541302 -0.24227929 -0.32154709 0
0.76759887 -0.23333949 -0.31032333 0
0.84882224 -0.23814738 -0.30413809 0
0.47254241 -0.13872725 -0.34834203 0
0.55439353 -0.12871951 -0.33144072 0
0.67357516 -0.11924392 -0.32352978 0
0.76946688 -0.14810687 -0.31516376 0
0.86887515 -0.12163991 -0.314224 0
0.93583918 -0.11637473 -0.30496255 0
0.50794423 -0.037584662 -0.35744858 0
0.57160652 -0.035182834 -0.33958572 0
0.65663064 -0.033056259 -0.32618129 0
0.76257467 -0.032950521 -0.31877244 0
0.85543001 -0.027607918 -0.31942105 0
0.97080266 -0.035410523 -0.31442043 0
0.69124901 0.08466512 -0.33981642 0
0.75337398 0.058906615 -0.32654428 0
0.87626529 0.065386534 -0.32006326 0
0.96551287 0.056708872 -0.31880409 0
0.78623557 0.14725411 -0.33061022 0
0.86790168 0.17239523 -0.32762229 0
0.97255635 0.16695529 -0.32475153 0
0.89070737 0.26217556 -0.33187854 0
0.97193086 0.26097149 -0.33150613 0
0.97270811 0.35352254 -0.33744261 0
-0.31848907 -0.49546719 -0.37533706 0
-0.25042748 -0.4923234 -0.37748295 0
-0.045560598 -0.49449706 -0.38397282 0
0.031555533 -0.46920991 -0.36752409 0
-0.23828244 -0.40343988 -0.37928212 0
-0.1398679 -0.41804755 -0.37478796 0
-0.034680367 -0.41284645 -0.37917799 0
0.076658368 -0.39728546 -0.36482564 0
0.14606154 -0.38304329 -0.35796103 0
-0.23797476 -0.33594847 -0.38761276 0
-0.15771842 -0.29586887 -0.37991643 0
-0.050091743 -0.32768357 -0.36684579 0
0.046552181 -0.31700134 -0.36884558 0
0.16262329 -0.29366946 -0.36879158 0
-0.058448911 -0.20117307 -0.37036246 0
0.059210062 -0.20874941 -0.36719665 0
0.16299498 -0.2000984 -0.37045932 0
0.24546206 -0.20386088 -0.36320674 0
0.34630096 -0.18834597 -0.35137045 0
0.079593062 -0.10120809 -0.36534509 0
0.16048825 -0.10248041 -0.36535099 0
0.25047457 -0.11022472 -0.35943937 0
0.34313381 -0.10099 -0.35911849 0
0.4228214 -0.097161114 -0.35689658 0
0.15640187 -0.017678261 -0.36314419 0
0.26009595 -0.0090345144 -0.36003247 0
0.35193682 -0.011903524 -0.35778007 0
0.47611713 -0.0135867 -0.3496502 0
0.56782043 -0.023385942 -0.32875785 0
0.26314902 0.084656537 -0.36004889 0
0.35607111 0.095749915 -0.35583395 0
0.44830143 0.077676773 -0.35442704 0
0.5612396 0.090799272 -0.34080324 0
0.66008377 0.11045307 -0.33476901 0
0.71517277 0.12472183 -0.32866412 0
0.35959208 0.18001819 -0.35635099 0
0.45349932 0.18010712 -0.34758812 0
0.55635917 0.18692017 -0.34181052 0
0.66497552 0.18423915 -0.33116871 0
0.75819147 0.17420524 -0.32506707 0
0.81639588 0.16982502 -0.31708094 0
0.48039913 0.2798171 -0.3489877 0
0.55957305 0.27708787 -0.33976951 0
0.6598891 0.28646696 -0.33914986 0
0.75334203 0.27812469 -0.33785725 0
0.8482244 0.28601623 -0.33610323 0
0.57005382 0.40267736 -0.35099018 0
0.66716409 0.37737721 -0.34690472 0
0.76970029 0.36889106 -0.34638357 0
0.87161231 0.38161635 -0.34564933 0
0.6586082 0.47043931 -0.35468772 0
0.76654136 0.4829396 -0.35529754 0
0.87340033 0.46371108 -0.35072061 0
0.95501935 0.46616066 -0.34902269 0
-0.66974723 -0.48761284 -0.37607026 0
-0.56819499 -0.49733007 -0.38278395 0
-0.49209154 -0.49964905 -0.38373083 0
-0.38129759 -0.45553577 -0.38306636 0
-0.67305434 -0.42156911 -0.37691391 0
-0.57180834 -0.39195967 -0.3812806 0
-0.47380161 -0.38465202 -0.3855744 0
-0.37800026 -0.37878466 -0.38491774 0
-0.48240387 -0.29013085 -0.38182789 0
-0.34390736 -0.31970108 -0.38732767 0
-0.30308878 -0.32366705 -0.3796941 0
-0.42535973 -0.15336502 -0.39536458 0
-0.36476684 -0.21706629 -0.38621688 0
-0.26174664 -0.21407771 -0.38006103 0
-0.15592611 -0.2007364 -0.37692767 0
-0.047853947 -0.15557957 -0.36041534 0
-0.35620666 -0.12061715 -0.37950873 0
-0.25150037 -0.099747896 -0.37868929 0
-0.15333712 -0.10213125 -0.37193137 0
-0.031710029 -0.087068439 -0.36343956 0
0.013656497 -0.067417622 -0.36102831 0
-0.26442647 -0.02913177 -0.37394327 0
-0.159168 0.014812708 -0.36686802 0
-0.067629099 0.014843464 -0.36513901 0
0.04995203 0.012965083 -0.36317092 0
0.18040049 0.043405414 -0.35781777 0
-0.052429676 0.11982787 -0.35732532 0
0.051621795 0.089405298 -0.35813081 0
0.12363541 0.090616107 -0.35860944 0
0.22635806 0.11983705 -0.36249375 0
-0.026836872 0.20937061 -0.36224961 0
0.047762513 0.21200842 -0.35938245 0
0.14708078 0.18714654 -0.35885543 0
0.24461973 0.21143639 -0.35736471 0
0.33783138 0.21975017 -0.34789863 0
0.055071115 0.29673398 -0.36256164 0
0.1567378 0.3154723 -0.35882896 0
0.23944736 0.3249321 -0.35763025 0
0.34959614 0.29942346 -0.35273239 0
0.45978141 0.31608701 -0.34285331 0
0.19272852 0.41353559 -0.36243504 0
0.24555719 0.42754292 -0.35525149 0
0.34296763 0.41183686 -0.34987694 0
0.45657194 0.39278346 -0.34807307 0
0.2689755 0.47923464 -0.34406388 0
0.46151459 0.49249357 -0.3564401 0
0.56184852 0.49184662 -0.35667923 0
-0.87183642 -0.45581138 -0.34991181 0
-0.77177691 -0.47497559 -0.36099595 0
-0.78062332 -0.35177708 -0.36333168 0
-0.6402986 -0.37782824 -0.37316084 0
-0.79957557 -0.25659108 -0.36543971 0
-0.68127465 -0.26361001 -0.37655562 0
-0.58177662 -0.28546679 -0.37773043 0
-0.76358044 -0.19045413 -0.37155581 0
-0.6849643 -0.15279305 -0.37325478 0
-0.56411862 -0.19781899 -0.37782192 0
-0.48287392 -0.14754736 -0.37696904 0
-0.65996337 -0.049587846 -0.373577 0
-0.55804443 -0.092623115 -0.37855661 0
-0.42771053 -0.076698422 -0.37807274 0
-0.39228964 -0.046214104 -0.37031633 0
-0.56111908 0.018702745 -0.37477911 0
-0.47530055 0.025658011 -0.36892289 0
-0.38010192 0.013583183 -0.3665607 0
-0.2561096 0.044685841 -0.36614013 0
-0.53426814 0.090322018 -0.37067962 0
-0.48508096 0.13720834 -0.3654207 0
-0.36596501 0.10853553 -0.36323667 0
-0.24982858 0.10254121 -0.35738093 0
-0.15417981 0.12587786 -0.35977489 0
-0.43733025 0.18510067 -0.36249489 0
-0.36362839 0.22241616 -0.362872 0
-0.26965559 0.22383881 -0.35647821 0
-0.18369901 0.22032499 -0.36025172 0
-0.089538336 0.19868863 -0.35288167 0
-0.33257103 0.29794121 -0.36119843 0
-0.23518133 0.32053369 -0.35690993 0
-0.15054202 0.34217179 -0.36497039 0
-0.059758663 0.30721122 -0.35474068 0
0.017000198 0.34273314 -0.35623336 0
-0.25535643 0.40388364 -0.36599249 0
-0.15045118 0.44239992 -0.36275321 0
-0.071011305 0.40702534 -0.36402553 0
0.04143858 0.43136615 -0.36170781 0
0.11991858 0.41441327 -0.35545129 0
-0.98780954 -0.45260239 -0.3386445 0
-0.99117482 -0.3586942 -0.34064966 0
-0.91682613 -0.32743454 -0.34826511 0
-0.88161933 -0.21419775 -0.35688895 0
-0.98260343 -0.15385103 -0.34046036 0
-0.89275289 -0.14432108 -0.35291588 0
-0.81644356 -0.15270364 -0.36051154 0
-0.89588296 -0.073483586 -0.35653186 0
-0.79802012 -0.052352905 -0.36447799 0
-0.88466656 0.016790509 -0.35950059 0
-0.80482268 0.053979993 -0.35887498 0
-0.67812133 0.029854655 -0.36597735 0
-0.76753306 0.14679897 -0.3568151 0
-0.68666744 0.12315536 -0.36046588 0
-0.55882013 0.16469812 -0.36721259 0
-0.65860629 0.27132201 -0.36390704 0
-0.58207881 0.22875857 -0.35667098 0
-0.47418737 0.23102975 -0.35289788 0
-0.59493685 0.30736828 -0.3479951 0
-0.48975861 0.3576957 -0.35415012 0
-0.39433479 0.36662304 -0.35019326 0
-0.29998827 0.32591808 -0.35407162 0
-0.49085355 0.41227794 -0.34557462 0
-0.35233688 0.43094933 -0.35653085 0
-0.27011395 0.4470697 -0.35818267 0
-0.21019149 0.45116568 -0.35686278 0
-0.97999394 -0.0041257143 -0.3527419 0
-0.994277 0.041810036 -0.34789503 0
-0.96842039 0.16657853 -0.36103106 0
-0.8894124 0.13928366 -0.3635186 0
-0.98800683 0.27623773 -0.35627615 0
-0.89898562 0.25761628 -0.36228704 0
-0.7847755 0.24894047 -0.36204749 0
-0.92777967 0.36721992 -0.36510491 0
-0.77605152 0.37159598 -0.3583976 0
-0.68779945 0.33384836 -0.35720843 0
-0.60966563 0.38259554 -0.34341514 0
-0.86681819 0.43206239 -0.36719233 0
-0.80564904 0.46937931 -0.35827285 0
-0.68312895 0.44360566 -0.35064721 0
-0.53440857 0.46484876 -0.34459436 0
0.73705399 -0.48859447 -0.29348388 0
0.83672488 -0.47576833 -0.26864371 0
0.92685127 -0.45028996 -0.25464085 0
0.87273979 -0.34294647 -0.29320404 0
0.91704559 -0.37904507 -0.27397758 0
0.80865932 -0.30077416 -0.32190049 0
0.94106603 -0.26904911 -0.29244998 0
0.11378372 -0.4735173 -0.38646898 0
0.21476948 -0.46297687 -0.36618945 0
0.32134378 -0.44407529 -0.3463293 0
0.40204096 -0.47070754 -0.32825941 0
0.51217711 -0.4746871 -0.31539685 0
0.6082207 -0.47001541 -0.30773237 0
0.71854615 -0.46545655 -0.29921207 0
0.80901051 -0.44972813 -0.2771782 0
0.15126467 -0.39390242 -0.38629818 0
0.26571429 -0.35595626 -0.37292948 0
0.31782103 -0.35224658 -0.35649911 0
0.44643283 -0.36689121 -0.33127493 0
0.53428435 -0.36398351 -0.32746586 0
0.63084972 -0.37178665 -0.32017249 0
0.71381187 -0.37939781 -0.31526199 0
0.82614183 -0.36144137 -0.29764545 0
0.30830848 -0.27820951 -0.36670417 0
0.43385172 -0.2804994 -0.34463543 0
0.52908993 -0.27062446 -0.33690947 0
0.64296162 -0.27937442 -0.33155516 0
0.72652268 -0.28687274 -0.32494584 0
0.82991827 -0.27042097 -0.31656855 0
0.43598187 -0.18619305 -0.3557491 0
0.52074277 -0.1680268 -0.35168606 0
0.61042452 -0.18112379 -0.34659702 0
0.73417914 -0.17316467 -0.33344224 0
0.83197439 -0.18999273 -0.32425001 0
0.94382262 -0.17033851 -0.30695456 0
0.46072984 -0.10155308 -0.36947098 0
0.54902685 -0.074599087 -0.35995814 0
0.63585413 -0.068200648 -0.3518129 0
0.72876966 -0.05526489 -0.3378157 0
0.82980978 -0.084439754 -0.33309078 0
0.91932678 -0.079965651 -0.33106232 0
0.6340425 0.0083889365 -0.34954792 0
0.73401582 0.028884947 -0.34015143 0
0.8384639 0.029965401 -0.33903763 0
0.93732727 0.03215158 -0.33626282 0
0.75699031 0.12684345 -0.34954274 0
0.84171677 0.13489515 -0.34403029 0
0.94062674 0.11901772 -0.33556736 0
0.84519291 0.22355247 -0.34946588 0
0.93538582 0.22575492 -0.34523404 0
0.94525743 0.3149066 -0.35302666 0
0.96311748 0.39396343 -0.36050293 0
0.9873476 0.49376678 -0.37425148 0
-0.28512645 -0.44041538 -0.39020413 0
-0.17910099 -0.43237019 -0.38926306 0
-0.097563982 -0.43115973 -0.38317677 0
0.020743132 -0.44525099 -0.39113349 0
0.075004697 -0.43304288 -0.38200045 0
-0.16097999 -0.35007095 -0.39146775 0
-0.083273768 -0.32922959 -0.39269152 0
0.014191866 -0.352157 -0.38705951 0
0.090378642 -0.35092175 -0.38066667 0
0.18978167 -0.32579708 -0.38339961 0
-0.059011579 -0.24042606 -0.39228719 0
0.015442491 -0.24230754 -0.38573587 0
0.11548626 -0.24789023 -0.38361236 0
0.20056212 -0.2475878 -0.37837011 0
0.0034111738 -0.15073991 -0.39113986 0
0.10371399 -0.12608707 -0.3817488 0
0.2355907 -0.14712763 -0.38250965 0
0.33012974 -0.154239 -0.37562203 0
0.42052341 -0.11866105 -0.36366156 0
0.12898517 -0.076489925 -0.37529746 0
0.22304118 -0.032650709 -0.37877259 0
0.3300885 -0.040223598 -0.37604186 0
0.41824651 -0.052739739 -0.36857691 0
0.49902141 -0.02899009 -0.35699359 0
0.14741266 0.016360641 -0.3863714 0
0.22561622 0.092588663 -0.38822681 0
0.32931149 0.060259461 -0.37628493 0
0.41593194 0.058286786 -0.37487894 0
0.52740538 0.046971619 -0.36349031 0
0.62811434 0.054006875 -0.34826419 0
0.32667994 0.14144194 -0.37614772 0
0.42630577 0.12360901 -0.37135193 0
0.53159869 0.14663041 -0.36274236 0
0.6411345 0.14499861 -0.35065472 0
0.70712137 0.14033854 -0.34779561 0
0.34613335 0.22152829 -0.37939051 0
0.43840957 0.2408669 -0.37493503 0
0.52422678 0.25342089 -0.36528555 0
0.64056301 0.25869924 -0.35505307 0
0.74263895 0.22940773 -0.34935108 0
0.813802 0.23919773 -0.34501565 0
0.52566445 0.34031403 -0.36820611 0
0.61879277 0.34672457 -0.35626343 0
0.73343015 0.33088166 -0.35498914 0
0.84250426 0.33997762 -0.35684109 0
0.64885581 0.44447577 -0.36573988 0
