# .PCD v0.7 - Point Cloud Data file format
VERSION 0.7
FIELDS x y z intensity
SIZE 4 4 4 4
TYPE F F F F
COUNT 1 1 1 1
WIDTH 1291
HEIGHT 1
VIEWPOINT 0 0 0 1 0 0 0
POINTS 1291
DATA ascii
0.55358696 0.14395809 -0.36051083 0
0.65456247 0.15136147 -0.35145283 0
0.14219332 0.24321747 -0.35868979 0
0.26651621 0.27788639 -0.36490393 0
0.34265232 0.24466991 -0.36254168 0
0.47696686 0.22826576 -0.3521719 0
0.58319759 0.23469353 -0.34460688 0
-0.03635025 0.35959435 -0.35430765 0
0.076510906 0.34119511 -0.35368443 0
0.18246317 0.35227776 -0.3533721 0
0.2561655 0.39480209 -0.35034609 0
0.36618853 0.35003757 -0.35550785 0
0.48627234 0.3267374 -0.3493185 0
0.55784798 0.29859734 -0.34622908 0
-0.073825359 0.43282127 -0.35347843 0
0.059187889 0.45430183 -0.36197424 0
0.14659214 0.4733057 -0.35031605 0
0.23742294 0.44970226 -0.35219193 0
0.36338091 0.43743229 -0.34981489 0
0.47137451 0.44613552 -0.34381866 0
0.97932577 0.024469376 -0.34215689 0
0.82319832 0.10227585 -0.34932184 0
0.91458082 0.12604332 -0.3396883 0
0.70935774 0.23707485 -0.33928633 0
0.84153891 0.22242737 -0.34589148 0
0.96374226 0.26272202 -0.32862616 0
0.65050316 0.37891102 -0.34304285 0
0.75102758 0.32439423 -0.34323645 0
0.87073517 0.36054516 -0.32050323 0
0.51033831 0.48323917 -0.32410479 0
0.60922337 0.43533993 -0.34059143 0
0.69477558 0.44904613 -0.33042431 0
0.75671101 0.39923 -0.33800936 0
0.81675816 0.46234035 -0.32203007 0
0.87186241 0.46568966 -0.29548359 0
-0.97501993 -0.45923805 -0.29144573 0
-0.90880728 -0.41139603 -0.30245161 0
-0.76608419 -0.44891834 -0.31745815 0
-0.68395185 -0.46232605 -0.31949997 0
-0.60561323 -0.4959116 -0.32907915 0
-0.49813223 -0.47018147 -0.34185171 0
-0.39098263 -0.47380733 -0.3494854 0
-0.96654415 -0.34578419 -0.30007076 0
-0.85968018 -0.36122227 -0.30770159 0
-0.72987747 -0.34708691 -0.32172871 0
-0.64530516 -0.36555386 -0.32639933 0
-0.54968929 -0.39548111 -0.33335972 0
-0.96384859 -0.25336647 -0.3032012 0
-0.84071159 -0.23946095 -0.31606865 0
-0.76431227 -0.25623703 -0.31892681 0
-0.62601709 -0.23081779 -0.33856297 0
-0.95965242 -0.14175034 -0.30672455 0
-0.84822893 -0.14854813 -0.3199625 0
-0.74674034 -0.15367603 -0.33017826 0
-0.98383236 -0.063269615 -0.30943823 0
-0.86991978 -0.085124016 -0.31894445 0
-0.98443413 0.025180817 -0.31275606 0
-0.98735857 0.13279438 -0.32172966 0
-0.28793144 -0.43949223 -0.35647964 0
-0.18460417 -0.48069954 -0.36878872 0
-0.034861088 -0.47864342 -0.37453079 0
0.13304138 -0.45892143 -0.39105082 0
0.23107195 -0.46697807 -0.38650322 0
0.34206009 -0.48105812 -0.39220047 0
0.55243778 -0.49163246 -0.40342283 0
-0.54991627 -0.34384251 -0.33605766 0
-0.46619368 -0.37646866 -0.33664751 0
-0.39313745 -0.41024208 -0.35241318 0
-0.25939465 -0.36636925 -0.35741997 0
-0.11388493 -0.3535471 -0.36249208 0
-0.051681519 -0.41582489 -0.37396336 0
0.044016361 -0.37642097 -0.37468433 0
0.20626211 -0.36844444 -0.38797188 0
0.37245178 -0.33578777 -0.40105867 0
0.48254108 -0.42215443 -0.39211082 0
-0.69619989 -0.25128746 -0.32066154 0
-0.56369638 -0.26658726 -0.33702564 0
-0.45097113 -0.28092766 -0.34587622 0
-0.3566308 -0.25090218 -0.35200787 0
-0.24671698 -0.23459911 -0.35939789 0
-0.18284702 -0.26549911 -0.3625083 0
-0.10672903 -0.29174709 -0.36870766 0
0.00034284592 -0.27939892 -0.37061977 0
0.1553216 -0.26163769 -0.38341427 0
0.24393749 -0.28719425 -0.37474346 0
-0.72481441 -0.10528469 -0.32418585 0
-0.69252825 -0.15074539 -0.32846117 0
-0.56694365 -0.15401459 -0.33487368 0
-0.45835829 -0.16290379 -0.34242773 0
-0.40244007 -0.1683979 -0.3463788 0
-0.2373867 -0.14743328 -0.36813545 0
-0.18595219 -0.15204716 -0.36070871 0
-0.054439545 -0.1640873 -0.3666997 0
0.086575985 -0.17256069 -0.37388325 0
0.25404978 -0.17785358 -0.38627291 0
-0.90780354 -0.043128014 -0.31278276 0
-0.80433702 -0.0050811768 -0.32694197 0
-0.78272438 -0.054818153 -0.32390833 0
-0.65460062 -0.03427124 -0.33682919 0
-0.5728569 -0.076658249 -0.33944893 0
-0.45866966 -0.037548065 -0.35178471 0
-0.32155228 -0.04390049 -0.35574484 0
-0.21640825 -0.039735794 -0.36260796 0
-0.054505825 -0.067687035 -0.37468195 0
0.051442146 -0.044295311 -0.37648296 0
-0.91997862 0.061210632 -0.31794691 0
-0.87440491 0.039390564 -0.31798697 0
-0.73956919 0.056674957 -0.33342838 0
-0.66211128 0.067468643 -0.33865929 0
-0.55332565 0.060455322 -0.3466959 0
-0.4468236 0.039043427 -0.35205173 0
-0.34147549 0.061001778 -0.35963917 0
-0.24127579 0.043365479 -0.36353159 0
-0.14543867 0.041639328 -0.36186552 0
-0.098625183 -0.012537956 -0.36891174 0
0.046439648 0.042488098 -0.38222551 0
-0.93040609 0.14421654 -0.32315397 0
-0.83761406 0.14892673 -0.33182907 0
-0.76108885 0.15355206 -0.33165359 0
-0.64880276 0.15603924 -0.34038353 0
-0.54590178 0.15925884 -0.34718418 0
-0.43469238 0.13768673 -0.35310459 0
-0.38513613 0.18813705 -0.35917187 0
-0.28004217 0.12173367 -0.3605113 0
-0.15369844 0.1251812 -0.36698866 0
-0.021368027 0.10287571 -0.37107801 0
-0.95037746 0.24997234 -0.32805634 0
-0.84351301 0.2523222 -0.33392429 0
-0.76229525 0.2644825 -0.3387146 0
-0.62927961 0.24925709 -0.34979391 0
-0.56067657 0.25190544 -0.34188366 0
-0.45418787 0.2588892 -0.34859467 0
-0.34064817 0.22816658 -0.35488653 0
-0.22456884 0.26029968 -0.36250782 0
-0.17368746 0.20437241 -0.36958122 0
-0.93467712 0.34639454 -0.33089399 0
-0.83642483 0.36010456 -0.33666611 0
-0.75623035 0.33296776 -0.33941555 0
-0.65849876 0.33792877 -0.34570932 0
-0.55757856 0.35544205 -0.3460989 0
-0.46412659 0.36022472 -0.34645891 0
-0.35379171 0.33813 -0.35381794 0
-0.24907875 0.3129406 -0.36138868 0
-0.93758106 0.45187664 -0.33194304 0
-0.82854271 0.4536953 -0.34052706 0
-0.74099207 0.45050621 -0.34576464 0
-0.6417985 0.42903233 -0.34660339 0
-0.53848982 0.44971752 -0.3475976 0
-0.4527235 0.46562862 -0.35115004 0
-0.30046511 0.41444016 -0.35855389 0
0.65957785 -0.44804764 -0.39821625 0
0.80874538 -0.47546101 -0.39414454 0
0.984869 -0.48955536 -0.39496756 0
0.39814377 -0.36258793 -0.37728262 0
0.61674643 -0.36423492 -0.39515305 0
0.78813076 -0.39096069 -0.39725256 0
0.93386507 -0.41534901 -0.39046621 0
0.41893578 -0.27588844 -0.38966799 0
0.54481792 -0.30650997 -0.38344955 0
0.68083668 -0.24244404 -0.38631916 0
0.73858929 -0.31855106 -0.39255238 0
0.84534264 -0.2922039 -0.38230181 0
0.36389637 -0.18054104 -0.38517284 0
0.4796443 -0.15472698 -0.38211584 0
0.51741838 -0.22378349 -0.38466883 0
0.63143682 -0.1727829 -0.3814292 0
0.78789568 -0.17657661 -0.38075066 0
0.16410828 -0.059334755 -0.37502623 0
0.27662897 -0.053952217 -0.37583828 0
0.35003042 -0.024436951 -0.36372614 0
0.44709635 -0.088953018 -0.38045597 0
0.57283974 -0.060030937 -0.37868643 0
0.66107082 -0.032476425 -0.36630917 0
0.74124479 -0.097517967 -0.37811327 0
0.1098628 0.038942337 -0.37043333 0
0.23641968 0.051706314 -0.37593126 0
0.35644913 0.035100937 -0.37107468 0
0.45821619 0.038095474 -0.36175632 0
0.60876942 0.032266617 -0.36101294 0
-0.064328671 0.1583252 -0.36584377 0
0.062060356 0.12374496 -0.36645985 0
0.17126369 0.13990879 -0.36862373 0
0.30063677 0.17199802 -0.37172508 0
0.31796885 0.10864162 -0.36946297 0
0.44332933 0.13842583 -0.36875916 0
0.57091427 0.17404175 -0.36756945 0
-0.10397959 0.23899364 -0.36433077 0
-0.033025742 0.26096249 -0.35718393 0
0.047238827 0.24583435 -0.3620348 0
0.12383127 0.23249149 -0.36607742 0
0.26629591 0.23354721 -0.36975193 0
0.38929749 0.23779011 -0.36680508 0
-0.14325333 0.34285545 -0.36543846 0
-0.043831825 0.35210896 -0.36393118 0
0.053760052 0.34283352 -0.36120272 0
0.17534733 0.32139683 -0.3575902 0
0.27843904 0.35000038 -0.35322571 0
0.35560608 0.2963047 -0.36535597 0
-0.34126234 0.45310307 -0.35322905 0
-0.21587944 0.4781456 -0.36158562 0
-0.14288998 0.4518795 -0.36383963 0
-0.039634228 0.41215515 -0.35903168 0
0.014280796 0.45465946 -0.36397696 0
0.13462543 0.43650627 -0.36066151 0
0.25127125 0.44792366 -0.35779095 0
0.9226861 -0.25575924 -0.36860609 0
0.86514187 -0.17164326 -0.36442804 0
0.78573227 -0.024154663 -0.36228132 0
0.84824371 -0.097014427 -0.36865187 0
0.98631001 -0.098270416 -0.35908031 0
0.77154064 0.050992966 -0.36736345 0
0.87465239 0.053145409 -0.3510375 0
0.9513011 -0.021476746 -0.3599081 0
0.54139662 0.093149185 -0.35194731 0
0.66565561 0.1144886 -0.35014296 0
0.84531498 0.12122917 -0.35231924 0
0.94390297 0.11827183 -0.33289337 0
0.46262312 0.22620583 -0.34841824 0
0.61214161 0.21851635 -0.34969997 0
0.79628611 0.23011017 -0.3541398 0
0.86408472 0.25877857 -0.33226538 0
0.94044447 0.19145489 -0.34113693 0
0.46230555 0.33896351 -0.36098146 0
0.58820772 0.32542706 -0.35652781 0
0.71015549 0.33599472 -0.34727097 0
0.82603598 0.33080292 -0.33280182 0
0.3994112 0.42972374 -0.35679626 0
0.49825191 0.41997337 -0.34703159 0
0.58877993 0.45419884 -0.33424187 0
0.67521429 0.42915344 -0.33120632 0
0.73963213 0.39159107 -0.32111311 0
0.96292639 0.34264374 -0.32294226 0
0.91540098 0.41489124 -0.32165813 0
-0.92393684 -0.45207882 -0.30205393 0
-0.77057695 -0.47160625 -0.31991148 0
-0.57485867 -0.45510674 -0.34072065 0
-0.88005972 -0.3684082 -0.31158781 0
-0.73665285 -0.35033703 -0.32545662 0
-0.69747782 -0.39791107 -0.332376 0
-0.95974398 -0.26593971 -0.30606508 0
-0.8554225 -0.27923393 -0.31611776 0
-0.7551322 -0.30378246 -0.32411289 0
-0.96344805 -0.16596603 -0.31165838 0
-0.85525322 -0.20329189 -0.32113981 0
-0.97987509 -0.10104752 -0.31214857 0
-0.45876932 -0.45160484 -0.35008764 0
-0.29899025 -0.47186279 -0.36718512 0
-0.22064829 -0.45919418 -0.36676741 0
-0.074473858 -0.48165989 -0.37561464 0
0.12164211 -0.47337055 -0.39682007 0
0.21461391 -0.4424963 -0.39288712 0
0.30164528 -0.47514343 -0.39670897 0
-0.63203764 -0.31635666 -0.33502579 0
-0.61137533 -0.37098122 -0.33683157 0
-0.50962305 -0.37338448 -0.34251356 0
-0.35956526 -0.38574314 -0.35803175 0
-0.29818487 -0.37229347 -0.35428476 0
-0.11881781 -0.38437271 -0.37089205 0
0.029464722 -0.37432194 -0.38139391 0
0.20942354 -0.37247276 -0.39706135 0
0.30335712 -0.37864017 -0.39104509 0
-0.76332951 -0.25570869 -0.3255868 0
-0.67131662 -0.27192211 -0.32836199 0
-0.53131914 -0.21998215 -0.34692621 0
-0.51379681 -0.28145409 -0.34719515 0
-0.40596294 -0.27106285 -0.35440636 0
-0.28577375 -0.27728176 -0.36419487 0
-0.15222454 -0.28992462 -0.37029886 0
-0.054821491 -0.28881359 -0.36749077 0
0.14302111 -0.30276299 -0.38642597 0
0.26480913 -0.29492474 -0.3892498 0
-0.89690828 -0.13783073 -0.3157239 0
-0.78934622 -0.17926788 -0.32495403 0
-0.67057896 -0.18937206 -0.33476353 0
-0.5652523 -0.14929581 -0.34435415 0
-0.45827675 -0.16043663 -0.34957361 0
-0.33823729 -0.1869688 -0.3581295 0
-0.22615767 -0.14196014 -0.36489534 0
-0.18544054 -0.20145702 -0.36957073 0
-0.064977646 -0.18439007 -0.37391281 0
0.066341877 -0.16247559 -0.37981224 0
0.092358112 -0.22896194 -0.38001776 0
-0.97443342 -0.033309937 -0.31397247 0
-0.86286068 -0.03751564 -0.3244338 0
-0.78937054 -0.073816299 -0.33255768 0
-0.69085836 -0.059195518 -0.3402667 0
-0.60999727 -0.079506874 -0.33949423 0
-0.48308992 -0.048361778 -0.35289812 0
-0.3426075 -0.094321251 -0.3639946 0
-0.24006891 -0.049981117 -0.36924505 0
-0.10335588 -0.095689774 -0.37256718 0
0.029637337 -0.065538406 -0.37990141 0
-0.96257019 0.058508873 -0.3225255 0
-0.87764168 0.048045158 -0.32558107 0
-0.74115276 0.059025764 -0.33817339 0
-0.62923813 0.054291725 -0.34635305 0
-0.56426144 0.033531189 -0.35046387 0
-0.47841835 0.026650429 -0.35154819 0
-0.38966656 -0.013245583 -0.35978365 0
-0.30115032 0.025060654 -0.36136723 0
-0.14517498 0.027163506 -0.37325478 0
-0.071946621 -0.018702507 -0.3867321 0
-0.97728109 0.14280415 -0.32700777 0
-0.8388586 0.13344193 -0.33808374 0
-0.78318119 0.15075207 -0.33632803 0
-0.68243885 0.15203476 -0.34228563 0
-0.58557606 0.17644215 -0.34774685 0
-0.46117926 0.12736797 -0.36105394 0
-0.34353495 0.14585686 -0.36130857 0
-0.29897833 0.096873283 -0.36771965 0
-0.18673897 0.12460518 -0.37218809 0
-0.98275614 0.25001049 -0.3288579 0
-0.85180092 0.23870373 -0.3406291 0
-0.79955912 0.22189236 -0.33880568 0
-0.69528913 0.25683689 -0.34877205 0
-0.60319662 0.23683643 -0.34877205 0
-0.49696302 0.2236557 -0.35437727 0
-0.37326765 0.22774506 -0.36128283 0
-0.25239849 0.27042007 -0.36980534 0
-0.19347095 0.21776009 -0.37887526 0
-0.98260069 0.34375572 -0.33263874 0
-0.87143421 0.36561298 -0.34326744 0
-0.76237774 0.34067726 -0.34662437 0
-0.62767076 0.36076927 -0.355546 0
-0.55634165 0.32242584 -0.35899687 0
-0.46121073 0.32151031 -0.35663557 0
-0.9655714 0.4432106 -0.33690071 0
-0.85529423 0.43190193 -0.34508896 0
-0.77587366 0.44103432 -0.34731483 0
-0.69488955 0.44928646 -0.34897375 0
-0.56752872 0.42883873 -0.35832691 0
-0.48155212 0.43519688 -0.35629559 0
0.52908754 -0.46273613 -0.40296745 0
0.69982767 -0.49127674 -0.40433311 0
0.47971725 -0.37963676 -0.39859343 0
0.65277672 -0.40968895 -0.40065241 0
0.81524658 -0.39822292 -0.40115213 0
0.95030308 -0.38869858 -0.39679241 0
0.22850132 -0.24203682 -0.3853817 0
0.42201471 -0.28062725 -0.39415407 0
0.56361628 -0.2530241 -0.3946619 0
0.62411976 -0.32593441 -0.40168619 0
0.72329712 -0.26760197 -0.39295101 0
0.89467525 -0.26303768 -0.39729595 0
0.20748234 -0.15357018 -0.38782406 0
0.36351252 -0.17078114 -0.39072657 0
0.52703428 -0.18390656 -0.39291668 0
0.70067167 -0.18542004 -0.39604473 0
0.82587767 -0.18731308 -0.38954401 0
0.23549032 -0.059855461 -0.38717508 0
0.3079772 -0.10099792 -0.38414621 0
0.44607115 -0.069602966 -0.38504457 0
0.60880709 -0.11819744 -0.38162279 0
-0.025873184 0.025457382 -0.374578 0
0.071177483 0.040960312 -0.37319708 0
0.12995005 -0.026045799 -0.38107967 0
0.23147583 0.024301529 -0.37816668 0
0.36895847 0.02410984 -0.37658644 0
0.54160786 -0.0054988861 -0.37770605 0
-0.076285362 0.11713409 -0.37077284 0
0.032914162 0.13051796 -0.3723402 0
0.15227938 0.16771126 -0.37332773 0
0.20072699 0.099848747 -0.37812185 0
0.36107206 0.11134434 -0.38380337 0
0.4400754 0.13595772 -0.36952209 0
-0.12828302 0.23471069 -0.37014008 0
-0.038441181 0.24884129 -0.36743021 0
0.098058224 0.22772121 -0.36663628 0
0.25763369 0.23008442 -0.37203264 0
0.35390711 0.20669365 -0.37480021 0
-0.32311821 0.36046982 -0.36156416 0
-0.30764389 0.31182098 -0.36068201 0
-0.1883769 0.34882545 -0.36740255 0
-0.074630737 0.34072495 -0.36858511 0
0.05838871 0.31817722 -0.36708021 0
0.21286535 0.33400345 -0.37274885 0
0.35939312 0.30265522 -0.3694253 0
-0.36150742 0.44933414 -0.36197758 0
-0.24681568 0.43017578 -0.36170387 0
-0.063198566 0.44462776 -0.37245131 0
0.0089945793 0.41025257 -0.36566353 0
0.12761831 0.41095352 -0.36174726 0
0.1039257 0.48064899 -0.36403322 0
0.9995451 -0.27667522 -0.37659645 0
0.97568989 -0.19045925 -0.38101721 0
0.64663839 -0.047009468 -0.36353779 0
0.74097919 -0.11083412 -0.37827873 0
0.90398264 -0.10543442 -0.37433338 0
0.60502481 0.036949158 -0.36320448 0
0.84841585 0.0025997162 -0.37409353 0
0.9564085 0.040187836 -0.36017942 0
0.57822847 0.11178493 -0.36540222 0
0.7446847 0.11621761 -0.36375952 0
0.90000153 0.11168575 -0.35610676 0
0.49446392 0.25346375 -0.36234617 0
0.53353262 0.17688751 -0.3625226 0
0.67278385 0.23132801 -0.36099482 0
0.78000069 0.25996494 -0.34726477 0
0.8753562 0.20284367 -0.36180019 0
0.31048632 0.36002922 -0.36454058 0
0.46825743 0.31842041 -0.36384678 0
0.61687517 0.32795048 -0.35980749 0
0.71284866 0.32854176 -0.34079313 0
0.30116463 0.43340778 -0.37077093 0
0.43347549 0.42239285 -0.36802435 0
0.58341837 0.39766216 -0.36067915 0
0.66754484 0.406394 -0.3404994 0
0.6302743 0.48298836 -0.34193659 0
0.99006319 0.19211197 -0.34180069 0
0.89319849 0.35245514 -0.34113836 0
0.92550993 0.31189346 -0.32299519 0
0.80834436 0.41602039 -0.33059454 0
0.93054724 0.43558979 -0.32059622 0
0.7771554 0.49985027 -0.33495474 0
-0.92505264 -0.44588947 -0.30222368 0
-0.80117702 -0.47135925 -0.3144207 0
-0.7073884 -0.45901489 -0.32110977 0
-0.55339622 -0.42270088 -0.3394289 0
-0.49956799 -0.47697544 -0.34866238 0
-0.38522577 -0.47943401 -0.3535471 0
-0.22572231 -0.47561073 -0.36739159 0
-0.089564323 -0.48632622 -0.37546253 0
-0.9421463 -0.36684132 -0.30428839 0
-0.93329287 -0.31570339 -0.31000996 0
-0.81427622 -0.36274052 -0.31839991 0
-0.71703291 -0.36729527 -0.32465696 0
-0.55875254 -0.35653591 -0.34234381 0
-0.46749353 -0.32511616 -0.34428501 0
-0.40054226 -0.38233757 -0.35637712 0
-0.28589535 -0.33963776 -0.36319447 0
-0.23048687 -0.40239143 -0.3714633 0
-0.9673667 -0.23858833 -0.30704165 0
-0.85504866 -0.22482777 -0.31815195 0
-0.7714839 -0.26427078 -0.32433367 0
-0.60569096 -0.26391602 -0.33727837 0
-0.44835472 -0.24919415 -0.35409355 0
-0.30100393 -0.27443886 -0.36435127 0
-0.96976137 -0.13483524 -0.31366491 0
-0.8561101 -0.1401577 -0.32397079 0
-0.75876093 -0.14300537 -0.331213 0
-0.66512585 -0.13055038 -0.3336463 0
-0.57637787 -0.16071224 -0.34120464 0
-0.50875235 -0.19395256 -0.34361744 0
-0.87453651 -0.062789917 -0.32530403 0
-0.78130054 -0.05547905 -0.33256674 0
-0.67551899 -0.069300652 -0.33626747 0
-0.55762434 -0.051691055 -0.34397697 0
-0.96700239 0.077510834 -0.31548071 0
-0.87095594 0.024852753 -0.32793283 0
-0.7662344 0.0012922287 -0.34053278 0
-0.6768446 0.020415306 -0.343575 0
-0.55870008 0.033992767 -0.35118437 0
-0.93568659 0.13621998 -0.32827663 0
-0.85778904 0.14493656 -0.33171797 0
-0.81051588 0.10698414 -0.33904266 0
-0.70392418 0.12553024 -0.34638596 0
-0.94874239 0.24342728 -0.33522987 0
-0.85588646 0.23366451 -0.34028101 0
-0.74796057 0.23173809 -0.34544659 0
-0.95107841 0.36868572 -0.3378768 0
-0.89491129 0.32746887 -0.33940554 0
-0.8001647 0.3314333 -0.34218884 0
-0.92999697 0.45514011 -0.34287834 0
-0.81170607 0.41429424 -0.34712601 0
0.048096657 -0.44448757 -0.38198519 0
0.25399971 -0.47939587 -0.39619589 0
0.39970541 -0.49537277 -0.39387178 0
0.59296751 -0.49690247 -0.40582991 0
-0.15751934 -0.37672615 -0.3667798 0
0.012426853 -0.36840725 -0.37896442 0
0.20634031 -0.39608574 -0.39204693 0
0.33293962 -0.37488842 -0.3889327 0
0.52168179 -0.40899181 -0.39688253 0
-0.20545387 -0.27360439 -0.36372375 0
-0.036578178 -0.29459667 -0.37291622 0
0.11411619 -0.23745155 -0.38275766 0
0.18764019 -0.30210209 -0.39499807 0
0.30294037 -0.2586298 -0.39249372 0
0.48744631 -0.33079052 -0.39630747 0
-0.3894949 -0.14922619 -0.35265589 0
-0.28241825 -0.18157291 -0.36456823 0
-0.19272661 -0.20813465 -0.37215137 0
-0.071956635 -0.1902914 -0.37363863 0
0.098102093 -0.16754055 -0.38521242 0
0.24414968 -0.18561077 -0.38552666 0
-0.40909767 -0.052595139 -0.35598707 0
-0.25114441 -0.081008911 -0.36897469 0
-0.076234341 -0.085836411 -0.38184643 0
0.014476776 -0.06744957 -0.37482548 0
0.17556095 -0.030731201 -0.38355589 0
0.22392416 -0.11316967 -0.38737488 0
-0.3722229 0.036231995 -0.36165905 0
-0.26204395 -0.0096178055 -0.37230253 0
-0.17035151 0.041419983 -0.37088013 0
-0.070375443 0.015481949 -0.37723255 0
0.11269569 0.024663925 -0.37389135 0
-0.60418653 0.12144566 -0.34817839 0
-0.46890163 0.11896992 -0.35703278 0
-0.3718133 0.13614273 -0.35916328 0
-0.23165941 0.16207504 -0.36740446 0
-0.20974922 0.10970879 -0.36795712 0
-0.078988552 0.14209843 -0.37155485 0
0.076302052 0.10182667 -0.37248707 0
-0.64184093 0.23321915 -0.34888077 0
-0.5571456 0.26139832 -0.34810877 0
-0.48130751 0.2436018 -0.35351276 0
-0.40219831 0.23365688 -0.36030817 0
-0.25999069 0.22853279 -0.36666822 0
-0.16058874 0.21725273 -0.35997057 0
-0.70521164 0.33452606 -0.34394693 0
-0.58426094 0.34366131 -0.35003662 0
-0.46039772 0.34526157 -0.35688686 0
-0.30229616 0.32039165 -0.36509418 0
-0.176682 0.33216763 -0.36753607 0
-0.85596991 0.45922279 -0.34108543 0
-0.74336481 0.47157574 -0.34808064 0
-0.67626572 0.45138359 -0.35087919 0
-0.60897207 0.43199825 -0.35330105 0
-0.47667217 0.43104267 -0.36195183 0
-0.3539691 0.44261265 -0.36508894 0
-0.25336838 0.44499969 -0.36072493 0
0.934093 -0.4614296 -0.40401649 0
0.722013 -0.39616394 -0.40469599 0
0.84890509 -0.3666544 -0.39424372 0
0.41807556 -0.26098537 -0.38682938 0
0.62587452 -0.2664299 -0.39517355 0
0.7811923 -0.30809784 -0.38478613 0
0.96942949 -0.30663872 -0.3829608 0
0.39850616 -0.17529488 -0.39055538 0
0.57855797 -0.19145584 -0.39175987 0
0.72881079 -0.21255016 -0.38282204 0
0.32496786 -0.10752678 -0.37985373 0
0.50518513 -0.10876274 -0.38298702 0
0.63730764 -0.086022377 -0.37523413 0
0.22175694 0.039254189 -0.37017775 0
0.29247236 -0.025197983 -0.38035727 0
0.43417835 0.0015439987 -0.37775707 0
0.57590199 0.03635025 -0.3742528 0
0.021233559 0.16174221 -0.36522436 0
0.19889164 0.11208725 -0.37192106 0
0.37142277 0.11887932 -0.37556267 0
0.51819897 0.11468601 -0.36957121 0
-0.017864704 0.22790527 -0.36280298 0
0.14612865 0.22288609 -0.37060404 0
0.3239789 0.22394085 -0.37571907 0
0.46327496 0.22563171 -0.36923265 0
-0.021567822 0.33548832 -0.37300396 0
0.095735073 0.31992054 -0.36904383 0
0.22205877 0.31498528 -0.3617897 0
0.40437174 0.33521843 -0.36796999 0
-0.064775467 0.43745136 -0.37367916 0
0.046690941 0.41872692 -0.36831284 0
0.16145945 0.45274448 -0.36303806 0
0.22245741 0.4044981 -0.37170124 0
0.3346324 0.44135857 -0.36396122 0
0.84072018 -0.14031601 -0.3722086 0
0.89203882 -0.21443176 -0.37561464 0
0.80866337 -0.039359093 -0.37632036 0
0.91463614 -0.039149284 -0.36002779 0
0.99651098 -0.10892487 -0.37044811 0
0.7402339 0.043800354 -0.37020254 0
0.87745094 0.048407555 -0.36192369 0
0.67081928 0.11714935 -0.36277866 0
0.80519247 0.12954044 -0.35522366 0
0.95099974 0.13027382 -0.34114504 0
0.6056881 0.18588829 -0.35579729 0
0.78138971 0.21102142 -0.35971498 0
0.92849255 0.23014259 -0.34854889 0
0.53991699 0.33987904 -0.35864878 0
0.6579113 0.30558968 -0.35590887 0
0.89842939 0.28537083 -0.34881735 0
0.45955515 0.41141891 -0.34873533 0
0.61781836 0.43725872 -0.35012484 0
0.7422266 0.45199013 -0.33518457 0
0.82174015 0.37604237 -0.34325075 0
0.44980431 0.48593521 -0.35530233 0
0.97949457 0.30148029 -0.32089329 0
0.88810205 0.45736408 -0.32099056 0
0.96058798 0.38446426 -0.32751846 0
-0.85978746 -0.4810791 -0.31687403 0
-0.69187641 -0.47359371 -0.33734798 0
-0.57694912 -0.47472191 -0.34306335 0
-0.99535799 -0.36436272 -0.31123161 0
-0.86783981 -0.38859749 -0.32114363 0
-0.7463789 -0.38841724 -0.33012342 0
-0.90906191 -0.2728672 -0.31976986 0
-0.78476429 -0.27719593 -0.32909012 0
-0.74023151 -0.32015896 -0.33626556 0
-0.99512959 -0.15577698 -0.31701088 0
-0.91123295 -0.18573093 -0.32554674 0
-0.80096197 -0.17315388 -0.33335257 0
-0.95772171 -0.079231262 -0.32250071 0
-0.95553398 0.0052909851 -0.33006525 0
-0.9779911 0.11647892 -0.33519125 0
-0.44265318 -0.49473667 -0.35247135 0
-0.069320679 -0.46053314 -0.38800764 0
0.12615871 -0.49758911 -0.40054941 0
0.26533842 -0.49714375 -0.40227938 0
-0.6054635 -0.37109852 -0.34323359 0
-0.47727728 -0.34933472 -0.35433722 0
-0.43508911 -0.41735458 -0.35961437 0
-0.29212666 -0.40179348 -0.36856556 0
-0.16509581 -0.38459301 -0.3707242 0
0.06888628 -0.42246532 -0.39265394 0
-0.67459345 -0.28823853 -0.33237171 0
-0.53656435 -0.28924942 -0.34453106 0
-0.30989933 -0.29931068 -0.37223053 0
-0.18575954 -0.28376198 -0.37438202 0
-0.058604717 -0.27122784 -0.37465572 0
-0.00072288513 -0.34370327 -0.38220596 0
-0.67195034 -0.15416813 -0.34388065 0
-0.61808014 -0.18706417 -0.34345627 0
-0.54397535 -0.22108841 -0.3477087 0
-0.4024291 -0.17110443 -0.36013222 0
-0.33037567 -0.2261219 -0.37294006 0
-0.22911692 -0.17892265 -0.37320805 0
-0.070807934 -0.18637085 -0.37938833 0
-0.85481024 -0.036446571 -0.33124781 0
-0.83810139 -0.090865135 -0.33091736 0
-0.70932627 -0.072147369 -0.34202862 0
-0.57934618 -0.088601112 -0.35055447 0
-0.45820093 -0.038152695 -0.35836458 0
-0.41204405 -0.095678329 -0.36400557 0
-0.2463603 -0.045280457 -0.38059282 0
-0.22892523 -0.10765553 -0.37946653 0
-0.096244335 -0.084490776 -0.3827033 0
-0.87307692 0.01360321 -0.33094263 0
-0.71342945 0.021158218 -0.34907961 0
-0.60283899 0.0020999908 -0.35301161 0
-0.47330093 0.018299103 -0.35994673 0
-0.29286718 0.017003059 -0.37533188 0
-0.16451168 0.023674965 -0.3762517 0
-0.8719058 0.11080265 -0.34014225 0
-0.76192141 0.10655594 -0.34518814 0
-0.63979864 0.082386017 -0.35155296 0
-0.62328768 0.16207218 -0.36204576 0
-0.49351072 0.11818027 -0.36385345 0
-0.37347078 0.11533451 -0.36482096 0
-0.17662287 0.091065407 -0.37959242 0
-0.89887857 0.21789169 -0.34383202 0
-0.78896332 0.22468185 -0.34937048 0
-0.68897915 0.23665428 -0.35363722 0
-0.55216837 0.21532726 -0.35810232 0
-0.42951488 0.21725655 -0.36046791 0
-0.97606564 0.34370136 -0.33688498 0
-0.91825819 0.30012512 -0.34647465 0
-0.79333019 0.34811783 -0.35287094 0
-0.6860342 0.32914066 -0.3629384 0
-0.55469465 0.30826378 -0.36632919 0
-0.44350815 0.31084442 -0.365695 0
-0.96644068 0.43341446 -0.34728622 0
-0.86212826 0.46359921 -0.35409784 0
-0.79059649 0.42781258 -0.35761833 0
-0.61201429 0.42074776 -0.36435461 0
-0.4844842 0.42757034 -0.36790514 0
0.62990952 -0.4766016 -0.41060114 0
0.20429516 -0.43864822 -0.39310837 0
0.38791084 -0.40846348 -0.40075779 0
0.53874874 -0.38215351 -0.39832354 0
0.77945328 -0.40657997 -0.40849638 0
0.11882162 -0.27046108 -0.3872714 0
0.20778799 -0.33188438 -0.40315771 0
0.31944132 -0.28458405 -0.39642525 0
0.50844669 -0.29559326 -0.39985275 0
0.091064453 -0.18516922 -0.38830757 0
0.26062822 -0.21804142 -0.38905048 0
0.4653697 -0.21942997 -0.3974638 0
0.074696064 -0.11632919 -0.39094067 0
0.28168964 -0.11776161 -0.40354729 0
0.41841841 -0.14041519 -0.39435577 0
0.02244854 0.0040540695 -0.3896246 0
0.15816212 0.029321671 -0.38842392 0
0.20112085 -0.046245575 -0.39138079 0
0.33727551 0.026521683 -0.39230728 0
0.39094639 -0.047549248 -0.39715815 0
-0.075332642 0.10325909 -0.37557697 0
0.12399435 0.10134888 -0.38728571 0
0.2893672 0.092432976 -0.38792753 0
-0.27510452 0.2049551 -0.36704445 0
-0.18026161 0.19967556 -0.37484884 0
-0.085732937 0.17904377 -0.38060379 0
0.02044487 0.20359516 -0.3731904 0
0.16189432 0.24169827 -0.37348318 0
0.23527718 0.18371868 -0.3846097 0
-0.27575445 0.33138943 -0.36952829 0
-0.14603233 0.30060005 -0.37872219 0
-0.021912098 0.3094101 -0.37425661 0
0.14545918 0.31472397 -0.37745428 0
-0.37003565 0.40674114 -0.36387396 0
-0.19666433 0.43538284 -0.38004017 0
-0.076276779 0.40221691 -0.37139416 0
0.082079411 0.45242405 -0.37765169 0
0.092493057 0.39490318 -0.3738389 0
0.94533968 -0.40314102 -0.40594482 0
0.71994591 -0.31392193 -0.40431023 0
0.87503862 -0.31159687 -0.39973545 0
0.68992949 -0.2299366 -0.40613747 0
0.79546881 -0.22088051 -0.3914113 0
0.99297571 -0.23631096 -0.38703489 0
0.63405037 -0.10506248 -0.38680172 0
0.75776052 -0.13580704 -0.39211941 0
0.92601395 -0.14407539 -0.38250923 0
0.45907021 0.020055771 -0.37903023 0
0.53775692 -0.051786423 -0.38957214 0
0.61865568 0.039972305 -0.3797102 0
0.79003286 0.019771576 -0.37050772 0
0.88110685 -0.052853584 -0.38286114 0
0.45036793 0.10027599 -0.38564157 0
0.55156469 0.12297726 -0.37358379 0
0.70093203 0.10806847 -0.3606801 0
0.35394573 0.21537399 -0.37591171 0
0.50787878 0.18767071 -0.37081957 0
0.6978426 0.19841862 -0.37058449 0
0.32649279 0.34095955 -0.38320827 0
0.45365667 0.3087225 -0.37205505 0
0.59047222 0.2625227 -0.35358 0
0.26718903 0.40344429 -0.37648916 0
0.36974049 0.40591145 -0.36388302 0
0.51549721 0.43466568 -0.35705328 0
0.61046886 0.35585499 -0.36923075 0
0.21166277 0.47224331 -0.3713007 0
0.33674908 0.49588871 -0.36663485 0
0.98041058 0.027593613 -0.36591053 0
0.93375826 0.11209869 -0.36564541 0
0.88621187 0.21095753 -0.36697626 0
0.78666496 0.27677441 -0.35258007 0
0.94035006 0.28829861 -0.33944225 0
0.67681551 0.44398117 -0.34884071 0
0.72345304 0.36297512 -0.34917498 0
0.84829521 0.40285206 -0.33358526 0
0.96816111 0.39736938 -0.31411552 0
0.97901154 0.49129009 -0.32905102 0
-0.93182325 -0.46796131 -0.29499102 0
-0.78580761 -0.46438122 -0.3096571 0
-0.94110537 -0.3774929 -0.29945993 0
-0.93340731 -0.28220558 -0.30803776 0
-0.97578478 -0.16364574 -0.30625772 0
-0.63468456 -0.47135735 -0.32439089 0
-0.44461107 -0.46908283 -0.34402466 0
-0.28082323 -0.46518993 -0.35464287 0
-0.086299896 -0.4866333 -0.3685627 0
0.14835691 -0.49540329 -0.39360285 0
-0.81685781 -0.36977196 -0.30865431 0
-0.670578 -0.41417503 -0.31969833 0
-0.66632462 -0.33026028 -0.32616711 0
-0.4903245 -0.36353874 -0.34033966 0
-0.28576565 -0.37999821 -0.36001825 0
-0.13439369 -0.40808582 -0.36254311 0
0.081922531 -0.41793919 -0.38357162 0
-0.84119844 -0.27765942 -0.3094759 0
-0.69476175 -0.26861763 -0.32367229 0
-0.52202702 -0.29321289 -0.33766317 0
-0.34196329 -0.27694225 -0.35436583 0
-0.16975784 -0.25663948 -0.3662281 0
-0.12208652 -0.32549763 -0.37180138 0
-0.82726622 -0.1776886 -0.32002068 0
-0.72896528 -0.17835045 -0.3226943 0
-0.59207821 -0.16692638 -0.33037138 0
-0.54865074 -0.21882153 -0.33655834 0
-0.38016939 -0.16227436 -0.3538456 0
-0.2088089 -0.18126583 -0.36331797 0
-0.87335014 -0.054001808 -0.31832838 0
-0.78068304 -0.033768654 -0.32219982 0
-0.74116421 -0.080433846 -0.32767868 0
-0.56978083 -0.087808609 -0.34214544 0
-0.43684626 -0.1116457 -0.34428692 0
-0.22932005 -0.073825836 -0.36752987 0
-0.91731977 0.03096962 -0.31455708 0
-0.73946857 0.043148994 -0.33808661 0
-0.60290813 0.01188755 -0.34277248 0
-0.49183941 0.034983635 -0.34408808 0
-0.43151712 -0.028499603 -0.35267544 0
-0.31018496 0.019294739 -0.35645485 0
-0.91475296 0.12300968 -0.32351494 0
-0.78974867 0.13402176 -0.33394051 0
-0.64679623 0.13518906 -0.34287357 0
-0.51084948 0.12618351 -0.3471818 0
-0.36659479 0.16440773 -0.35515499 0
-0.31132698 0.10419369 -0.36317492 0
-0.91426945 0.24905872 -0.32816124 0
-0.84558725 0.21561241 -0.32798862 0
-0.6997385 0.22100067 -0.33774042 0
-0.51237726 0.23228645 -0.35531139 0
-0.40525436 0.23084831 -0.35164118 0
-0.86218882 0.33694172 -0.3344698 0
-0.75121021 0.34308243 -0.33665133 0
-0.69264078 0.29113483 -0.34575462 0
-0.59790945 0.3258543 -0.34385538 0
-0.8951354 0.42164326 -0.33419991 0
-0.76665354 0.4371357 -0.3414731 0
-0.64627647 0.47503281 -0.34696817 0
-0.57259941 0.42634201 -0.35931492 0
0.27732658 -0.4526186 -0.38925743 0
0.51059008 -0.46502876 -0.40213156 0
0.76174164 -0.49586773 -0.41382742 0
0.25502205 -0.3703413 -0.39111614 0
0.41562176 -0.37234592 -0.38819122 0
0.65302515 -0.41397762 -0.39621592 0
-0.001326561 -0.29448414 -0.37330866 0
0.19202089 -0.27465439 -0.38448143 0
0.40445662 -0.30156136 -0.39210081 0
0.56735992 -0.3245573 -0.38475323 0
-0.090544224 -0.18672371 -0.36144686 0
0.1204319 -0.20030689 -0.37372732 0
0.37397909 -0.20052719 -0.39431477 0
0.55115414 -0.2305975 -0.39011574 0
-0.061403751 -0.099571228 -0.37587738 0
0.11110449 -0.11709213 -0.37910271 0
0.22859049 -0.052716255 -0.37407494 0
0.26261282 -0.13847542 -0.37410688 0
-0.1081624 0.0067195892 -0.37411308 0
-0.010995388 0.030955315 -0.36345673 0
0.092704296 -0.029407501 -0.38258266 0
0.17811012 0.023145676 -0.3692522 0
-0.21277189 0.10212421 -0.3578229 0
-0.032434464 0.10611916 -0.3650012 0
0.11132717 0.097053528 -0.36049795 0
-0.27981281 0.2462225 -0.3548584 0
-0.19158983 0.21216488 -0.35530758 0
-0.087258339 0.1774683 -0.35878468 0
0.05018425 0.25485897 -0.36125231 0
0.11259222 0.1867609 -0.36916494 0
-0.46732378 0.3593111 -0.34847069 0
-0.42181683 0.30083752 -0.35369205 0
-0.30674124 0.31590366 -0.3547039 0
-0.13275814 0.32384014 -0.36222124 0
0.014418602 0.32629585 -0.36004496 0
-0.47828627 0.42802429 -0.35259771 0
-0.3510704 0.41830635 -0.35377741 0
-0.17376757 0.43232346 -0.36308336 0
-0.043747425 0.39045906 -0.35298204 0
-0.014908791 0.47491264 -0.36816931 0
0.79484272 -0.41684628 -0.38721132 0
0.77513218 -0.32012558 -0.39244127 0
0.96697569 -0.32968712 -0.38621044 0
0.69684267 -0.21966743 -0.38452625 0
0.93138838 -0.22306156 -0.38961887 0
0.41201544 -0.068804741 -0.37342072 0
0.48276043 -0.1404171 -0.3829484 0
0.64031506 -0.13301277 -0.38030243 0
0.83235598 -0.13466263 -0.37638474 0
0.35075426 0.018533707 -0.36781406 0
0.57469845 -0.043597221 -0.37430143 0
0.69096184 0.036141396 -0.36252642 0
0.77860355 -0.041301727 -0.37417793 0
0.32141209 0.10096169 -0.36923742 0
0.44716454 0.11638737 -0.36138916 0
0.51690531 0.052097321 -0.37081289 0
0.65788746 0.13820934 -0.36616039 0
0.30126667 0.18940258 -0.37337971 0
0.41089201 0.20246124 -0.36199284 0
0.56741142 0.2035532 -0.35245466 0
0.19135189 0.30549717 -0.35952616 0
0.38335419 0.28288269 -0.36407137 0
0.54470825 0.285079 -0.35614681 0
0.15731668 0.40731525 -0.36211061 0
0.26002026 0.43074131 -0.35127497 0
0.36386728 0.37705898 -0.36951971 0
0.38424921 0.43252468 -0.33561754 0
0.50499487 0.38068771 -0.35754967 0
0.11336613 0.48713779 -0.3601613 0
0.97916269 -0.15972805 -0.35628557 0
0.91528702 -0.0092592239 -0.35884237 0
0.82803202 0.12700939 -0.35442066 0
0.98834324 0.11153889 -0.33731985 0
0.74937248 0.20487976 -0.34553814 0
0.94084263 0.21083927 -0.33837032 0
0.73547316 0.29817581 -0.35302162 0
0.9043088 0.2978344 -0.34069061 0
0.66374159 0.37218571 -0.34535122 0
0.79655981 0.38184738 -0.32662725 0
0.73403215 0.46669579 -0.32298422 0
0.98473167 0.32658482 -0.31528521 0
0.92036581 0.41198349 -0.31130743 0
0.85445929 0.48360348 -0.30552578 0
-0.96353054 -0.4349184 -0.30661488 0
-0.96457052 -0.3792944 -0.31077671 0
-0.82157278 -0.44935894 -0.32009029 0
-0.64994478 -0.45472622 -0.33522463 0
-0.44300508 -0.47364521 -0.35555077 0
-0.30264759 -0.47988987 -0.35779858 0
-0.082039356 -0.47498417 -0.38083124 0
-0.84777641 -0.35516071 -0.32031918 0
-0.6965723 -0.34021378 -0.33163071 0
-0.52826405 -0.37342167 -0.34208202 0
-0.237041 -0.35459709 -0.36794662 0
-0.10642862 -0.39086246 -0.38088131 0
-0.87171459 -0.25537395 -0.32160521 0
-0.75793028 -0.21450138 -0.3264904 0
-0.69051933 -0.27261925 -0.33791018 0
-0.54215384 -0.264081 -0.34638453 0
-0.41248131 -0.25001144 -0.34893179 0
-0.31789684 -0.30923557 -0.36701536 0
-0.1511755 -0.2276001 -0.38347054 0
-0.92264366 -0.16586399 -0.31596851 0
-0.72039461 -0.13560295 -0.34153986 0
-0.56854868 -0.16036415 -0.34799147 0
-0.43364429 -0.17679596 -0.34938049 0
-0.89265156 -0.053265572 -0.33134174 0
-0.77834129 -0.081348419 -0.33219385 0
-0.60883141 -0.011955261 -0.35071135 0
-0.58631802 -0.081187248 -0.35026789 0
-0.43976212 -0.06316185 -0.35706949 0
-0.94848871 0.033398628 -0.32527447 0
-0.78985977 0.058771133 -0.34041262 0
-0.78250504 -0.0041294098 -0.33722639 0
-0.59994078 0.057967186 -0.35866356 0
-0.49942493 0.039171219 -0.3518281 0
-0.92435217 0.13061523 -0.33951092 0
-0.81668043 0.15102577 -0.34214687 0
-0.67612314 0.15004063 -0.34835339 0
-0.50549603 0.12087727 -0.3569355 0
-0.8299222 0.25120068 -0.34745216 0
-0.71221399 0.25522232 -0.34891748 0
-0.54256487 0.2239933 -0.35642433 0
-0.86743069 0.34128284 -0.34622622 0
-0.73413467 0.3514328 -0.35205412 0
-0.61426163 0.38900566 -0.35456085 0
-0.5719099 0.3358326 -0.35948992 0
-0.8908329 0.43633747 -0.3488903 0
-0.74793434 0.45069504 -0.35750246 0
-0.61123133 0.45209122 -0.36119127 0
0.10430241 -0.42486572 -0.39182806 0
0.30390549 -0.45703602 -0.39572811 0
0.53437757 -0.48985291 -0.40262175 0
0.02926302 -0.34201145 -0.38033724 0
0.2764039 -0.3698082 -0.39679527 0
0.46728992 -0.39427757 -0.39541674 0
0.0018882751 -0.2560997 -0.38074493 0
0.23988485 -0.27013969 -0.39687872 0
0.44767427 -0.29695797 -0.39973831 0
-0.18888807 -0.14289284 -0.38157654 0
-0.022886753 -0.17918205 -0.38152838 0
0.16936302 -0.19615841 -0.38648415 0
0.31381464 -0.12245464 -0.38448381 0
0.40197039 -0.20573139 -0.39746046 0
-0.25084162 -0.089195251 -0.37147999 0
-0.033632755 -0.099468231 -0.38587618 0
0.10621119 -0.023011208 -0.38688755 0
0.1447835 -0.11316109 -0.38811874 0
-0.30811024 0.064866066 -0.37069416 0
-0.26820278 -0.0021324158 -0.3745203 0
-0.10888815 0.067501068 -0.38216639 0
-0.068229198 -0.015413284 -0.38498354 0
0.039870739 0.065764427 -0.37901402 0
-0.31242228 0.14587784 -0.37624836 0
-0.16803122 0.13721657 -0.37455368 0
-0.011440277 0.13993359 -0.37347221 0
-0.40986776 0.24054432 -0.3611083 0
-0.2284441 0.24562931 -0.36994886 0
-0.11288643 0.27353382 -0.36231327 0
-0.015521526 0.22036076 -0.38000441 0
-0.46103764 0.34643459 -0.35828924 0
-0.30331326 0.3459549 -0.36115932 0
-0.12613392 0.35940552 -0.36735821 0
-0.49908686 0.47517586 -0.36164427 0
-0.46416712 0.41364861 -0.36390448 0
-0.33435583 0.45355892 -0.36387634 0
-0.12344599 0.43778992 -0.37544346 0
0.70825434 -0.49231815 -0.40066957 0
0.66947556 -0.37368107 -0.40291071 0
0.86771393 -0.41281414 -0.3945303 0
0.61646223 -0.28659821 -0.39887953 0
0.84419441 -0.30926514 -0.3995676 0
0.54561424 -0.20370388 -0.39038563 0
0.80136442 -0.19979382 -0.40084267 0
0.28429413 -0.033864021 -0.38583755 0
0.4780221 -0.10920334 -0.38375568 0
0.59952497 -0.030533791 -0.37161303 0
0.68069983 -0.1182251 -0.38130569 0
0.25741196 0.060951233 -0.38834429 0
0.37500715 0.020561218 -0.37241983 0
0.58273411 0.057040215 -0.37682009 0
0.1754446 0.13226128 -0.37581778 0
0.34596729 0.15550613 -0.37896061 0
0.54393959 0.16075134 -0.37851572 0
0.062572956 0.28028679 -0.36357355 0
0.13287783 0.21353245 -0.37348032 0
0.28347254 0.2299099 -0.37179899 0
0.47612953 0.23970127 -0.37098789 0
0.061826229 0.36294651 -0.3714509 0
0.25565863 0.32053185 -0.37433195 0
0.4398675 0.32174492 -0.37111902 0
0.037774563 0.44913387 -0.37432384 0
0.17233372 0.43783188 -0.36680889 0
0.407269 0.41347504 -0.37316322 0
0.32934093 0.495224 -0.36379814 0
0.94091654 -0.21503544 -0.37901545 0
0.82155037 -0.032128334 -0.3712821 0
0.90756273 -0.1145153 -0.3822422 0
0.79124784 0.056256294 -0.37401724 0
0.93931341 0.05364418 -0.35423756 0
0.69531965 0.14036179 -0.3612709 0
0.89187813 0.15334415 -0.35466671 0
0.64359951 0.24217319 -0.36032248 0
0.83118153 0.24178696 -0.3508358 0
0.59855938 0.33822346 -0.36042833 0
0.79458046 0.34564495 -0.35468674 0
0.54252958 0.41662693 -0.35629559 0
0.69979477 0.41423035 -0.34108829 0
0.47210026 0.49192524 -0.34837866 0
0.93088055 0.37516689 -0.34054756 0
0.82130909 0.44058323 -0.32371092 0
-0.92028475 -0.47634125 -0.29939556 0
-0.87837601 -0.39583588 -0.31507206 0
-0.68719196 -0.43021393 -0.33180046 0
-0.49426556 -0.4584446 -0.34624863 0
-0.28974295 -0.46913815 -0.36498499 0
-0.92376757 -0.33616447 -0.30883455 0
-0.74779129 -0.32170868 -0.32455301 0
-0.53625965 -0.34333324 -0.34384203 0
-0.34078455 -0.35018253 -0.36117792 0
-0.95620012 -0.27292442 -0.30538845 0
-0.76196861 -0.21327019 -0.32912731 0
-0.58196735 -0.22660542 -0.3408637 0
-0.39285326 -0.22524548 -0.35762787 0
-0.94322634 -0.15876293 -0.31638718 0
-0.78172636 -0.13778973 -0.32995892 0
-0.57622099 -0.1488142 -0.34823847 0
-0.41419363 -0.14598179 -0.35824537 0
-0.99679232 -0.028774261 -0.31315327 0
-0.82035017 -0.010011673 -0.330194 0
-0.77997494 -0.062257767 -0.33589172 0
-0.63164663 -0.045897484 -0.34323788 0
-0.47213888 -0.080756187 -0.34971666 0
-0.85513449 0.065180779 -0.32774353 0
-0.68537092 0.067178726 -0.33964348 0
-0.89051104 0.20362949 -0.33128786 0
-0.87671089 0.12956142 -0.32824707 0
-0.70051575 0.16494656 -0.34398746 0
-0.88299704 0.27342319 -0.33856487 0
-0.70538568 0.28622818 -0.3526063 0
-0.91385317 0.34037304 -0.33667088 0
-0.75195312 0.34056473 -0.34611225 0
-0.94182777 0.43522263 -0.33781719 0
-0.80137157 0.47815704 -0.34597301 0
-0.76350832 0.42062759 -0.35002041 0
-0.092208862 -0.42185783 -0.37816477 0
0.14663553 -0.43864155 -0.39399099 0
0.35722542 -0.48756409 -0.39509058 0
-0.13804388 -0.34251118 -0.37306595 0
0.10200214 -0.35129642 -0.38992262 0
0.2968955 -0.38300991 -0.38963747 0
-0.18901634 -0.2496891 -0.36830616 0
0.0090522766 -0.27821827 -0.37337494 0
0.31195784 -0.28706264 -0.40128422 0
-0.21647739 -0.16821766 -0.36828327 0
-0.0186553 -0.19056988 -0.37407207 0
0.25518608 -0.20232201 -0.39505672 0
-0.29463148 -0.012371063 -0.36213207 0
-0.25991726 -0.091916084 -0.36411047 0
-0.043269157 -0.050209045 -0.37996387 0
0.17292881 -0.065998077 -0.38721132 0
-0.48971224 0.00043106079 -0.35217142 0
-0.45866346 0.086794853 -0.36658144 0
-0.34070253 0.066197395 -0.35764027 0
-0.11181545 0.072249413 -0.37364578 0
0.074405193 0.062456131 -0.37486839 0
-0.5256629 0.15002537 -0.35559559 0
-0.3231883 0.15633774 -0.36884165 0
-0.16098213 0.14727974 -0.36848497 0
0.03912735 0.15312195 -0.37428141 0
-0.55484533 0.22184181 -0.35410547 0
-0.38893652 0.22208214 -0.35851669 0
-0.16560078 0.23157024 -0.37461901 0
-0.60584593 0.36133575 -0.3541131 0
-0.53976011 0.3139658 -0.365448 0
-0.41323328 0.34767246 -0.36309862 0
-0.23696899 0.35166168 -0.36789036 0
-0.58871365 0.43920135 -0.36499882 0
-0.47339249 0.45255184 -0.35835075 0
-0.30365944 0.46102142 -0.3617878 0
0.57431698 -0.48709202 -0.40352345 0
0.50955582 -0.384655 -0.39718294 0
0.65538263 -0.32154274 -0.38600254 0
0.80037165 -0.40185261 -0.41233206 0
0.50954676 -0.27528763 -0.40687275 0
0.42971468 -0.18564129 -0.39612007 0
0.64761305 -0.21255398 -0.39442635 0
0.30401039 -0.017098427 -0.38171291 0
0.35105562 -0.09643364 -0.38560152 0
0.56164265 -0.10535431 -0.38449717 0
0.23900986 0.071034431 -0.37440348 0
0.47168112 0.026669502 -0.37606049 0
0.22982025 0.17858791 -0.38192415 0
0.41981459 0.17308998 -0.37791586 0
-0.0073313713 0.22836304 -0.37007999 0
0.10807323 0.24679661 -0.35960054 0
0.37096453 0.25098038 -0.37395048 0
-0.10080242 0.39313602 -0.36306715 0
-0.016433716 0.32380676 -0.37652779 0
0.1173048 0.34853745 -0.37120533 0
0.31394958 0.34109879 -0.36936903 0
-0.068613529 0.4829464 -0.37879276 0
0.074419975 0.40374565 -0.36631536 0
0.27581263 0.4275074 -0.36881065 0
0.93362379 -0.44805241 -0.38355207 0
0.92017317 -0.33251762 -0.39188337 0
0.76298714 -0.13492012 -0.37514687 0
0.86919832 -0.22177505 -0.39120626 0
0.96430635 -0.13227654 -0.366117 0
0.70528603 -0.032867432 -0.3721652 0
0.65044546 0.076485634 -0.37057638 0
0.88647461 0.0656147 -0.36883593 0
0.95608187 -0.017137527 -0.37627602 0
0.55949974 0.16353035 -0.35816336 0
0.80081272 0.16391563 -0.35965204 0
0.56242609 0.26325035 -0.36879683 0
0.72335243 0.26396275 -0.35226727 0
0.510952 0.35371494 -0.36590195 0
0.68766403 0.36323261 -0.35470533 0
0.49270916 0.45250702 -0.3717618 0
0.61688709 0.43851185 -0.34654856 0
0.98070478 0.083166122 -0.3405838 0
0.992414 0.19829559 -0.3559165 0
0.81842613 0.37798119 -0.3362236 0
0.89091921 0.28730106 -0.34246492 0
0.7404952 0.46592808 -0.32837534 0
0.91849756 0.47953987 -0.31227589 0
0.9920392 0.38596821 -0.31848145 0
-0.93437767 -0.44289017 -0.30892658 0
-0.72313166 -0.46912479 -0.32996798 0
-0.50158644 -0.48104191 -0.35409307 0
-0.90506506 -0.36915493 -0.32137489 0
-0.75987101 -0.36399746 -0.32799864 0
-0.61230755 -0.32733154 -0.33735657 0
-0.57168627 -0.4090395 -0.34190321 0
-0.98464298 -0.26958752 -0.30898762 0
-0.77296782 -0.24996853 -0.33263493 0
-0.63453007 -0.25458622 -0.33688307 0
-0.95239687 -0.15182304 -0.32445526 0
-0.80975771 -0.17810345 -0.32877111 0
-0.63039923 -0.16611195 -0.34432888 0
-0.98865175 -0.083792686 -0.3204031 0
-0.83020115 -0.067685127 -0.33158398 0
-0.63637733 -0.095276833 -0.34814787 0
-0.84468746 0.050341606 -0.33670378 0
-0.6536746 0.026522636 -0.35320711 0
-0.88583326 0.11648273 -0.33239651 0
-0.89839697 0.25950623 -0.34049225 0
-0.87563133 0.18513393 -0.3403492 0
-0.91145992 0.33002567 -0.34271955 0
-0.9799571 0.46366596 -0.33682728 0
-0.93439579 0.40130901 -0.34275675 0
-0.32772255 -0.48877144 -0.35977936 0
-0.099039078 -0.46355915 -0.37688971 0
-0.33858585 -0.35099316 -0.36639977 0
-0.10588408 -0.36944199 -0.38168192 0
0.12596703 -0.3994751 -0.39233828 0
-0.35994864 -0.26126671 -0.36736441 0
-0.16677809 -0.28491116 -0.37350559 0
0.087626934 -0.30322647 -0.39018393 0
-0.40041971 -0.18377686 -0.36300278 0
-0.21980238 -0.17369366 -0.36929703 0
0.048461914 -0.20920753 -0.38810635 0
-0.46086121 -0.072665215 -0.35688782 0
-0.25115156 -0.040906906 -0.37186766 0
-0.00031375885 -0.082223892 -0.38656998 0
-0.46225643 0.052941322 -0.36626768 0
-0.30372047 0.045625687 -0.36598635 0
-0.079444408 0.037714005 -0.3770113 0
-0.73218155 0.12874126 -0.34243965 0
-0.51813793 0.12599754 -0.35832691 0
-0.31731415 0.13010502 -0.36902905 0
-0.12689114 0.13300705 -0.37334108 0
-0.75492191 0.23988342 -0.34546185 0
-0.57309675 0.20494366 -0.35089636 0
-0.33731747 0.21414375 -0.37060118 0
-0.13168716 0.21848202 -0.37915373 0
-0.75332117 0.34935951 -0.35423613 0
-0.58421373 0.36219215 -0.36097574 0
-0.56268454 0.27961254 -0.35928106 0
-0.41467476 0.32562065 -0.36087704 0
-0.19994497 0.28324604 -0.36825562 0
-0.78636742 0.43080139 -0.35280895 0
-0.61079454 0.42852402 -0.36022377 0
-0.44381714 0.44936943 -0.36429358 0
0.31041908 -0.40932369 -0.39377165 0
0.50970507 -0.34491158 -0.39545107 0
0.54863501 -0.44025326 -0.39658356 0
0.290977 -0.30561638 -0.39747953 0
0.46143246 -0.24449444 -0.39258766 0
0.24743223 -0.23047924 -0.39322662 0
0.14006376 -0.037967682 -0.38325739 0
0.22333574 -0.10863972 -0.39731312 0
0.34789324 -0.042646408 -0.38306999 0
0.43832207 -0.14080524 -0.39600086 0
0.090829372 0.06221199 -0.37965631 0
0.042348862 0.14196587 -0.37465525 0
0.30103064 0.16007233 -0.38953352 0
0.35198593 0.065278053 -0.39334059 0
0.005282402 0.22493839 -0.37285328 0
0.20133543 0.23616695 -0.37266397 0
-0.25251245 0.37107372 -0.36284685 0
-0.0082621574 0.32775497 -0.37834501 0
0.1494875 0.3201437 -0.36779308 0
-0.26390076 0.45352936 -0.36697769 0
-0.086884975 0.39704895 -0.36573076 0
0.12765646 0.42292309 -0.37168741 0
0.12735558 0.49996567 -0.3783989 0
0.82302141 -0.46819878 -0.40349102 0
0.78805685 -0.35814667 -0.40516281 0
0.98344994 -0.36937618 -0.39183283 0
0.91227388 -0.26287556 -0.38563681 0
0.72472858 -0.24587059 -0.40046978 0
0.88089037 -0.16014767 -0.38827658 0
0.59025526 -0.044510841 -0.38740349 0
0.68830919 -0.12994385 -0.40255356 0
0.7468133 -0.056371689 -0.36693382 0
0.49849033 0.043521881 -0.37392664 0
0.7063818 0.036743164 -0.36667728 0
0.47690392 0.13831329 -0.3774271 0
0.6596489 0.14737892 -0.36652565 0
0.42892981 0.24921894 -0.37624931 0
0.64366341 0.23525524 -0.37111425 0
0.37431717 0.33431721 -0.37118196 0
0.54973078 0.33509159 -0.35871458 0
0.29834604 0.41582108 -0.36088896 0
0.5058856 0.41983032 -0.35685921 0
0.96500158 -0.049984932 -0.36566925 0
0.90139627 0.06301403 -0.36215448 0
0.83078718 0.16228485 -0.35574722 0
0.70259142 0.35470295 -0.34567595 0
0.8144021 0.26500988 -0.36229897 0
0.96988058 0.26701164 -0.33883333 0
0.65848827 0.46008205 -0.34640455 0
0.9004302 0.37809086 -0.33453321 0
0.81631231 0.46514606 -0.32471037 0
-0.80230331 -0.4648447 -0.31103897 0
-0.98129606 -0.37422943 -0.30007935 0
-0.8372488 -0.34443092 -0.30982876 0
-0.89636803 -0.24405003 -0.30185938 0
-0.86863804 -0.16005039 -0.3137331 0
-0.88291025 -0.071207047 -0.31594133 0
-0.91773891 0.038523674 -0.31499815 0
-0.89523172 0.15721798 -0.32911825 0
-0.93736219 0.2285862 -0.32433891 0
-0.97734594 0.38065338 -0.32520008 0
-0.92583752 0.30834484 -0.33248806 0
-0.633636 -0.41753387 -0.32010651 0
-0.36104012 -0.46450615 -0.34521818 0
-0.091141224 -0.49187374 -0.3660388 0
-0.61992788 -0.331563 -0.32840395 0
-0.36180162 -0.36131859 -0.35135984 0
-0.14431524 -0.38771915 -0.35964203 0
-0.67404652 -0.26174068 -0.31960297 0
-0.45156622 -0.28482246 -0.33454132 0
-0.14699984 -0.29743576 -0.3651123 0
-0.69113731 -0.17263317 -0.32144594 0
-0.45858002 -0.18411636 -0.33916616 0
-0.19571638 -0.20055389 -0.36011505 0
-0.7095952 -0.016320229 -0.32765865 0
-0.66354847 -0.079879761 -0.33430195 0
-0.49114609 -0.058325768 -0.33993292 0
-0.27256775 -0.035590172 -0.35315418 0
-0.20121717 -0.10733604 -0.36524773 0
-0.70823956 0.077121735 -0.33444309 0
-0.52997637 0.064388275 -0.3393178 0
-0.30212641 0.05866909 -0.35262632 0
-0.76375198 0.14186192 -0.32574463 0
-0.53967619 0.13836098 -0.34192181 0
-0.35395479 0.13591576 -0.34549665 0
-0.73458958 0.22950268 -0.33870316 0
-0.55127478 0.24062347 -0.34580469 0
-0.34864616 0.22610283 -0.35292101 0
-0.78888416 0.33820915 -0.33334255 0
-0.55485868 0.31873322 -0.35070086 0
-0.41150951 0.30810738 -0.3435936 0
-0.9814744 0.45658588 -0.32951736 0
-0.79779673 0.46286297 -0.34003592 0
-0.60819912 0.43488503 -0.34670544 0
-0.42779589 0.43782043 -0.34933233 0
0.15392542 -0.49766254 -0.38336897 0
0.14756107 -0.39211082 -0.38883686 0
0.38936138 -0.42958927 -0.39329815 0
0.010761738 -0.3001442 -0.36221409 0
0.31870747 -0.32807159 -0.38392639 0
0.023936272 -0.19600964 -0.37268448 0
0.26582289 -0.22618008 -0.37888145 0
-0.035532475 -0.11493111 -0.36433601 0
0.2752943 -0.11751366 -0.3891964 0
-0.080030441 0.031001091 -0.36406183 0
0.099208832 0.066254616 -0.36092043 0
0.20328379 -0.02072525 -0.37921953 0
-0.16045713 0.16057491 -0.35418367 0
0.096989155 0.16288948 -0.36760902 0
-0.16623068 0.24841881 -0.35927343 0
0.050123692 0.25339317 -0.36333895 0
-0.15600157 0.34887028 -0.36900473 0
0.017310619 0.34762096 -0.36278772 0
-0.25475264 0.42199326 -0.35082531 0
