# .PCD v0.7 - Point Cloud Data file format
VERSION 0.7
FIELDS x y z intensity
SIZE 4 4 4 4
TYPE F F F F
COUNT 1 1 1 1
WIDTH 628
HEIGHT 1
VIEWPOINT 0 0 0 1 0 0 0
POINTS 628
DATA ascii
0.98280239 0.47573137 -0.31311619 0
0.25513482 -0.48954546 -0.080528975 0
0.28794742 -0.45238167 -0.085656956 0
0.30821419 -0.44982678 -0.074331783 0
0.34070826 -0.44760251 -0.062338505 0
0.99500132 -0.13576576 -0.39350238 0
0.97690487 -0.038188741 -0.393819 0
0.90484929 0.091896206 -0.38451466 0
0.99164057 0.074575186 -0.379439 0
0.89082575 0.17179693 -0.36663023 0
0.95717239 0.17089313 -0.36919227 0
0.85510659 0.26848385 -0.35508439 0
0.95260024 0.24675617 -0.35563424 0
0.97618103 0.29510751 -0.34522241 0
0.77618694 0.37311068 -0.34002271 0
0.86850119 0.35370225 -0.33767185 0
0.96636677 0.36583063 -0.33924675 0
0.60634136 0.48579195 -0.33140236 0
0.6855967 0.46430469 -0.32975069 0
0.77366185 0.45484152 -0.3279492 0
0.88141012 0.45616594 -0.32494959 0
0.96928716 0.4747611 -0.32165286 0
0.16092277 -0.49436429 -0.10463914 0
0.10729551 -0.46945465 -0.12667798 0
0.18229723 -0.44407278 -0.11909642 0
0.24422026 -0.44250008 -0.11388718 0
0.2086699 -0.37600234 -0.13902296 0
0.2711606 -0.45930147 -0.092175297 0
0.81873298 -0.43051943 -0.39735544 0
0.91873455 -0.44794562 -0.39661679 0
0.82782459 -0.34274349 -0.39794341 0
0.93209529 -0.32607314 -0.38970542 0
0.8419981 -0.22746362 -0.39293253 0
0.91420579 -0.24046397 -0.39131755 0
0.82915235 -0.12718803 -0.38964775 0
0.93793869 -0.13958216 -0.38372838 0
0.77315187 -0.024741167 -0.385279 0
0.81464672 -0.039383382 -0.38910189 0
0.92600656 -0.029618068 -0.37961698 0
0.66744924 0.09793938 -0.37586564 0
0.74054623 0.073664516 -0.37216491 0
0.83694482 0.056888193 -0.37368861 0
0.94934535 0.055707499 -0.37297818 0
0.65274858 0.17396986 -0.36072466 0
0.73291755 0.18624178 -0.35546625 0
0.84071302 0.16598025 -0.3546724 0
0.92953753 0.16568182 -0.35742444 0
0.62564445 0.26268953 -0.34832358 0
0.72473001 0.27041364 -0.34535348 0
0.83341289 0.24513495 -0.34457672 0
0.90852451 0.22736491 -0.34945834 0
0.55116153 0.3496559 -0.33779553 0
0.7586894 0.29450929 -0.33778346 0
0.87831306 0.30669722 -0.33285016 0
0.94921875 0.29578501 -0.33538029 0
0.47827768 0.41723877 -0.3300131 0
0.53712201 0.40044156 -0.32951939 0
0.62811184 0.37155899 -0.32980895 0
0.71668339 0.36440009 -0.32876554 0
0.81935191 0.36069041 -0.32791662 0
0.91868448 0.37594548 -0.32319859 0
0.45775867 0.48046362 -0.31940484 0
0.53603935 0.45806533 -0.3203766 0
0.64089799 0.49163404 -0.31020546 0
0.74026442 0.4639889 -0.31219578 0
0.82421398 0.47160745 -0.31131124 0
0.9393599 0.47494474 -0.3075754 0
0.21595526 -0.47532073 -0.090620205 0
-0.024104357 -0.45772001 -0.13085884 0
0.039087296 -0.43342954 -0.12776032 0
0.13732243 -0.43105382 -0.11262386 0
0.22275424 -0.41925633 -0.10398394 0
0.081622124 -0.35932672 -0.1454533 0
0.13808894 -0.33500597 -0.14492261 0
0.1925807 -0.35363778 -0.12618846 0
0.22356105 -0.46002802 -0.079994477 0
0.30184174 -0.45296425 -0.073067434 0
0.79994988 -0.40832004 -0.41677451 0
0.92680597 -0.43028641 -0.41904092 0
0.59910989 -0.30435571 -0.39997637 0
0.70170736 -0.31200805 -0.39910799 0
0.80241871 -0.33556151 -0.41201213 0
0.90951657 -0.33131945 -0.41168463 0
0.9882009 -0.33906311 -0.41063663 0
0.60533261 -0.226877 -0.40184921 0
0.71492505 -0.23050532 -0.40875718 0
0.81559753 -0.24519515 -0.4112395 0
0.88637996 -0.25909433 -0.41260102 0
0.60486317 -0.12915121 -0.40780085 0
0.70559502 -0.12810965 -0.41275609 0
0.8077085 -0.1338395 -0.41224557 0
0.9039979 -0.14269707 -0.4030419 0
0.52342343 -0.027959127 -0.39751744 0
0.57047486 -0.043024763 -0.40574104 0
0.69002342 -0.022784412 -0.40726948 0
0.80144238 -0.032386247 -0.40614635 0
0.90746212 -0.032902662 -0.40065569 0
0.50433874 0.072571903 -0.38265491 0
0.6033392 0.076408155 -0.38614047 0
0.71928358 0.084946729 -0.39176378 0
0.80585551 0.057485081 -0.39242548 0
0.90067577 0.076999977 -0.38774115 0
0.96894169 0.069980972 -0.39013419 0
0.41917396 0.18644747 -0.37360436 0
0.50166893 0.16036902 -0.37501985 0
0.61495399 0.18104511 -0.37677336 0
0.69547105 0.15631558 -0.38095444 0
0.82208753 0.19128227 -0.37052143 0
0.88958335 0.16130301 -0.37533987 0
0.99298882 0.14678933 -0.37799558 0
0.35422635 0.31634995 -0.36466157 0
0.41541505 0.26752493 -0.36278868 0
0.5146935 0.27479032 -0.36757782 0
0.60719872 0.26629838 -0.36721772 0
0.70485258 0.24787803 -0.36971533 0
0.31390309 0.3822982 -0.35763782 0
0.40945077 0.34360543 -0.36019996 0
0.48276448 0.32980016 -0.36025876 0
-0.046602011 -0.35546783 -0.21077108 0
-0.019564152 -0.29502553 -0.22459176 0
0.03335309 -0.25295812 -0.22365493 0
0.92222309 0.18737391 -0.36737812 0
0.97574282 0.19645058 -0.36751372 0
0.52670074 0.29194012 -0.35429919 0
0.61459041 0.30308962 -0.35916138 0
0.722049 0.29271138 -0.35759801 0
0.80436516 0.27487868 -0.36038741 0
0.92037964 0.26632476 -0.35718319 0
0.40236378 0.38789734 -0.3528755 0
0.51212835 0.3944785 -0.34956533 0
0.61016202 0.36521128 -0.35375416 0
0.70962191 0.37447828 -0.34883705 0
0.8147018 0.38168153 -0.34397143 0
0.9020772 0.35380882 -0.34464753 0
0.2351923 0.48461556 -0.34330079 0
0.3216548 0.46557504 -0.34380323 0
0.42046332 0.46028543 -0.34256434 0
0.49185133 0.46862236 -0.33833838 0
0.60391307 0.48510355 -0.33341539 0
0.70014834 0.46999279 -0.33251953 0
0.81399536 0.48035896 -0.32935733 0
0.894485 0.46911305 -0.33059758 0
0.1177206 -0.48711371 -0.11917318 0
0.18050313 -0.49321505 -0.11500622 0
-0.1759696 -0.47000614 -0.18493734 0
-0.077828407 -0.43442571 -0.173794 0
0.022236586 -0.42167836 -0.1558546 0
0.10633373 -0.43148458 -0.14078707 0
0.20325327 -0.41492942 -0.1356678 0
-0.055711985 -0.3576867 -0.19595042 0
0.021423817 -0.32410556 -0.19524647 0
0.11286807 -0.33811557 -0.1781771 0
0.040423393 -0.27111173 -0.21330667 0
0.099533319 -0.27061504 -0.20398 0
0.23552227 -0.44045466 -0.11230856 0
0.31149435 -0.44481 -0.092807882 0
0.41450214 -0.26675287 -0.41466331 0
0.93170023 -0.44651857 -0.4123643 0
0.42569709 -0.3398166 -0.40350962 0
0.53254914 -0.33363488 -0.40280765 0
0.64603019 -0.3102853 -0.3932445 0
0.71946478 -0.34338516 -0.40470868 0
0.83759928 -0.36229295 -0.41293788 0
0.91625619 -0.33098197 -0.40661421 0
0.98726988 -0.3464278 -0.40595722 0
0.44144821 -0.28071591 -0.40287566 0
0.525208 -0.25993836 -0.40211803 0
0.61804008 -0.25280765 -0.40091762 0
0.70833206 -0.26997402 -0.41028261 0
0.82108545 -0.26070389 -0.41428715 0
0.9182508 -0.26008826 -0.40758449 0
0.9988029 -0.23852894 -0.40176958 0
0.4263258 -0.15216272 -0.39553928 0
0.49609923 -0.15925853 -0.40362051 0
0.61391354 -0.16216066 -0.40524605 0
0.70972919 -0.16447482 -0.40279779 0
0.79696012 -0.15271442 -0.40678182 0
0.90715575 -0.15738204 -0.40210122 0
0.99785924 -0.14985943 -0.39806443 0
0.35204315 -0.038497172 -0.38336849 0
0.37833548 -0.091354214 -0.39055634 0
0.48993134 -0.053510591 -0.39205107 0
0.60317349 -0.057142802 -0.40006325 0
0.7187283 -0.04444984 -0.40470877 0
0.802037 -0.063905083 -0.40098768 0
0.90944314 -0.058896136 -0.39722219 0
0.33766842 0.028908581 -0.37756175 0
0.4009726 0.036548115 -0.37944981 0
0.49831152 0.050338108 -0.37877199 0
0.61920285 0.055198323 -0.3819572 0
0.70023489 0.04840637 -0.38865054 0
0.79656482 0.027798146 -0.38986287 0
0.90907383 0.056857843 -0.38315278 0
0.3181088 0.14366782 -0.36936128 0
0.39631653 0.14607131 -0.36873788 0
0.5154283 0.14216451 -0.3713336 0
0.6157608 0.15703654 -0.37578613 0
0.68279123 0.14560694 -0.37522265 0
0.79334378 0.14926445 -0.37042421 0
0.89746785 0.14945073 -0.37022862 0
0.2452054 0.28453228 -0.35863045 0
0.30920577 0.24729998 -0.36065581 0
0.40038347 0.24701698 -0.35882068 0
0.49727702 0.23397698 -0.35988921 0
0.60307527 0.25769839 -0.35895637 0
0.73676205 0.25457898 -0.35614336 0
0.80891848 0.22302224 -0.36329609 0
0.92155361 0.21311653 -0.35833594 0
0.99569941 0.2019742 -0.36469153 0
0.15043449 0.38356203 -0.34934813 0
0.20069456 0.34153536 -0.35397351 0
0.3186655 0.33894148 -0.35188591 0
0.42142677 0.34924576 -0.34939831 0
0.5278244 0.34411797 -0.34808636 0
0.60328698 0.33591151 -0.35055447 0
0.68602967 0.32412001 -0.34817982 0
0.79169464 0.31274754 -0.35045201 0
0.11821842 0.45673823 -0.33869481 0
0.21849895 0.43469861 -0.34089679 0
0.28684616 0.41084871 -0.34226471 0
-0.20141971 -0.44945729 -0.19249217 0
-0.11582708 -0.41882744 -0.19662477 0
-0.1539557 -0.38084006 -0.20943817 0
-0.089668989 -0.35918269 -0.21010417 0
0.0166502 -0.32785276 -0.20919174 0
-0.054257154 -0.29728529 -0.2267451 0
-0.0048983097 -0.28534114 -0.23054725 0
0.071406603 -0.27125838 -0.20677659 0
0.85669899 0.29551888 -0.34470057 0
0.97370791 0.25783533 -0.35218132 0
0.45749331 0.36970007 -0.33889449 0
0.58037663 0.39379233 -0.34257454 0
0.74064445 0.32387751 -0.34422773 0
0.81228733 0.36195701 -0.34036624 0
0.91480637 0.34334499 -0.33633897 0
0.99697304 0.33912063 -0.33919024 0
0.12078786 0.4878251 -0.3290242 0
0.18352056 0.47209424 -0.33419469 0
0.29812098 0.46882278 -0.33820817 0
0.41464257 0.45032787 -0.33249569 0
0.49697685 0.46084303 -0.33057028 0
0.59276509 0.44733322 -0.33115551 0
0.70961809 0.44080266 -0.32614908 0
0.80536771 0.447319 -0.32201657 0
0.89554167 0.44315377 -0.3239364 0
-0.1703434 -0.46753186 -0.17651999 0
-0.086420774 -0.45948383 -0.16699141 0
0.012871981 -0.44870409 -0.15245461 0
0.11129308 -0.43899378 -0.14122105 0
0.2032547 -0.45359594 -0.11753099 0
0.27892327 -0.43482825 -0.10789265 0
0.020977736 -0.36281189 -0.18118018 0
0.11379337 -0.35883555 -0.17253987 0
0.2711699 -0.48612368 -0.088540502 0
0.37276006 -0.30003318 -0.3820321 0
0.48951745 -0.29743269 -0.37799418 0
0.61493635 -0.30938202 -0.37025291 0
0.69830418 -0.30354244 -0.3845191 0
0.89351225 -0.32142445 -0.38419458 0
0.99426985 -0.28017405 -0.38026276 0
0.3937161 -0.21018378 -0.37872624 0
0.50101757 -0.21292791 -0.37955171 0
0.61612034 -0.23055017 -0.37524164 0
0.70517397 -0.20665127 -0.38093415 0
0.81421971 -0.22680916 -0.38694641 0
0.90834832 -0.23412168 -0.38010785 0
0.96396685 -0.20765151 -0.38040262 0
0.3043108 -0.11589421 -0.37538254 0
0.40298462 -0.12648304 -0.3752892 0
0.50855899 -0.12447979 -0.37491179 0
0.59641099 -0.11459084 -0.3794463 0
0.66627312 -0.14013202 -0.39093021 0
0.77986693 -0.1161916 -0.38428229 0
0.87974262 -0.13884605 -0.37743825 0
0.94375968 -0.07683523 -0.37117854 0
0.28499556 -0.036653385 -0.36664638 0
0.36937499 -0.036863118 -0.36586669 0
0.48402786 -0.0098953638 -0.36607015 0
0.60004139 -0.013359411 -0.37830943 0
0.72327852 -0.032985777 -0.37167403 0
0.79249787 0.0073713418 -0.37257898 0
0.88092279 -0.032153238 -0.37367278 0
0.98617291 -0.025360081 -0.37020573 0
0.2489872 0.050184038 -0.36255151 0
0.74308896 0.037026286 -0.36541933 0
0.86668515 0.050781578 -0.37046573 0
-0.15720057 -0.31265259 -0.23496871 0
-0.056880236 -0.29158351 -0.25892606 0
0.99908161 -0.095522791 -0.35917002 0
0.31419873 0.082765058 -0.34864339 0
0.380023 0.06283167 -0.35243279 0
0.50111461 0.080366351 -0.35504746 0
0.59499288 0.10160775 -0.35513747 0
0.71046233 0.10160863 -0.35863626 0
0.79626465 0.067971244 -0.36230937 0
0.86081076 0.12157685 -0.35181296 0
0.98682785 0.071974613 -0.36290845 0
0.22561264 0.16741906 -0.35030103 0
0.29531312 0.17220068 -0.34816295 0
0.38163424 0.167661 -0.34429488 0
0.48818755 0.17632075 -0.34534058 0
0.58397746 0.17796874 -0.35607475 0
0.67560005 0.1623036 -0.35282242 0
0.80957365 0.18822089 -0.34482938 0
0.91414809 0.17252754 -0.34766889 0
0.20058966 0.28518412 -0.33835241 0
0.28704572 0.26933125 -0.33858585 0
0.3764298 0.28797364 -0.33578262 0
0.46572828 0.30094567 -0.33259493 0
0.5894835 0.27703083 -0.33520079 0
0.68100405 0.26087564 -0.33905715 0
0.79699254 0.27502224 -0.33560193 0
0.90781498 0.26533988 -0.33230025 0
0.092182159 0.36874795 -0.33297122 0
0.17125845 0.3767851 -0.3295179 0
0.28527784 0.38258266 -0.32644635 0
0.38750148 0.38211665 -0.32566452 0
0.5289185 0.3883377 -0.32153487 0
0.57505488 0.37157631 -0.32671899 0
0.69023514 0.39926416 -0.31874186 0
0.7899375 0.36688158 -0.31642127 0
0.90962267 0.38178834 -0.31325877 0
0.97662401 0.40676054 -0.31195211 0
0.028654575 0.49810508 -0.31539893 0
0.09649539 0.46430987 -0.31771341 0
0.19254637 0.48474643 -0.31223452 0
0.28553414 0.46600968 -0.31598738 0
0.3840487 0.48934397 -0.3111068 0
0.47823405 0.45601645 -0.3102476 0
0.58477736 0.48003218 -0.30746299 0
0.67872906 0.47526756 -0.30799964 0
0.80745769 0.4793441 -0.30063134 0
0.91230798 0.46966603 -0.30154514 0
-0.1169765 -0.48770177 -0.12330902 0
-0.28174436 -0.46507287 -0.17806607 0
-0.20847809 -0.4137018 -0.17325783 0
-0.11451864 -0.41795111 -0.14716023 0
-0.0060698986 -0.39259568 -0.14114311 0
0.11735964 -0.37248969 -0.13077444 0
-0.18083477 -0.34633631 -0.20517871 0
-0.10225439 -0.32350656 -0.18727201 0
0.0019841194 -0.31813684 -0.1710242 0
0.095229626 -0.31872386 -0.15528187 0
-0.069059134 -0.2671409 -0.21976885 0
-0.005541563 -0.25424868 -0.19758379 0
-0.011707544 -0.441771 -0.11838955 0
0.10369802 -0.4258891 -0.10290302 0
0.20143008 -0.42363709 -0.090324089 0
0.28150177 -0.41870832 -0.074094966 0
0.1906116 -0.36034548 -0.10829993 0
0.34337068 -0.30161765 -0.3966392 0
0.4568069 -0.3117277 -0.39334431 0
0.72756433 -0.29804549 -0.41292751 0
0.87816072 -0.33830896 -0.39835489 0
0.094993353 -0.24785344 -0.38524973 0
0.21052456 -0.25968757 -0.3935042 0
0.26404333 -0.22583599 -0.38911641 0
0.3607676 -0.22780651 -0.39568409 0
0.6115849 -0.23327614 -0.39538863 0
0.73950195 -0.22656013 -0.40349552 0
0.057332277 -0.13330656 -0.3902638 0
0.12845564 -0.13523503 -0.39707989 0
0.52992964 -0.16870128 -0.39633319 0
-0.30679059 -0.39691508 -0.27291241 0
-0.23131251 -0.34731627 -0.28147325 0
-0.12139201 -0.30254674 -0.3036845 0
-0.027122021 -0.29284891 -0.32834703 0
0.023085594 -0.28379536 -0.28564179 0
0.64172554 -0.30425641 -0.38592154 0
0.79207945 -0.29976827 -0.39191589 0
0.97314978 -0.29754588 -0.39005408 0
-0.0043830872 -0.20655786 -0.37076336 0
0.014630318 -0.25253749 -0.36644018 0
0.15125108 -0.27010405 -0.34721959 0
0.4549706 -0.21803731 -0.39076769 0
0.5397141 -0.22829725 -0.38867119 0
0.63696027 -0.21889511 -0.38767257 0
0.86801767 -0.2515282 -0.39223236 0
0.9514246 -0.20948702 -0.38640976 0
-0.028584242 -0.15069681 -0.37528622 0
0.10580492 -0.16166425 -0.3780573 0
0.23152924 -0.13409632 -0.37844801 0
0.35820413 -0.13186777 -0.38325685 0
0.45245385 -0.15588228 -0.39224729 0
0.53450155 -0.12300619 -0.39592308 0
0.66109133 -0.10781817 -0.38274974 0
0.75426197 -0.12813883 -0.39579457 0
0.85712194 -0.12899059 -0.38870767 0
0.92081141 -0.14238071 -0.38701075 0
-0.026727915 -0.031361677 -0.36636209 0
0.05081749 -0.035554145 -0.38446665 0
0.15857077 -0.023982033 -0.37538928 0
0.26258183 -0.028084271 -0.3716737 0
0.35499454 -0.027588774 -0.37525636 0
0.49609351 -0.045936272 -0.38194722 0
0.57975531 -0.013695949 -0.38584015 0
0.66765928 -0.052230198 -0.39055771 0
0.75508642 -0.04953346 -0.39024246 0
0.86982846 -0.023801982 -0.3866477 0
0.97217417 -0.02349934 -0.38018435 0
-0.043000937 0.074007913 -0.36426827 0
0.068328857 0.062877283 -0.37025443 0
0.14681268 0.075269967 -0.3702777 0
0.27053022 0.081135496 -0.3637256 0
0.38567805 0.072328523 -0.36731142 0
0.49452806 0.079894222 -0.36093196 0
0.57294655 0.071818635 -0.37791282 0
0.68047285 0.070842318 -0.3747198 0
0.77409387 0.068855472 -0.37344518 0
0.8552835 0.072452642 -0.37145653 0
0.93986154 0.087803647 -0.37037694 0
-0.034857988 0.16075006 -0.36939865 0
0.066751003 0.17692868 -0.36629969 0
0.16732383 0.15440916 -0.36116609 0
0.28470826 0.16233 -0.35483849 0
0.34419394 0.16441511 -0.359045 0
0.45074272 0.1622221 -0.35652176 0
0.53119707 0.17240267 -0.36422831 0
0.66569948 0.18814778 -0.35873145 0
0.75765324 0.15764606 -0.36146271 0
0.86095476 0.19739529 -0.35128179 0
0.95634317 0.17423669 -0.35973942 0
-0.12603736 0.28184992 -0.35348663 0
-0.034613371 0.2567997 -0.35807425 0
0.06178689 0.25829116 -0.35876855 0
0.16816449 0.26509166 -0.35430923 0
0.26770186 0.25030854 -0.35350496 0
0.36850977 0.27602434 -0.34439871 0
0.45767903 0.25697219 -0.35003591 0
0.57573414 0.26984161 -0.34753439 0
0.64307284 0.25811133 -0.35300598 0
0.76518202 0.28139639 -0.34134865 0
0.86081886 0.30072361 -0.33628476 0
0.96616006 0.25861838 -0.34310037 0
-0.22501945 0.36874351 -0.34868523 0
-0.13626242 0.38032368 -0.34517875 0
-0.048471928 0.35279685 -0.34813184 0
0.055994511 0.35051689 -0.3455168 0
0.17200637 0.3836689 -0.33728713 0
0.26992369 0.3743678 -0.33711177 0
0.34945464 0.35482064 -0.34265286 0
0.45383239 0.37546736 -0.33897504 0
0.55444813 0.35841721 -0.33737907 0
0.67050743 0.36332271 -0.33423901 0
0.94607282 0.32504955 -0.33519077 0
-0.23508561 0.47724426 -0.3279843 0
-0.1248498 0.47611931 -0.33322802 0
-0.033265352 0.46630704 -0.33241129 0
0.078382015 0.46003309 -0.3280881 0
0.17251229 0.49799433 -0.31937405 0
0.26143265 0.47747955 -0.32230413 0
0.34066892 0.43795353 -0.32628053 0
0.45645595 0.45075545 -0.32382607 0
-0.40491104 -0.46625414 -0.23639132 0
-0.32241869 -0.45184961 -0.21351373 0
-0.25370312 -0.42592672 -0.19673796 0
-0.15189981 -0.39791846 -0.17687906 0
-0.214692 -0.3559233 -0.22540995 0
-0.14069009 -0.32230964 -0.20610887 0
-0.052783489 -0.32256579 -0.1913829 0
0.031640768 -0.30148652 -0.1796592 0
-0.096582413 -0.27038011 -0.23548339 0
-0.053625345 -0.2603505 -0.21895544 0
0.055142164 -0.23765092 -0.18506856 0
0.7757163 0.39872646 -0.32133517 0
0.89542961 0.37520978 -0.32711089 0
0.36648774 0.49556673 -0.32020628 0
0.46070361 0.49226183 -0.31597969 0
0.56499147 0.4871316 -0.31489259 0
0.66381836 0.45927364 -0.31784847 0
0.79124355 0.44863838 -0.32033792 0
0.86405849 0.43223312 -0.31441751 0
0.96856809 0.47370249 -0.30595884 0
-0.028071404 -0.49897626 -0.10983867 0
0.15599656 -0.49124503 -0.076753125 0
-0.13279176 -0.4300091 -0.15257043 0
-0.034002066 -0.40078962 -0.14987709 0
0.066883326 -0.41842276 -0.12450992 0
0.17785716 -0.43078655 -0.10088892 0
-0.011735439 -0.35249707 -0.16050321 0
0.072313547 -0.3268218 -0.15381268 0
0.15407705 -0.33957621 -0.13736075 0
-0.26744032 -0.39741021 -0.36900589 0
0.32650304 -0.33101264 -0.39980236 0
0.24794769 -0.28708556 -0.39722604 0
0.33571649 -0.23846915 -0.39855066 0
0.43089628 -0.25100785 -0.39804995 0
0.18169188 -0.19734292 -0.40128526 0
-0.41474736 -0.4932456 -0.27885336 0
-0.33728814 -0.4452529 -0.30403224 0
-0.28320158 -0.41239271 -0.32632294 0
-0.22682273 -0.36642864 -0.31960848 0
-0.14192986 -0.32935366 -0.33317786 0
-0.035842419 -0.31342497 -0.34808603 0
0.43934083 -0.32838663 -0.3889288 0
0.51057053 -0.33326522 -0.39209038 0
0.81747556 -0.31780446 -0.40065724 0
0.92979717 -0.32775402 -0.39323533 0
-0.23187101 -0.24819843 -0.36661664 0
-0.15599108 -0.26659024 -0.36584303 0
-0.0072085857 -0.2538791 -0.33271003 0
0.020022392 -0.2661376 -0.37425721 0
0.13237309 -0.24427722 -0.38469738 0
0.23556566 -0.21583118 -0.39088449 0
0.36553764 -0.26476571 -0.38987625 0
0.46798348 -0.26395428 -0.38291207 0
0.53582311 -0.25334075 -0.38838854 0
0.63467026 -0.24814223 -0.39057341 0
0.78422165 -0.24608865 -0.40194896 0
0.88662291 -0.260759 -0.39742872 0
0.99658442 -0.2453804 -0.38724497 0
-0.20967829 -0.13371217 -0.36498564 0
-0.1466248 -0.16080475 -0.36945167 0
-0.034491062 -0.15372594 -0.37087855 0
0.10578561 -0.12633565 -0.38447013 0
0.12603617 -0.1573185 -0.38110963 0
0.25520849 -0.13063289 -0.38192904 0
0.33078623 -0.16712701 -0.38166422 0
0.42957115 -0.16818683 -0.39199895 0
0.54875183 -0.14593513 -0.38695469 0
0.62921262 -0.15211198 -0.39760494 0
0.74703813 -0.14520667 -0.400861 0
0.86609125 -0.14247765 -0.38992268 0
0.949229 -0.13314424 -0.3869617 0
-0.22583079 -0.058706813 -0.37427869 0
-0.12554765 -0.062050618 -0.36828494 0
-0.011894464 -0.070077799 -0.37063932 0
0.082098246 -0.047233589 -0.38379923 0
0.16375017 -0.042835526 -0.37888801 0
0.26463103 -0.046003327 -0.37851903 0
0.36945581 -0.072217561 -0.37656647 0
0.47934151 -0.065894023 -0.3818351 0
0.55881763 -0.037287883 -0.39203304 0
0.66118288 -0.05212044 -0.39318946 0
0.75340676 -0.054419044 -0.38927308 0
0.87204146 -0.030829504 -0.38536313 0
0.97831297 -0.029512603 -0.37923977 0
-0.23194444 0.041242544 -0.37753254 0
-0.16059875 0.042584479 -0.37308797 0
-0.042741537 0.025899846 -0.36477536 0
0.064129353 0.058510397 -0.37749863 0
0.15431094 0.059219442 -0.37579668 0
0.2755816 0.050688047 -0.36776319 0
0.3726244 0.073309526 -0.3619948 0
0.43034291 0.037724692 -0.37534508 0
0.51830697 0.050837286 -0.3734906 0
0.63106203 0.067740306 -0.37932748 0
0.76605415 0.076407894 -0.37047386 0
0.85766554 0.030460212 -0.37774205 0
0.99168706 0.047695369 -0.37805486 0
-0.32030654 0.18135484 -0.3650628 0
-0.23539734 0.14981529 -0.36515793 0
-0.12895823 0.15040295 -0.37041596 0
-0.053144693 0.13094172 -0.36963719 0
0.041728973 0.14597881 -0.37520403 0
0.14291048 0.13624373 -0.36907995 0
0.26256776 0.14583008 -0.36090285 0
0.35163379 0.16606264 -0.35606891 0
0.4462707 0.14420535 -0.3573657 0
0.54555702 0.15508632 -0.36909014 0
0.67789507 0.13610086 -0.36850691 0
0.78787613 0.12498063 -0.36877686 0
0.90863276 0.16733401 -0.35838652 0
0.96217465 0.10251945 -0.3695915 0
-0.3240062 0.24958132 -0.35043836 0
-0.24120378 0.26693371 -0.35440311 0
-0.13806581 0.24252237 -0.35828903 0
-0.037876606 0.26277173 -0.35935023 0
0.056882381 0.234816 -0.36453983 0
0.16376448 0.22833206 -0.36443877 0
0.27131772 0.23214681 -0.35396728 0
0.36069131 0.23862499 -0.35306665 0
0.48073697 0.25801477 -0.3475872 0
0.55121684 0.27334118 -0.3529675 0
0.66887712 0.2411526 -0.34728369 0
0.76234627 0.25555524 -0.34809873 0
0.87522388 0.20736918 -0.35145944 0
0.97129679 0.24464403 -0.34641474 0
-0.39240861 0.38844249 -0.3396112 0
-0.34436536 0.33526915 -0.34740186 0
-0.25701678 0.34736714 -0.34138682 0
-0.14057946 0.34402916 -0.35074148 0
-0.025260448 0.36326736 -0.34602368 0
0.060177326 0.35864636 -0.34514099 0
0.15722275 0.33924329 -0.34854245 0
0.27091122 0.34408405 -0.34438568 0
0.32563138 0.30570605 -0.34985775 0
0.43678927 0.35863686 -0.34000564 0
0.54547119 0.34116513 -0.33624932 0
0.65430331 0.33166337 -0.33952987 0
0.8646996 0.30539641 -0.34276053 0
-0.51259589 0.46009454 -0.35106668 0
-0.43267739 0.44061273 -0.34104514 0
-0.33910298 0.46117133 -0.3346706 0
-0.24459422 0.44330239 -0.33408594 0
-0.13691258 0.44211718 -0.34133142 0
-0.029257298 0.44288641 -0.33776599 0
0.057499409 0.45595461 -0.33318752 0
0.15339184 0.44387662 -0.32721511 0
0.25906754 0.44931334 -0.32986659 0
0.37443256 0.40709782 -0.33074117 0
-0.25670028 -0.49642959 -0.16513592 0
-0.40724432 -0.48607406 -0.24861734 0
-0.31837928 -0.46557543 -0.23432848 0
-0.24761772 -0.44362536 -0.20653924 0
-0.15869594 -0.42246199 -0.17298409 0
-0.2187494 -0.38170236 -0.23927033 0
-0.14333963 -0.35746166 -0.20405865 0
-0.056550026 -0.32331637 -0.20158491 0
-0.044792652 -0.28183019 -0.22777802 0
0.58199024 0.3957167 -0.32867503 0
0.83533716 0.36675015 -0.32876995 0
0.96589708 0.38954833 -0.32345635 0
0.21702456 0.47068837 -0.32371548 0
0.35373044 0.47119457 -0.32366171 0
0.44335866 0.47876552 -0.32141691 0
0.56726289 0.45025638 -0.32432419 0
0.68929529 0.415907 -0.32193357 0
0.74338341 0.42157239 -0.32768795 0
0.87712693 0.45137092 -0.31670204 0
-0.13891673 -0.46531489 -0.15361589 0
-0.04434824 -0.44185719 -0.14225452 0
0.059402227 -0.44451991 -0.12641218 0
0.16759872 -0.43275046 -0.11113607 0
0.24028182 -0.44561458 -0.099793479 0
-0.019615412 -0.36726657 -0.16748531 0
0.070341825 -0.33011165 -0.16856228 0
0.14426422 -0.38142315 -0.14790112 0
