# .PCD v0.7 - Point Cloud Data file format
VERSION 0.7
FIELDS x y z intensity
SIZE 4 4 4 4
TYPE F F F F
COUNT 1 1 1 1
WIDTH 626
HEIGHT 1
VIEWPOINT 0 0 0 1 0 0 0
POINTS 626
DATA ascii
0.98218703 0.46666598 -0.31631821 0
0.25438094 -0.4984878 -0.083652943 0
0.28719878 -0.46132889 -0.088783674 0
0.30746531 -0.45877522 -0.077457711 0
0.33995891 -0.45655376 -0.065462954 0
0.99431038 -0.14484249 -0.39662933 0
0.97622681 -0.047263157 -0.39695886 0
0.90418768 0.082832307 -0.38767415 0
0.99097633 0.065500595 -0.38259172 0
0.89017367 0.16273703 -0.36980027 0
0.95652032 0.1618243 -0.37235859 0
0.85446644 0.25942996 -0.35826814 0
0.95195723 0.23768955 -0.35881004 0
0.97554374 0.28603911 -0.3484028 0
0.77555919 0.36406893 -0.34322345 0
0.86787105 0.34464875 -0.34086522 0
0.9657383 0.35676423 -0.34243631 0
0.60572791 0.47677335 -0.33462599 0
0.68498063 0.45527598 -0.33296737 0
0.77304459 0.44580159 -0.33116001 0
0.88079309 0.44711235 -0.32815474 0
0.96867204 0.46569645 -0.32485548 0
0.10654664 -0.4783833 -0.12981239 0
0.18155169 -0.45301032 -0.12222986 0
0.24347472 -0.45144501 -0.11701746 0
0.20793414 -0.38494569 -0.14216326 0
0.27041149 -0.46824729 -0.095302075 0
0.81800389 -0.43957368 -0.40045607 0
0.91800332 -0.4570128 -0.39970991 0
0.82710719 -0.35179898 -0.40105423 0
0.93137956 -0.33514121 -0.39281261 0
0.84129548 -0.23652036 -0.39605659 0
0.91350126 -0.24952991 -0.39443612 0
0.8284626 -0.13624272 -0.39278474 0
0.93724704 -0.14865026 -0.38685796 0
0.77247524 -0.03378801 -0.38843146 0
0.81396842 -0.04843609 -0.39225033 0
0.92532897 -0.038684126 -0.38276061 0
0.66678786 0.08890745 -0.37903875 0
0.73988152 0.06462352 -0.3753311 0
0.8362782 0.047834449 -0.37684754 0
0.94867849 0.046639204 -0.37613091 0
0.65209651 0.1649417 -0.36390781 0
0.73226643 0.1772038 -0.35864657 0
0.84005928 0.15692832 -0.35784444 0
0.92888379 0.156618 -0.36059159 0
0.62500286 0.25366637 -0.35151899 0
0.72408962 0.26137796 -0.34854448 0
0.83276916 0.23608522 -0.34775877 0
0.90787888 0.21830481 -0.35263419 0
0.55053091 0.3406437 -0.34100556 0
0.7580514 0.2854701 -0.34097555 0
0.87767649 0.2976431 -0.33603725 0
0.94858098 0.28672129 -0.33856225 0
0.47765541 0.40823704 -0.33323532 0
0.53649759 0.39143223 -0.33273634 0
0.62748384 0.3625378 -0.3330175 0
0.71605444 0.35536745 -0.3319684 0
0.81872201 0.35164455 -0.33111346 0
0.91805649 0.36688721 -0.32639194 0
0.45714426 0.47146583 -0.32263586 0
0.53542185 0.44905722 -0.32360065 0
0.6402843 0.48261353 -0.31342793 0
0.73964739 0.45495522 -0.31540951 0
0.82359815 0.46256289 -0.31452134 0
0.93874383 0.46588573 -0.31077969 0
0.21520376 -0.48425919 -0.093748026 0
-0.024851561 -0.46663207 -0.13400179 0
0.038343668 -0.44234946 -0.13090283 0
0.13657784 -0.43998468 -0.11576133 0
0.22201061 -0.42819726 -0.1071182 0
0.08088851 -0.36825433 -0.14860249 0
0.1373589 -0.34394088 -0.14807171 0
0.19184709 -0.3625775 -0.12933236 0
0.22281098 -0.46896616 -0.083123744 0
0.30109239 -0.46191171 -0.076193333 0
0.79922485 -0.41737419 -0.41987884 0
0.92607784 -0.43935737 -0.42213577 0
0.59839773 -0.31338167 -0.40310425 0
0.70099401 -0.32104728 -0.4022294 0
0.80170274 -0.34461546 -0.41512519 0
0.90880108 -0.34038728 -0.41479239 0
0.98748446 -0.34814104 -0.41373926 0
0.60463023 -0.23590401 -0.40498617 0
0.71422267 -0.23954743 -0.41188776 0
0.81489325 -0.25425068 -0.41436285 0
0.885674 -0.26815924 -0.41571885 0
0.60417414 -0.13817887 -0.41094974 0
0.70490623 -0.13715103 -0.41589963 0
0.807019 -0.14289413 -0.41538289 0
0.90330672 -0.15176311 -0.40617296 0
0.99939537 -0.14102744 -0.40230584 0
0.52274704 -0.036974933 -0.40068302 0
0.5697968 -0.052047707 -0.40890229 0
0.68934798 -0.031823106 -0.41042668 0
0.80076551 -0.04143931 -0.40929636 0
0.90678501 -0.041968867 -0.40379992 0
0.50367451 0.063560382 -0.38583377 0
0.60267568 0.067383334 -0.38931444 0
0.71862149 0.075906105 -0.39493251 0
0.80519009 0.048433103 -0.39558622 0
0.90001225 0.067936227 -0.39089912 0
0.96827745 0.060908027 -0.39328757 0
0.41852427 0.17744815 -0.37680167 0
0.50101542 0.15135877 -0.3782095 0
0.61430335 0.1720199 -0.37995946 0
0.69481754 0.14727938 -0.38413316 0
0.82143807 0.18223086 -0.37369752 0
0.88893008 0.15224223 -0.37850869 0
0.99233413 0.13771473 -0.38115704 0
0.35359287 0.30736017 -0.3678782 0
0.41477537 0.25852737 -0.36599606 0
0.5140543 0.26577929 -0.37078071 0
0.6065588 0.25727534 -0.37041456 0
0.70421052 0.23884198 -0.37290472 0
0.31327796 0.37331453 -0.36086464 0
0.40882039 0.33460897 -0.36341691 0
0.48213267 0.32079414 -0.36347005 0
-0.047331333 -0.36438671 -0.21392767 0
-0.02028513 -0.30394962 -0.22775424 0
0.032637835 -0.26188895 -0.22681966 0
0.92157292 0.17830983 -0.37054831 0
0.9750936 0.18737952 -0.37068212 0
0.52606368 0.28292912 -0.35750353 0
0.61395454 0.29406658 -0.36236233 0
0.72141218 0.28367454 -0.36079189 0
0.8037262 0.26583079 -0.36357468 0
0.91973901 0.2572622 -0.3603631 0
0.40173912 0.37890273 -0.35609823 0
0.51150441 0.38546997 -0.35278293 0
0.60953426 0.35618946 -0.35696292 0
0.70899487 0.36544412 -0.35204154 0
0.81407547 0.37263429 -0.3471711 0
0.90144753 0.34475014 -0.34783906 0
0.23457932 0.4756439 -0.34654436 0
0.32103968 0.45659202 -0.34703976 0
0.41984725 0.45128974 -0.34579492 0
0.49123597 0.45961788 -0.34156609 0
0.60329986 0.47608504 -0.33663905 0
0.69953275 0.46096188 -0.33573616 0
0.81338143 0.4713136 -0.33256903 0
0.89386964 0.46005702 -0.33380356 0
0.99940062 0.45855495 -0.32826707 0
0.11696911 -0.49604279 -0.12230487 0
-0.17671514 -0.47890499 -0.18808702 0
-0.078569889 -0.44333604 -0.17694269 0
0.021495581 -0.43059951 -0.15899943 0
0.10559058 -0.44041485 -0.14392616 0
0.2025125 -0.42387167 -0.13880366 0
-0.056442499 -0.3666026 -0.19910726 0
0.020697832 -0.33303139 -0.19840324 0
0.11213923 -0.34705123 -0.18132719 0
0.039705276 -0.28004223 -0.21646884 0
0.098814249 -0.27955213 -0.20713905 0
0.23477674 -0.44939831 -0.11543955 0
0.31074691 -0.45376113 -0.095934242 0
0.41379523 -0.27575657 -0.41780573 0
0.93096948 -0.45558935 -0.41545689 0
0.4249804 -0.34882042 -0.40664256 0
0.5318327 -0.34265253 -0.40593556 0
0.6453166 -0.31931654 -0.39636913 0
0.71874762 -0.35242736 -0.40782532 0
0.83687973 -0.37135154 -0.41604578 0
0.9155407 -0.34005004 -0.4097217 0
0.98655248 -0.35550508 -0.40905896 0
0.44073892 -0.2897217 -0.40601495 0
0.5245018 -0.26895493 -0.40525532 0
0.6173346 -0.26183617 -0.40405071 0
0.70762491 -0.27901548 -0.41340876 0
0.82037973 -0.26976046 -0.41740832 0
0.91754436 -0.26915675 -0.41070044 0
0.99809909 -0.24760717 -0.4048838 0
0.42563319 -0.16116564 -0.39869502 0
0.49540567 -0.16827153 -0.40677163 0
0.61322021 -0.1711892 -0.4083904 0
0.70903468 -0.17351554 -0.40593669 0
0.79626775 -0.16176698 -0.40991744 0
0.90646291 -0.16644838 -0.40523028 0
0.99716687 -0.15893707 -0.40118951 0
0.35136437 -0.047488943 -0.38654205 0
0.37765026 -0.1003503 -0.39372206 0
0.4892509 -0.062521368 -0.39521539 0
0.60249329 -0.066169314 -0.40322098 0
0.71805 -0.053491965 -0.4078618 0
0.80135632 -0.072957598 -0.40413383 0
0.90876245 -0.067962177 -0.40036315 0
0.33699846 0.019919388 -0.38074434 0
0.40030336 0.027550448 -0.3826299 0
0.49764419 0.041327845 -0.38194853 0
0.61853647 0.046171926 -0.38512775 0
0.69956779 0.039368611 -0.3918159 0
0.79589534 0.018747695 -0.39302048 0
0.90840769 0.047793556 -0.38630784 0
0.31745315 0.13468216 -0.37255886 0
0.39566088 0.13707556 -0.37193155 0
0.51477265 0.13315293 -0.37452033 0
0.6151073 0.14801136 -0.37896922 0
0.68213582 0.13657306 -0.37840074 0
0.79268909 0.1402168 -0.37359679 0
0.89681292 0.14038952 -0.37339556 0
0.24456739 0.27555746 -0.36184913 0
0.30856299 0.23831655 -0.36386648 0
0.3997407 0.2380219 -0.36202639 0
0.49663234 0.22496912 -0.36308807 0
0.60243416 0.24867691 -0.36215243 0
0.73611999 0.24554041 -0.35933176 0
0.80827284 0.2139734 -0.36647677 0
0.92090654 0.20405363 -0.36150932 0
0.99505067 0.19290087 -0.36785954 0
0.14980888 0.37460065 -0.35258394 0
0.20006394 0.33256689 -0.35720152 0
0.31803393 0.32995787 -0.35510722 0
0.42079663 0.34024909 -0.3526153 0
0.52719331 0.33510762 -0.35129699 0
0.60265517 0.32689101 -0.35376003 0
0.68539619 0.31508902 -0.35137945 0
0.79105997 0.30370247 -0.35364452 0
0.11760187 0.44778234 -0.3419413 0
0.21787953 0.42572936 -0.34413517 0
0.28622389 0.4018704 -0.34549654 0
-0.2021625 -0.45835376 -0.19564572 0
-0.11656547 -0.42773557 -0.19977742 0
-0.1546886 -0.38974476 -0.21259752 0
-0.090398788 -0.36809584 -0.21326266 0
0.015924454 -0.33677965 -0.21234828 0
-0.054977894 -0.30620509 -0.22990921 0
-0.0056173801 -0.29426783 -0.23371014 0
0.070687771 -0.28019214 -0.20993707 0
0.8560617 0.28646609 -0.34788752 0
0.97306633 0.24876639 -0.35535732 0
0.45686531 0.36069998 -0.342112 0
0.57975197 0.38477579 -0.34578833 0
0.74001098 0.31483987 -0.34742442 0
0.81165862 0.35291055 -0.34356362 0
0.91417456 0.33428565 -0.33952853 0
0.99634123 0.33005026 -0.34237486 0
0.12017488 0.47887003 -0.33227435 0
0.18290567 0.46313038 -0.33743951 0
0.29750609 0.45984355 -0.3414464 0
0.41402483 0.44133413 -0.33572537 0
0.4963603 0.45183879 -0.33379677 0
0.59214664 0.43831643 -0.3343752 0
0.70899844 0.43177128 -0.32936162 0
0.80474901 0.43827564 -0.32522476 0
0.89492249 0.43409842 -0.3271392 0
-0.17108917 -0.47643045 -0.17966965 0
-0.087165833 -0.46839216 -0.17013752 0
0.012127161 -0.45762363 -0.15559666 0
0.11054897 -0.44792476 -0.14435893 0
0.20250797 -0.46253598 -0.12066214 0
0.27817798 -0.44377697 -0.111022 0
0.02024579 -0.37173596 -0.18433225 0
0.11306143 -0.36777067 -0.1756874 0
0.27041698 -0.49506909 -0.091664024 0
0.37204719 -0.30902749 -0.38517278 0
0.48880482 -0.30644169 -0.38112882 0
0.61422157 -0.31840643 -0.37337935 0
0.6975913 -0.31257942 -0.38764173 0
0.89279675 -0.33048686 -0.38730446 0
0.9935596 -0.28924912 -0.38337219 0
0.39301491 -0.21918042 -0.38187671 0
0.50031614 -0.22193861 -0.38269603 0
0.61541605 -0.23957533 -0.37837759 0
0.70447302 -0.21568875 -0.38406816 0
0.81351662 -0.23586155 -0.39007211 0
0.9076438 -0.24318551 -0.38322753 0
0.9632659 -0.21672261 -0.38352248 0
0.30362177 -0.1248788 -0.37854931 0
0.40229416 -0.13548046 -0.37844932 0
0.50786877 -0.13349092 -0.37806639 0
0.59572196 -0.12361395 -0.38259742 0
0.6655817 -0.14916565 -0.39407444 0
0.77917838 -0.12523921 -0.38742331 0
0.87905049 -0.14790583 -0.38057107 0
0.94307518 -0.085902579 -0.37431544 0
0.2843163 -0.045634396 -0.36982378 0
0.36869574 -0.045855019 -0.36903954 0
0.48335195 -0.01890222 -0.36924008 0
0.59936547 -0.022382861 -0.38147268 0
0.72259998 -0.042024471 -0.37482816 0
0.79182482 -0.0016764784 -0.3757343 0
0.88024449 -0.041212704 -0.37681851 0
0.98549509 -0.034432832 -0.3733466 0
0.24831891 0.041208223 -0.36574143 0
0.742419 0.02798577 -0.36858094 0
0.86601734 0.041724354 -0.37362233 0
-0.15792298 -0.32156 -0.23813653 0
-0.057598591 -0.30050686 -0.26209098 0
0.99839425 -0.10459588 -0.36230165 0
0.31353402 0.073782437 -0.35183379 0
0.37935567 0.053840019 -0.35561723 0
0.5004499 0.071358606 -0.35822743 0
0.59433079 0.092587769 -0.35831493 0
0.70980024 0.092573196 -0.36180753 0
0.79559898 0.058924183 -0.36547187 0
0.86015129 0.11252266 -0.3549785 0
0.98616266 0.062902667 -0.36606112 0
0.22495937 0.15844779 -0.35350651 0
0.29466033 0.16322058 -0.35136521 0
0.38098025 0.15867013 -0.34749195 0
0.487535 0.16731587 -0.34853292 0
0.58332539 0.16895008 -0.35926211 0
0.67494583 0.1532734 -0.35600293 0
0.80892253 0.17917423 -0.3480058 0
0.91349506 0.16346693 -0.35083771 0
0.19995046 0.27621752 -0.3415736 0
0.28640509 0.26035339 -0.34180039 0
0.37579107 0.27898449 -0.33899459 0
0.46509099 0.29194528 -0.33580366 0
0.58884358 0.26801401 -0.33839989 0
0.68036199 0.25184643 -0.34224933 0
0.79635191 0.26597834 -0.33878958 0
0.90717316 0.25628194 -0.33548075 0
0.09155345 0.35979614 -0.33620843 0
0.17063093 0.36782342 -0.33275178 0
0.2846508 0.3736065 -0.32967478 0
0.38687444 0.37312728 -0.32888737 0
0.52829194 0.37933043 -0.32475084 0
0.57442641 0.36256239 -0.32993037 0
0.68961 0.3902362 -0.32195038 0
0.78930783 0.35784093 -0.31962049 0
0.90899515 0.37273246 -0.31645328 0
0.97599959 0.39769611 -0.31514603 0
0.02804184 0.4891637 -0.31865528 0
0.095878839 0.45535934 -0.32096204 0
0.19193196 0.47578409 -0.31548035 0
0.28491759 0.45703477 -0.31922594 0
0.38343501 0.48035681 -0.31434286 0
0.47761559 0.44701716 -0.31347454 0
0.584162 0.4710193 -0.31068707 0
0.67811346 0.46624243 -0.31121805 0
0.80684185 0.47030309 -0.30384332 0
0.91169119 0.46061125 -0.30475026 0
-0.11772752 -0.49660081 -0.12645333 0
-0.28248966 -0.47395715 -0.18122208 0
-0.20921695 -0.42259502 -0.17641611 0
-0.11525965 -0.42685342 -0.15031293 0
-0.0068078041 -0.40151134 -0.14429303 0
0.11662364 -0.3814202 -0.1339201 0
-0.1815629 -0.35523704 -0.20834368 0
-0.10298085 -0.33241531 -0.19043553 0
0.001257658 -0.32705718 -0.17418271 0
0.094502211 -0.32765439 -0.15843529 0
-0.069776535 -0.27605793 -0.22293742 0
-0.0062584877 -0.26317129 -0.20075049 0
-0.012453318 -0.45068312 -0.12153377 0
0.10295367 -0.43481442 -0.10604293 0
0.20068574 -0.43257359 -0.09345898 0
0.28075719 -0.42765328 -0.077226125 0
0.18987584 -0.36928275 -0.1114431 0
0.34265852 -0.31060991 -0.39978123 0
0.45609331 -0.32073435 -0.39647901 0
0.72685361 -0.30708978 -0.41604924 0
0.87744355 -0.3473711 -0.40146351 0
0.094287395 -0.25681198 -0.38841176 0
0.20981741 -0.26866215 -0.39665854 0
0.26334047 -0.234817 -0.39227194 0
0.36006498 -0.23680091 -0.3988342 0
0.61088157 -0.24230316 -0.39852446 0
0.73879981 -0.23560481 -0.40662524 0
0.056641579 -0.1422608 -0.39344186 0
0.12776518 -0.14419936 -0.40025383 0
0.52923441 -0.1777178 -0.39948133 0
-0.30752182 -0.40580758 -0.27607805 0
-0.23203695 -0.35621968 -0.28464088 0
-0.12210965 -0.31146717 -0.3068516 0
-0.027837038 -0.30178463 -0.33151019 0
0.022369862 -0.29273242 -0.28880334 0
0.64101243 -0.31328624 -0.38904709 0
0.79136729 -0.30881837 -0.3950339 0
0.97243762 -0.30661935 -0.39316255 0
-0.0050842762 -0.21550168 -0.37393579 0
0.013922691 -0.26148325 -0.36960596 0
0.15054059 -0.27906525 -0.35037586 0
0.45426893 -0.22704339 -0.39391389 0
0.53901124 -0.23731411 -0.39181152 0
0.63625836 -0.22792453 -0.39080879 0
0.86731172 -0.26058823 -0.3953521 0
0.95072389 -0.21855722 -0.38953012 0
-0.029277802 -0.15963803 -0.37846673 0
0.10510945 -0.17062332 -0.38122922 0
0.23083758 -0.1430718 -0.3816165 0
0.35751319 -0.14086033 -0.38641873 0
0.45176053 -0.1648882 -0.39540118 0
0.53381252 -0.13202326 -0.39907652 0
0.66040349 -0.11685012 -0.38589817 0
0.75357223 -0.13718447 -0.39893547 0
0.85643196 -0.13804878 -0.3918429 0
0.92011952 -0.151447 -0.39014089 0
-0.027406693 -0.040302053 -0.36955705 0
0.050139189 -0.044506826 -0.38765687 0
0.1578939 -0.032947641 -0.37857509 0
0.26190376 -0.037062969 -0.3748534 0
0.35431671 -0.036579944 -0.37843111 0
0.49541402 -0.054946635 -0.38511211 0
0.57907963 -0.022717677 -0.38900447 0
0.66697907 -0.061263949 -0.39371252 0
0.75440645 -0.058578558 -0.39339289 0
0.86915183 -0.032861579 -0.38979504 0
0.9714973 -0.032571483 -0.38332623 0
-0.043666124 0.065069906 -0.36747694 0
0.067662477 0.053924043 -0.3734557 0
0.14614844 0.066306517 -0.37347621 0
0.26986647 0.072156735 -0.36691815 0
0.3850131 0.063334323 -0.37049663 0
0.49386358 0.070886619 -0.36411226 0
0.57228208 0.062798753 -0.38108787 0
0.6798079 0.061808832 -0.37788895 0
0.77342868 0.059809953 -0.37660897 0
0.85461855 0.063396782 -0.37461638 0
0.93919849 0.078736901 -0.37353405 0
-0.035511494 0.15181036 -0.37261739 0
0.066099405 0.16797613 -0.36951494 0
0.16666937 0.14544414 -0.36437315 0
0.28405428 0.15335047 -0.35804015 0
0.34354019 0.15542729 -0.36224371 0
0.45008874 0.15322076 -0.35971439 0
0.53054476 0.16338991 -0.36741787 0
0.66504908 0.17911816 -0.36191565 0
0.75699902 0.14860415 -0.36463824 0
0.86030507 0.18834114 -0.35445648 0
0.95569086 0.16516909 -0.36290619 0
-0.12667584 0.27292401 -0.35672504 0
-0.035254717 0.24786137 -0.3613047 0
0.061145782 0.24934018 -0.361994 0
0.16752362 0.25612739 -0.35752973 0
0.26705933 0.24133138 -0.35671824 0
0.36786985 0.26703519 -0.3476097 0
0.45703697 0.2479707 -0.35323977 0
0.57509351 0.26082504 -0.3507334 0
0.64243126 0.24908537 -0.35619992 0
0.76454258 0.27235594 -0.34453884 0
0.86018181 0.29167131 -0.33947209 0
0.96551776 0.24955153 -0.34627685 0
-0.22564709 0.35983109 -0.35193959 0
-0.1368885 0.37140012 -0.34842974 0
-0.049101353 0.34386152 -0.35137472 0
0.055364132 0.34156829 -0.34875375 0
0.17138004 0.37470615 -0.34052181 0
0.26929617 0.36539236 -0.34034002 0
0.34882498 0.34583417 -0.34587443 0
0.45320535 0.36646771 -0.34219348 0
0.5538187 0.34940469 -0.34058997 0
0.66987824 0.3542954 -0.33744425 0
0.94543886 0.31598628 -0.33837646 0
-0.23570013 0.46833572 -0.3312524 0
-0.1254642 0.46719572 -0.33649001 0
-0.033880711 0.45737165 -0.33566713 0
0.077765465 0.45108369 -0.33133715 0
0.1718998 0.4890337 -0.3226226 0
0.26081777 0.46850699 -0.32554537 0
0.34004927 0.42897019 -0.32951272 0
0.45583797 0.44175729 -0.32705355 0
-0.40565348 -0.47512951 -0.23955382 0
-0.32316053 -0.46073288 -0.21667354 0
-0.25444233 -0.4348169 -0.1998972 0
-0.15263653 -0.40681949 -0.18003622 0
-0.2154206 -0.364822 -0.22857559 0
-0.14141512 -0.33121571 -0.20927462 0
-0.053509712 -0.33148152 -0.19454384 0
0.030916691 -0.31041181 -0.18281814 0
-0.097299337 -0.27929544 -0.23865306 0
-0.054342031 -0.26926944 -0.22212401 0
0.054426432 -0.24657992 -0.18823397 0
0.77509141 0.38968709 -0.32453904 0
0.89480186 0.3661541 -0.3303054 0
0.36587501 0.48658076 -0.32344407 0
0.4600904 0.48326409 -0.31921196 0
0.56437778 0.47812042 -0.31811863 0
0.66320109 0.45024925 -0.32106575 0
0.79062486 0.43959707 -0.32354701 0
0.86343718 0.42318305 -0.31762066 0
0.96795201 0.46463984 -0.30916137 0
-0.13353372 -0.43890965 -0.15572262 0
-0.03474021 -0.40970272 -0.1530275 0
0.066141129 -0.42734593 -0.12765273 0
0.17711186 -0.43972129 -0.10402422 0
-0.012467384 -0.36141434 -0.16365829 0
0.071584702 -0.33574918 -0.15696633 0
0.15334606 -0.34851229 -0.14050843 0
-0.26816642 -0.40631959 -0.37216932 0
0.32578707 -0.3400031 -0.40294173 0
0.24723744 -0.29606545 -0.40037501 0
0.33501267 -0.24746065 -0.40170079 0
0.43019056 -0.26001167 -0.40119338 0
0.18099356 -0.20631468 -0.40444872 0
-0.33802426 -0.45414522 -0.30719367 0
-0.28393209 -0.42129481 -0.32948545 0
-0.22754729 -0.3753373 -0.32277352 0
-0.14264894 -0.33827502 -0.33634281 0
-0.036559105 -0.32236195 -0.35124713 0
0.43862462 -0.33739045 -0.3920624 0
0.50985408 -0.34227869 -0.3952195 0
0.81676126 -0.32685894 -0.40377167 0
0.92908144 -0.33682224 -0.39634246 0
-0.2325778 -0.25711215 -0.36979631 0
-0.15670061 -0.27551374 -0.36901635 0
-0.0079181194 -0.26281792 -0.33587685 0
0.019313812 -0.275085 -0.37742108 0
0.13166785 -0.25324056 -0.38785779 0
0.23486447 -0.22480869 -0.39404279 0
0.36482954 -0.27376002 -0.39302155 0
0.46727538 -0.27296108 -0.38605195 0
0.53511667 -0.26235706 -0.39152607 0
0.63396454 -0.25717169 -0.3937062 0
0.78351712 -0.25513896 -0.40507391 0
0.88591623 -0.26982209 -0.40054631 0
0.99587917 -0.25445658 -0.39035851 0
-0.2103703 -0.14262857 -0.36817804 0
-0.14732027 -0.16972989 -0.37263739 0
-0.035185575 -0.16266586 -0.37405905 0
0.10509562 -0.1352955 -0.38764638 0
0.12534189 -0.16628058 -0.38428098 0
0.25451803 -0.13961188 -0.38509664 0
0.33009076 -0.17611581 -0.38482332 0
0.42887616 -0.17718972 -0.39515257 0
0.54805923 -0.15495294 -0.39010459 0
0.62852001 -0.16114156 -0.40074968 0
0.74634647 -0.15425199 -0.40400022 0
0.86539912 -0.15153715 -0.39305577 0
0.9485383 -0.14221424 -0.39009145 0
-0.22651255 -0.067622229 -0.37748107 0
-0.12623 -0.070978366 -0.37148151 0
-0.012578011 -0.079020627 -0.37382874 0
0.081418276 -0.056190267 -0.38698637 0
0.16307044 -0.051802225 -0.38207126 0
0.2639513 -0.054983124 -0.38169643 0
0.36877227 -0.08121077 -0.37973502 0
0.47865915 -0.074902192 -0.38499847 0
0.5581398 -0.046307638 -0.39519557 0
0.66050291 -0.061153665 -0.39634466 0
0.75272632 -0.063463807 -0.392423 0
0.87136412 -0.039889239 -0.38850948 0
0.97763538 -0.038585428 -0.38238057 0
-0.23261309 0.032327529 -0.38074744 0
-0.16126728 0.033660717 -0.37629917 0
-0.043412924 0.016961746 -0.3679781 0
0.063462973 0.049556833 -0.38069957 0
0.15364456 0.050254337 -0.3789928 0
0.27491403 0.041708127 -0.3709518 0
0.37195921 0.064317673 -0.36518088 0
0.42967343 0.028723696 -0.37852374 0
0.5176394 0.041825064 -0.37666604 0
0.63039684 0.058712684 -0.38249889 0
0.76538968 0.067363769 -0.37363905 0
0.85699558 0.021403279 -0.38089666 0
0.99101949 0.038620941 -0.38120431 0
-0.32095754 0.17245284 -0.36829951 0
-0.23605263 0.14090224 -0.36838621 0
-0.12961292 0.14147539 -0.37363857 0
-0.053802252 0.12200437 -0.37285334 0
0.041074038 0.13702843 -0.3784169 0
0.14225388 0.12728092 -0.37228614 0
0.26191211 0.1368527 -0.3641037 0
0.35098028 0.15707424 -0.35926744 0
0.44561434 0.13520446 -0.36055645 0
0.5449028 0.14607108 -0.37227678 0
0.67723823 0.12706845 -0.37168407 0
0.78721786 0.11593387 -0.37194672 0
0.90797949 0.15827279 -0.36155504 0
0.96151352 0.093449898 -0.37274924 0
-0.32464933 0.24068159 -0.35368359 0
-0.2418443 0.2580227 -0.35764593 0
-0.13870931 0.23359747 -0.36152336 0
-0.038517475 0.25383365 -0.36258155 0
0.056238413 0.22586496 -0.36776268 0
0.16311979 0.21936712 -0.36765501 0
0.27067256 0.22316912 -0.35717815 0
0.36004686 0.22963576 -0.35627347 0
0.48009515 0.24901059 -0.3507899 0
0.55057716 0.26432714 -0.35616824 0
0.66823292 0.23212396 -0.35047415 0
0.76170397 0.24651432 -0.35128587 0
0.87457538 0.19831316 -0.35463461 0
0.97065306 0.23557609 -0.34958929 0
-0.39303422 0.37955299 -0.34287703 0
-0.34499729 0.32637247 -0.35065857 0
-0.25764728 0.33845982 -0.34464031 0
-0.14120984 0.33510554 -0.35398826 0
-0.02588892 0.35432926 -0.34926659 0
0.05954814 0.34969729 -0.34837869 0
0.15659118 0.33028114 -0.35177255 0
0.27028036 0.33510759 -0.34761021 0
0.32499576 0.29672176 -0.35307464 0
0.43615985 0.34963933 -0.34322295 0
0.54483914 0.33215386 -0.33945864 0
0.65367055 0.32263759 -0.34273213 0
0.86406326 0.29634279 -0.34594822 0
-0.51321149 0.45121926 -0.35434771 0
-0.43329597 0.43172827 -0.34431946 0
-0.33971918 0.45227545 -0.33794239 0
-0.24521279 0.4343943 -0.3373504 0
-0.13753057 0.43319419 -0.34458995 0
-0.029875755 0.43394983 -0.34101877 0
0.056882381 0.4470073 -0.3364372 0
0.15277314 0.43491754 -0.3304581 0
0.25844955 0.44034019 -0.33310458 0
0.3738091 0.3981095 -0.3339678 0
0.064000845 0.49874881 -0.33474487 0
-0.40798843 -0.49495059 -0.25177759 0
-0.31912172 -0.47446173 -0.23748639 0
-0.24835885 -0.45251754 -0.20969599 0
-0.15943599 -0.43136165 -0.17613861 0
-0.21948051 -0.39060223 -0.24243304 0
-0.14406943 -0.3663671 -0.20722026 0
-0.057275295 -0.33223277 -0.20474595 0
-0.045511246 -0.29075134 -0.23094347 0
0.58136535 0.38670161 -0.33188903 0
0.83470798 0.35770208 -0.3319667 0
0.965271 0.3804839 -0.3266488 0
0.21640873 0.46172145 -0.3269583 0
0.35311484 0.46220985 -0.32689723 0
0.44274402 0.46976939 -0.32464853 0
0.56664467 0.44124377 -0.32754561 0
0.6886723 0.40687877 -0.32514417 0
0.74276185 0.41253638 -0.33089632 0
0.87650871 0.44231889 -0.31990683 0
0.96244931 0.49626675 -0.30918351 0
-0.13966346 -0.47421482 -0.15676415 0
-0.045092821 -0.45076799 -0.14540049 0
0.058656931 -0.45344231 -0.12955222 0
0.1668539 -0.44168505 -0.11427169 0
0.23953485 -0.45455727 -0.10292359 0
-0.020348549 -0.37618369 -0.17063902 0
0.069613457 -0.33904061 -0.17171565 0
0.14352846 -0.39035919 -0.15104425 0
