# .PCD v0.7 - Point Cloud Data file format
VERSION 0.7
FIELDS x y z intensity
SIZE 4 4 4 4
TYPE F F F F
COUNT 1 1 1 1
WIDTH 1303
HEIGHT 1
VIEWPOINT 0 0 0 1 0 0 0
POINTS 1303
DATA ascii
0.67323232 0.37653923 -0.034884572 0
0.7015264 0.45736456 -0.00032496452 0
0.63612747 0.44738936 -0.051259518 0
0.65077448 0.48402286 -0.055863202 0
0.90760899 -0.23378706 -9.1016293e-05 0
0.96877694 -0.19843054 0.040964007 0
0.8534255 -0.16485214 0.016200006 0
0.89561009 -0.12495232 0.046906412 0
0.92712593 -0.043324947 0.074682951 0
0.7963779 -0.099271297 0.0089938641 0
0.85689592 -0.074074745 0.031323373 0
0.89933467 0.024921894 0.027680814 0
0.9245801 0.094547272 0.05780375 0
0.88212657 0.15844584 0.03940022 0
0.83098006 0.2369318 0.039865553 0
0.83788276 0.30142021 0.07235086 0
0.76170015 0.32032919 0.030917466 0
0.79230833 0.35219622 0.074562073 0
0.7391181 0.43099117 0.049078524 0
0.95923543 -0.1068759 0.10788774 0
0.97160769 -0.030842781 0.12835181 0
0.98692918 0.026516914 0.14423406 0
0.95009756 0.027758598 0.094710648 0
0.97551394 0.10580969 0.13081235 0
0.92891216 0.17041636 0.10391825 0
0.94321036 0.22775316 0.1486035 0
0.88041568 0.23384714 0.091937423 0
0.89158177 0.30143213 0.14355344 0
0.8315928 0.37489748 0.12958127 0
0.86569476 0.45965719 0.16873384 0
0.99255753 0.2469635 0.2227363 0
0.92717695 0.33376408 0.21143657 0
0.97077203 0.35745811 0.25005054 0
0.91899371 0.45125914 0.22085392 0
0.33184743 0.039054871 -0.48242125 0
0.29798007 0.12408018 -0.47537145 0
0.55673242 -0.44321656 -0.45117015 0
0.42059636 -0.45063996 -0.45047253 0
0.50536442 -0.38148999 -0.47792941 0
0.54404902 -0.30863047 -0.44294834 0
0.34041047 -0.37475371 -0.45619071 0
0.41524434 -0.31408381 -0.46864671 0
0.50861454 -0.23637009 -0.47364464 0
0.51692986 -0.16461515 -0.44553635 0
0.34261417 -0.24130154 -0.46889347 0
0.41669035 -0.15551972 -0.47894147 0
0.48648429 -0.089888096 -0.46549174 0
0.49799109 -0.036663055 -0.43000329 0
0.28913116 -0.1523006 -0.46419141 0
0.34124517 -0.057315826 -0.46583131 0
0.38712931 -0.023957253 -0.47925735 0
0.47178841 0.051488876 -0.4507795 0
0.25555158 -0.031396389 -0.46032199 0
0.31248188 0.033990383 -0.46824753 0
0.42609453 0.12108517 -0.47664055 0
0.45329189 0.18380022 -0.44204208 0
0.1816895 0.020404816 -0.45085168 0
0.23242998 0.10637188 -0.45870358 0
0.32126856 0.18097234 -0.47055528 0
0.40987968 0.25282431 -0.45872724 0
0.42933893 0.32616067 -0.45005983 0
0.11281657 0.10260987 -0.43659553 0
0.17383504 0.18646145 -0.4443256 0
0.22988367 0.2411139 -0.45783567 0
0.32074833 0.31921339 -0.47414574 0
0.42032981 0.40640283 -0.45054367 0
0.041625977 0.18360209 -0.42090237 0
0.10937333 0.24520516 -0.43267176 0
0.16324925 0.31714249 -0.44660768 0
0.24509001 0.38578749 -0.4550229 0
0.33586693 0.4570291 -0.46978489 0
-0.034698009 0.25959396 -0.40446654 0
0.02635622 0.30133462 -0.41979718 0
0.10281467 0.38965964 -0.42821318 0
0.20192027 0.46191502 -0.44244283 0
-0.11408687 0.31869054 -0.38967708 0
-0.056049585 0.38168001 -0.39846453 0
0.020658255 0.44886637 -0.40991771 0
-0.18584895 0.36868167 -0.37775198 0
-0.11673856 0.46487594 -0.38320303 0
-0.32864094 0.41247225 -0.33865377 0
-0.25363874 0.43387628 -0.35461003 0
-0.19476652 0.49309707 -0.36647326 0
-0.45937347 0.40482211 -0.31217948 0
-0.38306189 0.44767261 -0.32204339 0
-0.50980544 0.4526639 -0.29107967 0
-0.65061975 0.48855448 -0.25163832 0
0.70125628 -0.45264578 -0.36141616 0
0.58930612 -0.42281818 -0.39834133 0
0.64994192 -0.38664031 -0.3601158 0
0.58132076 -0.31264067 -0.37080479 0
0.55424452 -0.2424078 -0.37767306 0
0.55336022 -0.17425299 -0.35737637 0
0.52840161 -0.084498882 -0.38034332 0
0.5287106 -0.03660965 -0.34908679 0
0.50605798 0.054279327 -0.36337656 0
0.50170231 0.11993456 -0.34463897 0
0.4845109 0.19037724 -0.35212168 0
0.48873138 0.25470352 -0.33461732 0
0.45790339 0.25774002 -0.381327 0
0.46404624 0.31808066 -0.34828562 0
0.44747663 0.39794278 -0.35526478 0
0.44646955 0.47297645 -0.36026788 0
0.82305813 -0.49562097 -0.3172113 0
0.85394454 -0.45517588 -0.28339648 0
0.74660158 -0.41533065 -0.32388577 0
0.78742957 -0.38312292 -0.2809884 0
0.70983124 -0.30676937 -0.28246555 0
0.64441967 -0.2385149 -0.28313687 0
0.59694719 -0.15136719 -0.26925567 0
0.60648751 -0.094572067 -0.2224558 0
0.55772328 -0.089748383 -0.30805609 0
0.57310653 -0.018801212 -0.25579214 0
0.54090762 0.044309139 -0.28962228 0
0.55643153 0.12218046 -0.25958604 0
0.50909376 0.18839073 -0.29428101 0
0.55036426 0.25469542 -0.24301821 0
0.50846505 0.3323257 -0.26264304 0
0.53009319 0.38482761 -0.22781026 0
0.47188878 0.3971591 -0.2833668 0
0.4837997 0.4577837 -0.26006669 0
0.88376617 -0.43870783 -0.21223009 0
0.82431602 -0.34626532 -0.20637339 0
0.83100486 -0.29045677 -0.15490609 0
0.76270819 -0.27644825 -0.20419848 0
0.78195381 -0.24138451 -0.15553594 0
0.69348669 -0.20569324 -0.20043671 0
0.71001482 -0.16580439 -0.16824991 0
0.6267314 -0.12928534 -0.19135702 0
0.64603424 -0.091191769 -0.16514599 0
0.62033105 -0.0140481 -0.17615837 0
0.62844133 0.056457996 -0.16974264 0
0.69300842 0.15618038 -0.14130718 0
0.61774254 0.13329554 -0.20088291 0
0.63989401 0.18932676 -0.17347586 0
0.59876919 0.25810862 -0.19294971 0
0.61008072 0.33055258 -0.16106004 0
0.58166361 0.39354038 -0.16978216 0
0.54531288 0.45800948 -0.18826932 0
0.97238755 -0.47197104 -0.15025187 0
0.89963579 -0.3882575 -0.13745123 0
0.95137048 -0.36648226 -0.096907675 0
0.84564495 -0.32101679 -0.13343388 0
0.89052939 -0.3013382 -0.097941995 0
0.81691718 -0.29869366 -0.14003712 0
0.8111999 -0.22926188 -0.10502231 0
0.76551223 -0.13827753 -0.086900294 0
0.69770885 -0.072303295 -0.090144992 0
0.74009013 -0.061769485 -0.054588139 0
0.81291008 0.10979652 -0.082263231 0
0.86180735 0.11584663 -0.061504364 0
0.66524696 -0.022181034 -0.1079365 0
0.68345189 0.034156799 -0.087236464 0
0.74361014 0.14424706 -0.10496408 0
0.77275181 0.18123674 -0.060848355 0
0.68874192 0.20339489 -0.1139164 0
0.71128988 0.26636267 -0.072733164 0
0.67101336 0.34189558 -0.087119102 0
0.61099148 0.43246555 -0.12213504 0
0.65548372 0.44129682 -0.082221806 0
0.99040604 -0.3362174 -0.050593138 0
0.94015598 -0.27763748 -0.03154546 0
0.95004129 -0.21934509 0.0071568489 0
0.87124634 -0.20606852 -0.043987989 0
0.89505005 -0.15607214 0.0067283511 0
0.78909063 -0.14066887 -0.035108447 0
0.82821918 -0.099767685 -0.014650643 0
0.90997458 0.0013794899 -0.0098895431 0
0.93019676 0.042823792 0.014279068 0
0.74520159 -0.05001545 -0.036301553 0
0.87952876 0.065573692 -0.053218067 0
0.89589572 0.12159491 -0.007689774 0
0.83044553 0.21097946 -0.0090077519 0
0.76480842 0.29460621 -0.0021135807 0
0.79295397 0.30851316 0.020821452 0
0.73900509 0.34261513 -0.015178561 0
0.73762107 0.39938593 0.0035205483 0
0.98739552 -0.2073741 0.034982204 0
0.93668485 -0.1112957 0.054755926 0
0.98197699 -0.086876869 0.085679889 0
0.95228529 -0.0005774498 0.050266802 0
0.97596622 0.075958252 0.078956187 0
0.93376613 0.14283609 0.059201956 0
0.94167829 0.21028233 0.099516034 0
0.89280725 0.20662069 0.059771478 0
0.89380622 0.26011181 0.085259497 0
0.84588528 0.35456467 0.090298653 0
0.7966783 0.39976454 0.06844455 0
0.83211684 0.46811342 0.082236052 0
0.99669552 0.21357775 0.171094 0
0.94703507 0.29310656 0.16454959 0
0.97284913 0.31297779 0.20779502 0
0.89583373 0.33127356 0.13541996 0
0.91199255 0.41248655 0.17294043 0
0.49749422 -0.43223357 -0.44899777 0
0.36173296 -0.45665598 -0.42819005 0
0.44634962 -0.38091564 -0.44710755 0
0.47722006 -0.30417824 -0.46641347 0
0.2428453 -0.44162035 -0.41609758 0
0.31230211 -0.34935904 -0.42433965 0
0.39020467 -0.28076959 -0.44486207 0
0.45750427 -0.21107817 -0.45782816 0
0.46428609 -0.12624788 -0.4494094 0
0.21416068 -0.29205966 -0.41821131 0
0.28868771 -0.2600522 -0.43779865 0
0.37259436 -0.17367983 -0.45244646 0
0.4289217 -0.097537994 -0.45873153 0
0.43245411 -0.012260437 -0.46137375 0
0.18929672 -0.22969246 -0.42834875 0
0.21673393 -0.14313865 -0.43244904 0
0.3034842 -0.098818302 -0.44453064 0
0.35444522 -0.024672985 -0.4523173 0
0.41232872 0.059114933 -0.45494533 0
0.12922144 -0.13431764 -0.41982704 0
0.2083602 -0.024155378 -0.43475762 0
0.28277683 0.04398489 -0.44390035 0
0.35095143 0.11471176 -0.45322964 0
0.39735007 0.17840052 -0.456633 0
0.067319393 -0.059070349 -0.40568048 0
0.13160348 0.029808044 -0.42026517 0
0.21192694 0.12962294 -0.4392975 0
0.28987145 0.21857786 -0.44985771 0
0.36314893 0.29114676 -0.45590329 0
0.37919831 0.36225629 -0.45199227 0
-0.013228655 -0.015714884 -0.39749795 0
0.0055217743 0.056672335 -0.3948079 0
0.082535744 0.11423016 -0.41260478 0
0.14871097 0.18644643 -0.42081159 0
0.23523426 0.28962469 -0.44025049 0
0.27316976 0.33402061 -0.45055997 0
0.34747171 0.42066836 -0.45329016 0
-0.067313194 0.12200761 -0.38214475 0
0.048171043 0.17171621 -0.40763587 0
0.087084055 0.25939941 -0.41539037 0
0.14527845 0.33446598 -0.42281768 0
0.20097256 0.39976144 -0.43048885 0
0.27543879 0.48200583 -0.43718717 0
-0.17138076 0.15216827 -0.36265269 0
0.011237383 0.34480047 -0.3937555 0
0.075568438 0.38764787 -0.40477428 0
-0.22994328 0.17668962 -0.3559413 0
0.53482866 -0.43425155 -0.40198094 0
0.57485747 -0.40121484 -0.36368862 0
0.40706444 -0.42019176 -0.43127939 0
0.51527643 -0.36580038 -0.39875457 0
0.50919461 -0.29417253 -0.39939946 0
0.49756217 -0.22315216 -0.40358424 0
0.48812222 -0.17617083 -0.39959595 0
0.23601985 -0.32938337 -0.40784428 0
0.46650624 -0.068477154 -0.39873555 0
0.4642508 -0.01278162 -0.37951717 0
0.44541216 0.052445889 -0.39300489 0
0.40978408 0.13899708 -0.43447721 0
0.41934633 0.19979763 -0.39626274 0
0.40893316 0.27459502 -0.38614619 0
0.39497709 0.33623052 -0.39175683 0
0.39205074 0.41643143 -0.37932315 0
0.38594007 0.47416019 -0.41396397 0
-0.085130215 0.12238193 -0.37047496 0
0.023259163 0.26109028 -0.38897094 0
-0.13871813 0.19965434 -0.36542588 0
-0.073412657 0.31025958 -0.37330902 0
-0.027207851 0.28842402 -0.38064757 0
0.03903985 0.43676233 -0.3909145 0
0.12054968 0.46135092 -0.40931273 0
-0.28546953 0.22606063 -0.34099096 0
-0.20846677 0.2431891 -0.35443065 0
-0.14055252 0.32723165 -0.36482567 0
-0.071187258 0.39541197 -0.37781024 0
-0.010765076 0.45866489 -0.38758856 0
-0.33987999 0.25588989 -0.32347971 0
-0.26981974 0.32039547 -0.34062257 0
-0.21372986 0.40113711 -0.35017315 0
-0.13836169 0.46435094 -0.36064622 0
-0.42189789 0.29596138 -0.30077231 0
-0.34414673 0.36987209 -0.31822088 0
-0.28263807 0.47279 -0.33002403 0
-0.56569195 0.3062551 -0.26381508 0
-0.48165679 0.3741436 -0.28030929 0
-0.41757822 0.45551538 -0.29326454 0
-0.69386005 0.31635809 -0.23898673 0
-0.64429593 0.36217356 -0.24182722 0
-0.56639719 0.43958831 -0.25278872 0
-0.77033472 0.38149071 -0.2125594 0
-0.69807363 0.4501698 -0.22495264 0
-0.90465021 0.38213921 -0.18317705 0
-0.83055496 0.43817329 -0.19552812 0
-0.76458287 0.49754047 -0.20771015 0
-0.98531246 0.42509627 -0.15967661 0
0.75296354 -0.49462199 -0.30928677 0
0.64429665 -0.47642303 -0.34769145 0
0.67758393 -0.42439914 -0.31695169 0
0.61375308 -0.35411239 -0.32043177 0
0.64796424 -0.27914381 -0.27752766 0
0.54618788 -0.26808858 -0.32341146 0
0.58052874 -0.23119545 -0.28228447 0
0.50989795 -0.21724558 -0.32972661 0
0.51993251 -0.16276741 -0.30482492 0
0.50432634 -0.07550621 -0.30876714 0
0.4980495 -0.022190094 -0.2928189 0
0.47266579 0.064103127 -0.30920175 0
0.46743393 0.12964106 -0.29534596 0
0.45019507 0.20649147 -0.30456564 0
0.45018792 0.2771759 -0.26387841 0
0.43218327 0.26972413 -0.31169015 0
0.42490911 0.34154797 -0.30074465 0
0.41132903 0.4282856 -0.29713035 0
0.40637469 0.47745013 -0.30826876 0
0.85643458 -0.48877168 -0.24071264 0
0.78750086 -0.46719074 -0.27239445 0
0.82090759 -0.43772149 -0.22447437 0
0.76438689 -0.35721445 -0.22707814 0
0.68506742 -0.27763796 -0.23020005 0
0.72796845 -0.22969627 -0.17940497 0
0.620718 -0.1985693 -0.21726072 0
0.64090133 -0.16615582 -0.17263258 0
0.56481028 -0.14000988 -0.22218841 0
0.57521105 -0.08187294 -0.1868071 0
0.54276037 -0.023024559 -0.21307302 0
0.5567894 0.060415745 -0.18346417 0
0.50859332 0.053087234 -0.24227339 0
0.52799153 0.13482475 -0.21933818 0
0.55915117 0.19413996 -0.18446106 0
0.47934914 0.22980595 -0.24492741 0
0.52372551 0.26610899 -0.20024115 0
0.47021818 0.34444618 -0.22986102 0
0.49467397 0.41524267 -0.18976319 0
0.44634366 0.46761918 -0.22278082 0
0.91433001 -0.4941318 -0.16220951 0
0.93358874 -0.42328024 -0.10419893 0
0.85710835 -0.40662289 -0.14492106 0
0.78541327 -0.33093596 -0.15634197 0
0.82395577 -0.30746794 -0.10431278 0
0.74757361 -0.28494167 -0.15289205 0
0.7426281 -0.23220873 -0.12190592 0
0.62025714 -0.16750813 -0.15715754 0
0.68926096 -0.15901518 -0.11898041 0
0.61692071 -0.068148136 -0.12099522 0
0.59128833 -0.013215542 -0.129812 0
0.60514784 0.070812225 -0.12555212 0
0.6776011 0.14527464 -0.099289298 0
0.6163125 0.20543385 -0.12736875 0
0.62242866 0.28702879 -0.094135344 0
0.57134962 0.2744236 -0.1536321 0
0.58205962 0.34951973 -0.1178351 0
0.54749942 0.41895819 -0.1261099 0
0.59091163 0.48803759 -0.092765331 0
0.94956613 -0.44873953 -0.095124722 0
0.88529754 -0.37947512 -0.08527565 0
0.93054891 -0.33913803 -0.045847058 0
0.85124254 -0.27538157 -0.04836607 0
0.866189 -0.19986391 -0.0026783347 0
0.79241705 -0.19897938 -0.045914412 0
0.827214 -0.16295719 -0.0086098909 0
0.73407817 -0.11451006 -0.042105436 0
0.75444341 -0.092952251 -0.0033778548 0
0.8534987 0.039331913 -0.0094258189 0
0.66327405 -0.054580212 -0.049625933 0
0.68307948 -0.034946918 -0.031796515 0
0.7965107 0.11779594 -0.046120465 0
0.83040905 0.1318202 -0.016809642 0
0.64218903 0.032198906 -0.056375682 0
0.71175289 0.1708889 -0.060036957 0
0.7504313 0.1953311 -0.02425015 0
0.67079973 0.19693327 -0.068123639 0
0.67641115 0.29129505 -0.028832555 0
0.64126182 0.35827255 -0.042616308 0
0.66749144 0.44223666 -0.010120213 0
0.6190927 0.4567287 -0.043998361 0
0.95413351 -0.29347372 -0.0010381341 0
0.90476418 -0.27580833 0.0029525757 0
0.92798495 -0.20199203 0.050346076 0
0.85279298 -0.12886143 0.046330571 0
0.90263534 -0.04424572 0.068571568 0
0.77468562 -0.055868626 0.021512568 0
0.87797189 0.014499187 0.029982388 0
0.89745307 0.086000919 0.050272226 0
0.85526776 0.16574335 0.041278601 0
0.78074837 0.23447561 0.023840845 0
0.82541704 0.26836967 0.07152915 0
0.72555995 0.30902624 0.026967287 0
0.75883746 0.34303665 0.070008993 0
0.71582556 0.43035793 0.054144681 0
0.77334428 0.49702263 0.070864499 0
0.93831825 -0.055903435 0.11717302 0
0.97297001 0.019840717 0.16231847 0
0.94297266 0.084640026 0.11553758 0
0.97748399 0.15158749 0.16427487 0
0.88981342 0.17819691 0.09560436 0
0.92190146 0.20615149 0.14582372 0
0.86103368 0.30607796 0.13909984 0
0.81271029 0.36857224 0.13200289 0
0.84312844 0.43779278 0.18627727 0
0.76310635 0.43282986 0.11169058 0
0.8199544 0.47706223 0.1460737 0
0.97459197 0.2318325 0.22252542 0
0.98693943 0.28620768 0.27138513 0
0.90893674 0.31279898 0.19872016 0
0.93485618 0.34828806 0.24112004 0
0.87936234 0.42253542 0.21035838 0
0.99571609 0.37885094 0.29446125 0
0.45487356 -0.47881174 -0.4617812 0
0.5438261 -0.41159105 -0.47457099 0
0.45141435 -0.39276814 -0.46550292 0
0.53437686 -0.34570765 -0.47895086 0
0.52947712 -0.2723999 -0.47795531 0
0.26546168 -0.43539977 -0.44057611 0
0.33406234 -0.35339928 -0.45339489 0
0.43713927 -0.27275276 -0.47346324 0
0.50613642 -0.20058966 -0.48689902 0
0.12001443 -0.47103 -0.42025492 0
0.16441917 -0.42740703 -0.42988583 0
0.24126768 -0.32141137 -0.44262058 0
0.32101583 -0.27241325 -0.4605251 0
0.35134029 -0.1928494 -0.4661189 0
0.43742728 -0.12725687 -0.4700104 0
0.46711779 -0.073539257 -0.47826737 0
0.014281511 -0.45015264 -0.3989352 0
0.076039553 -0.33108759 -0.40990749 0
0.14984369 -0.29432273 -0.4320702 0
0.20715809 -0.18214178 -0.44418117 0
0.26697421 -0.15811396 -0.45936704 0
0.35392118 -0.078485012 -0.46506223 0
0.41182423 -0.0073590279 -0.47904414 0
0.45816183 0.063948154 -0.48041812 0
-0.03558135 -0.35522914 -0.39555779 0
0.026616573 -0.28262639 -0.41301498 0
0.089972973 -0.20921516 -0.42997262 0
0.15099692 -0.15035892 -0.44118631 0
0.2075398 -0.07027936 -0.45182413 0
0.29478097 -0.0025467873 -0.46315467 0
0.35287857 0.079323769 -0.47463715 0
0.43127418 0.15649462 -0.4881593 0
-0.099475145 -0.27494884 -0.39409971 0
-0.051465511 -0.21445394 -0.40222347 0
-0.00048041344 -0.12396526 -0.41308656 0
0.084399462 -0.062786102 -0.42509669 0
0.13295531 0.009134531 -0.43612653 0
0.22588491 0.078196764 -0.45570955 0
0.28973913 0.16389346 -0.46937138 0
0.40233016 0.28038645 -0.47863704 0
-0.13969231 -0.12518096 -0.38810265 0
-0.064622879 -0.069929123 -0.40144166 0
0.0089781284 -0.010996819 -0.41518107 0
0.068508387 0.083020687 -0.41969389 0
0.14730096 0.16385531 -0.43608576 0
0.21824694 0.21436691 -0.45930231 0
0.29156375 0.31877708 -0.46771705 0
0.33158302 0.3976028 -0.47152197 0
0.39824724 0.44957256 -0.4745861 0
-0.22069883 -0.10554433 -0.37717825 0
-0.13515496 -0.00027132034 -0.38749197 0
-0.064992428 0.071091175 -0.39848903 0
0.0018413067 0.1162107 -0.41010255 0
0.056417942 0.20625067 -0.42303586 0
0.12623715 0.285151 -0.43986565 0
0.1646843 0.39131355 -0.44022974 0
0.26879501 0.44769645 -0.45563582 0
-0.26116729 0.0035042763 -0.37242374 0
-0.17125988 0.053174973 -0.38215283 0
-0.1421988 0.11621976 -0.38790786 0
0.0054330826 0.25691247 -0.40989918 0
0.17620778 0.47717857 -0.4390983 0
-0.24221778 0.10100603 -0.37080592 0
0.55835223 -0.48414063 -0.46567401 0
0.57694483 -0.41196966 -0.41460985 0
0.35506797 -0.46584916 -0.44001186 0
0.54882598 -0.32747102 -0.42767486 0
0.54685616 -0.27217698 -0.42025679 0
0.28438878 -0.49809813 -0.43318117 0
0.34691119 -0.3824656 -0.43909314 0
0.52618599 -0.19584799 -0.43363044 0
0.52389312 -0.11942053 -0.40445656 0
0.5044713 -0.05330801 -0.41167983 0
0.48378921 0.013766289 -0.44244555 0
0.47630358 0.076071262 -0.42335376 0
0.46070671 0.16654825 -0.42704642 0
0.44949412 0.21361589 -0.43177551 0
0.43929911 0.29779315 -0.41870096 0
0.42490983 0.36365461 -0.43747929 0
0.4283967 0.4379971 -0.42365673 0
-0.21850681 -0.061819315 -0.36920181 0
-0.15351009 -0.0097117424 -0.37748426 0
0.21051168 0.42200613 -0.43925104 0
-0.28766966 -0.019016743 -0.35852334 0
-0.21173286 0.023495436 -0.37010264 0
-0.077484369 0.19511819 -0.39171317 0
-0.026803493 0.29959631 -0.3992902 0
0.048990011 0.37679338 -0.41468602 0
0.10033584 0.43252087 -0.42465669 0
0.18135691 0.4979651 -0.43551475 0
-0.4041636 0.0040006638 -0.33561394 0
-0.33260584 0.045707703 -0.34727541 0
-0.29985046 0.13165379 -0.35472265 0
-0.21840858 0.18308187 -0.36712515 0
-0.17584157 0.26218581 -0.3750883 0
-0.080833673 0.36509514 -0.38884845 0
-0.010734081 0.39672422 -0.40382373 0
0.022183895 0.49497819 -0.40293536 0
-0.48499823 0.058562756 -0.31616133 0
-0.42183876 0.11993289 -0.32219625 0
-0.36546469 0.18725395 -0.33407077 0
-0.29421115 0.27315354 -0.34738472 0
-0.21761274 0.36144733 -0.3628417 0
-0.13695765 0.4148562 -0.37925115 0
-0.62812853 0.10976005 -0.28159896 0
-0.55658746 0.12282658 -0.29402474 0
-0.48656297 0.20970631 -0.30512989 0
-0.41546416 0.25146723 -0.31868508 0
-0.3777523 0.31531811 -0.32683733 0
-0.28594232 0.42136478 -0.34117469 0
-0.22192287 0.47558928 -0.35712144 0
-0.70920324 0.14012766 -0.2628057 0
-0.64179063 0.17379498 -0.27203709 0
-0.55720186 0.24530292 -0.28453618 0
-0.48182583 0.34051943 -0.29785004 0
-0.44426966 0.41561246 -0.30573222 0
-0.35735488 0.46617532 -0.32379597 0
-0.77004886 0.18476868 -0.24668014 0
-0.68702698 0.26662254 -0.25794891 0
-0.622679 0.32831168 -0.26751375 0
-0.56015682 0.4043045 -0.27322778 0
-0.50085998 0.47752166 -0.28555378 0
-0.91392779 0.1921339 -0.21258062 0
-0.83578897 0.25612259 -0.22193187 0
-0.76848412 0.2978313 -0.23843953 0
-0.72694802 0.40540266 -0.23587054 0
-0.65244699 0.44889212 -0.25063452 0
-0.96940398 0.26296186 -0.192076 0
-0.89127183 0.30458164 -0.20701995 0
-0.85190105 0.37792706 -0.21093482 0
-0.77036738 0.45236111 -0.22525284 0
-0.97413492 0.37502694 -0.18075332 0
-0.93093348 0.44372392 -0.1858454 0
0.80293417 -0.49694514 -0.3269721 0
0.68155265 -0.45175409 -0.37086806 0
0.73188186 -0.40853381 -0.32729238 0
0.62233138 -0.41782045 -0.37872836 0
0.65515614 -0.32263947 -0.33250555 0
0.59305143 -0.2644341 -0.33684853 0
0.55540109 -0.18480587 -0.34737408 0
0.55244255 -0.12154722 -0.32950628 0
0.53925753 -0.059946537 -0.32485479 0
0.51861811 0.021149158 -0.33678037 0
0.51395321 0.092702866 -0.32216889 0
0.48771238 0.16197824 -0.34705591 0
0.48067737 0.23958349 -0.33415264 0
0.47318792 0.30716109 -0.32371706 0
0.46660352 0.37046719 -0.31387064 0
0.45159364 0.43329668 -0.32549584 0
0.85290885 -0.44046926 -0.26211831 0
0.84101343 -0.38680458 -0.25021002 0
0.78143907 -0.36861849 -0.28162199 0
0.80777454 -0.35777426 -0.24458668 0
0.71072888 -0.29241896 -0.28084618 0
0.73513961 -0.27553129 -0.24343145 0
0.63437104 -0.22612715 -0.27275324 0
0.66319036 -0.20496655 -0.24548048 0
0.60280466 -0.11530352 -0.23853779 0
0.57094741 -0.048500538 -0.26048899 0
0.58469176 0.02707386 -0.22012383 0
0.55231977 0.11123133 -0.26006466 0
0.58165097 0.15535259 -0.23069096 0
0.53738403 0.24167776 -0.25156242 0
0.56925511 0.3000679 -0.21161711 0
0.51986742 0.38395047 -0.23248458 0
0.55206347 0.41705084 -0.19537807 0
0.47550631 0.46149468 -0.25623006 0
0.94448876 -0.49858999 -0.19850379 0
0.96321845 -0.46869993 -0.16027898 0
0.89738131 -0.40547848 -0.17674667 0
0.83920097 -0.32536173 -0.16146719 0
0.780509 -0.24154234 -0.15635115 0
0.69956994 -0.16545057 -0.16482645 0
0.73530149 -0.1371932 -0.13309753 0
0.65009832 -0.10451746 -0.16783589 0
0.66271091 -0.043350697 -0.1199261 0
0.63072491 0.011206627 -0.15074658 0
0.66565871 0.11517572 -0.15432853 0
0.71274996 0.15293455 -0.1203137 0
0.6393559 0.1719389 -0.17382985 0
0.66630483 0.24053574 -0.1281234 0
0.60791326 0.32596302 -0.16357106 0
0.6390264 0.36541939 -0.11580539 0
0.58469439 0.43945551 -0.14783251 0
0.94314456 -0.36938763 -0.10087693 0
0.96982551 -0.33157396 -0.062065601 0
0.8741219 -0.2986784 -0.10041362 0
0.90049267 -0.24069929 -0.050048172 0
0.8027184 -0.21561098 -0.10566121 0
0.82817388 -0.18637085 -0.05990392 0
0.75993133 -0.11190319 -0.063703597 0
0.87996864 0.043625355 -0.047642946 0
0.70307326 -0.040511608 -0.064756572 0
0.83388853 0.12670755 -0.063571095 0
0.68315244 0.067761898 -0.092849076 0
0.76915169 0.18896675 -0.061677217 0
0.8126874 0.20538616 -0.039393187 0
0.70592022 0.27266407 -0.071861446 0
0.72768426 0.29069948 -0.044107258 0
0.67204118 0.31413603 -0.088065624 0
0.69304824 0.39228678 -0.043102205 0
0.63430381 0.41751814 -0.090066493 0
0.99177599 -0.28737736 -0.031222701 0
0.94688725 -0.22743654 -0.0057702065 0
0.98221159 -0.17872477 0.045321405 0
0.8799634 -0.15096855 0.0021824837 0
0.92942166 -0.12556458 0.031042635 0
0.94460464 -0.026078701 0.053562343 0
0.81595349 -0.08145237 -0.0009739995 0
0.90657902 -0.024222851 -0.0059989691 0
0.93227196 0.042338848 0.025832117 0
0.88518262 0.13380289 -0.026139379 0
0.90478182 0.15664482 0.025195897 0
0.83763146 0.25832176 0.022747517 0
0.7765007 0.34756899 0.030914545 0
0.79829049 0.36638212 0.049499571 0
0.74579072 0.37277269 -0.0050780773 0
0.74990511 0.44225216 0.019581497 0
0.96463585 -0.097682476 0.083373606 0
0.96916556 0.024015903 0.081239104 0
0.99439716 0.11051226 0.11492532 0
0.951334 0.18663883 0.09676826 0
0.96024919 0.25020981 0.14497125 0
0.89581513 0.26819181 0.088597715 0
0.91502714 0.32428885 0.14830065 0
0.85657787 0.38500452 0.11427069 0
0.89222217 0.4626689 0.13903886 0
0.80527449 0.42728615 0.081040263 0
0.96464205 0.33227539 0.20752603 0
0.9661088 0.39500618 0.22130311 0
0.91963196 0.39938784 0.18860292 0
0.9465344 0.44978857 0.2090587 0
0.88486814 -0.47695541 -0.23261553 0
0.82620144 -0.46464562 -0.26749146 0
0.84315157 -0.43368959 -0.2313605 0
0.74709153 -0.38635111 -0.29088324 0
0.77762341 -0.37295675 -0.2535674 0
0.68216491 -0.32861066 -0.29814911 0
0.68537474 -0.29476833 -0.26921803 0
0.60384035 -0.26900792 -0.30866438 0
0.61918521 -0.23557901 -0.28883138 0
0.52164745 -0.20938516 -0.3205359 0
0.53281355 -0.18031025 -0.31735259 0
0.48184943 -0.092752934 -0.33699387 0
0.46298718 -0.023508549 -0.34636131 0
0.4437201 0.035377026 -0.37952361 0
0.41851115 0.13662386 -0.39822865 0
0.38264871 0.25128794 -0.43983772 0
0.32627797 0.34163666 -0.46349788 0
0.36561871 0.38757014 -0.43790111 0
0.17309356 0.29603481 -0.44243929 0
0.2450614 0.40678191 -0.45436001 0
0.33607006 0.45828915 -0.4635672 0
0.15039086 0.35891581 -0.43987891 0
0.9322648 -0.44906378 -0.15371907 0
0.98124409 -0.40632963 -0.10720807 0
0.85342121 -0.39298153 -0.17049056 0
0.7767818 -0.31322908 -0.19836795 0
0.72225547 -0.26266289 -0.20993662 0
0.64218259 -0.19488382 -0.22757131 0
0.55670047 -0.12219524 -0.2485612 0
0.4953773 -0.046398163 -0.29253668 0
0.51078343 -0.015324593 -0.2584095 0
0.47510672 0.064443588 -0.29205412 0
0.44234705 0.12958479 -0.33754513 0
0.43819785 0.20752335 -0.31710386 0
0.41094017 0.27814865 -0.36015058 0
0.40614605 0.34278703 -0.34257925 0
0.37583637 0.41368151 -0.39106286 0
0.36008024 0.47543502 -0.44369844 0
-0.048576117 0.24865842 -0.40070477 0
0.05102253 0.3018508 -0.42077532 0
0.14932513 0.46419597 -0.43223485 0
-0.19582605 0.26070571 -0.36759454 0
-0.11691475 0.2985394 -0.38143066 0
-0.033299923 0.33935571 -0.40040356 0
0.0078220367 0.43616557 -0.40638795 0
-0.25669384 0.25240946 -0.35827592 0
-0.18917584 0.33456302 -0.37123495 0
-0.09993434 0.42792702 -0.38538277 0
0.97666264 -0.34398127 -0.074886322 0
0.88549733 -0.34330797 -0.11216593 0
0.89845729 -0.28919363 -0.068804741 0
0.81076741 -0.29940605 -0.13068998 0
0.81517887 -0.2445755 -0.087334991 0
0.73492861 -0.21311235 -0.15708786 0
0.74554181 -0.1782608 -0.11053199 0
0.67396116 -0.11948013 -0.13720638 0
0.59242463 -0.11796474 -0.18658096 0
0.60282922 -0.042287827 -0.1367799 0
0.54292822 0.028198242 -0.19209164 0
0.54969025 0.088571548 -0.1606487 0
0.50032997 0.10904837 -0.23337644 0
0.52336574 0.15976763 -0.21189409 0
0.54835224 0.26956415 -0.18525827 0
0.4627831 0.24904394 -0.26397818 0
0.49669743 0.28615093 -0.22373497 0
0.43517423 0.36548686 -0.26716888 0
0.39769816 0.4208951 -0.31326258 0
0.40453577 0.48495412 -0.27943349 0
-0.32919693 0.25827432 -0.34502685 0
-0.25981045 0.3216567 -0.35483631 0
-0.25423956 0.36623883 -0.3576898 0
-0.15670228 0.46922541 -0.37408996 0
-0.54613471 0.17988205 -0.29766491 0
-0.45748901 0.21074629 -0.31397301 0
-0.41020989 0.29791903 -0.32076269 0
-0.34836578 0.36055708 -0.33608332 0
-0.24574208 0.45289278 -0.35717413 0
-0.68184209 0.16721177 -0.26868987 0
-0.61270142 0.19274449 -0.28299776 0
-0.52625513 0.28848624 -0.29108581 0
-0.473876 0.36809921 -0.30169603 0
-0.40725088 0.44211459 -0.31812924 0
-0.32948589 0.49741077 -0.33507627 0
0.9153533 -0.246943 -0.019475281 0
0.9833703 -0.20031977 0.014183342 0
0.85024309 -0.17184639 -0.016577661 0
0.8699224 -0.15114737 0.013711512 0
0.78141928 -0.12479353 -0.037628412 0
0.78666687 -0.08586359 -0.001545608 0
0.69278836 -0.053147316 -0.05499965 0
0.73388386 -0.042766571 -0.019313335 0
0.63941026 0.0038342476 -0.068368196 0
0.64134407 0.037211895 -0.0534482 0
0.7294085 0.16047192 -0.080381453 0
0.79160857 0.17728138 -0.052502155 0
0.60057235 0.048491001 -0.097142518 0
0.59294844 0.10080767 -0.11298108 0
0.6622436 0.21946573 -0.092736363 0
0.595222 0.26297855 -0.13428277 0
0.61388278 0.33075476 -0.08964324 0
0.53374648 0.34280491 -0.17623216 0
0.56019998 0.40253186 -0.12930137 0
0.49933648 0.3770709 -0.20730889 0
0.50122714 0.45306015 -0.17479223 0
-0.82794142 0.14522648 -0.23979053 0
-0.76505351 0.22570586 -0.24685857 0
-0.68853283 0.2749989 -0.25993848 0
-0.6226275 0.37020469 -0.26383129 0
-0.54707408 0.43823647 -0.28091896 0
-0.51759148 0.49610734 -0.28890434 0
-0.9587729 0.13741946 -0.20896485 0
-0.89469361 0.21211791 -0.21965119 0
-0.8304286 0.30084324 -0.22787753 0
-0.77833796 0.38868618 -0.23186237 0
-0.70870447 0.42659998 -0.24297667 0
-0.97085524 0.23632717 -0.20237583 0
-0.89181423 0.30826831 -0.21753418 0
-0.82974648 0.3735795 -0.22099015 0
-0.75795054 0.46866941 -0.23174402 0
0.95906734 -0.14842987 0.050878346 0
0.87773705 -0.091595173 0.063907802 0
0.94061136 -0.044385433 0.10285711 0
0.82979441 -0.057080746 0.049025178 0
0.87700582 0.035057068 0.054672658 0
0.74643469 -0.01939106 0.012498975 0
0.83696699 0.1026721 -0.0078644753 0
0.8755734 0.15232658 0.044030845 0
0.80016685 0.22235346 -0.0013356209 0
0.72281647 0.30380726 -0.0086292028 0
0.6603663 0.3622489 -0.028273702 0
0.65290904 0.45063782 -0.01614809 0
0.58947086 0.43308973 -0.086373985 0
0.61415696 0.48047948 -0.039833426 0
-0.96538544 0.30159307 -0.19805843 0
-0.9085784 0.38776374 -0.20116168 0
-0.85392499 0.47109532 -0.20719844 0
-0.99815822 0.42572975 -0.17709336 0
-0.92721272 0.48884439 -0.18937346 0
0.96180081 -0.010846615 0.14717138 0
0.98261833 0.043183804 0.18165648 0
0.93068886 0.095900059 0.12034887 0
0.95269156 0.19319105 0.14526868 0
0.88824701 0.21600151 0.089925289 0
0.903265 0.25775051 0.12808764 0
0.82675767 0.27361774 0.059257984 0
0.83763003 0.30796862 0.098923385 0
0.74037695 0.33321047 0.036080539 0
0.78421235 0.36767101 0.083738744 0
0.70525932 0.44992375 0.050069988 0
0.9902873 0.13522053 0.20024329 0
0.94095492 0.28262615 0.19476843 0
0.87211251 0.3486228 0.16569299 0
0.87748146 0.41017389 0.20253634 0
0.79035115 0.43340683 0.13084579 0
0.80629683 0.47177076 0.15730256 0
0.96246171 0.31540966 0.26428819 0
0.96347308 0.38217592 0.27040422 0
0.93148923 0.44848728 0.25358087 0
0.84594703 -0.46218777 -0.27074692 0
0.78838658 -0.40499854 -0.28831768 0
0.72643399 -0.36508703 -0.3019374 0
0.41404247 0.074084759 -0.44295758 0
0.39792609 0.13685656 -0.46117091 0
0.3831892 0.20728326 -0.47698373 0
0.96997857 -0.48211098 -0.1666261 0
0.86310863 -0.44164085 -0.2075122 0
0.79489803 -0.38223219 -0.23146188 0
0.68489552 -0.33873272 -0.30891609 0
0.72695994 -0.29643488 -0.25424698 0
0.64207673 -0.24685287 -0.28007588 0
0.53192663 -0.20584106 -0.32945514 0
0.56780028 -0.18887329 -0.29396003 0
0.49790359 -0.098368168 -0.32640228 0
0.46299481 -0.038150311 -0.37263626 0
0.46587181 -0.00067424774 -0.35601786 0
0.44135857 0.091713428 -0.37719864 0
0.4286778 0.17900085 -0.36872941 0
0.40279484 0.20885134 -0.42005748 0
0.30490732 0.20860147 -0.47535339 0
0.37699771 0.29662418 -0.4439168 0
0.37029171 0.36043739 -0.44159961 0
0.13425732 0.17886448 -0.45040485 0
0.22449374 0.23993063 -0.45862395 0
0.26267886 0.36881495 -0.46896866 0
0.36353135 0.42563581 -0.45294425 0
0.35988522 0.48418355 -0.46150091 0
-0.077053308 0.15358996 -0.40433162 0
0.030268908 0.17364717 -0.42623684 0
0.039971352 0.2540884 -0.42767471 0
0.15643072 0.34696937 -0.44472331 0
0.17333078 0.44017339 -0.45106417 0
0.30239296 0.49340463 -0.47235277 0
0.91926169 -0.4641118 -0.15058178 0
0.87121749 -0.382514 -0.14006931 0
0.89983535 -0.34165382 -0.10454124 0
0.80270815 -0.31684828 -0.16766143 0
0.82654214 -0.25861979 -0.11212897 0
0.74165726 -0.24838161 -0.17217535 0
0.75776815 -0.23742485 -0.17536128 0
0.65873098 -0.19791937 -0.20508087 0
0.66346335 -0.14173412 -0.18527722 0
0.59513235 -0.15618467 -0.24521327 0
0.6049571 -0.101367 -0.18827832 0
0.53006721 -0.070250511 -0.25625905 0
0.54009461 -0.039245129 -0.23010135 0
0.49393392 0.040369034 -0.27583605 0
0.45993996 0.08595562 -0.31815869 0
0.4692862 0.15685987 -0.28732821 0
0.43458796 0.24638343 -0.32343483 0
0.41638613 0.32950616 -0.32086948 0
0.39037418 0.3941071 -0.35558322 0
0.3747139 0.44735122 -0.40012231 0
-0.22851896 0.14967823 -0.37674162 0
-0.17309928 0.19277048 -0.38634717 0
-0.061467409 0.25676608 -0.40165892 0
-0.048854828 0.3349638 -0.41060901 0
0.058903933 0.3829217 -0.42691949 0
-0.39070082 0.13249302 -0.34562385 0
-0.30479884 0.1990149 -0.3627423 0
-0.21992517 0.26375222 -0.37825501 0
-0.17412519 0.3507812 -0.38207269 0
-0.094245195 0.43226457 -0.39725938 0
-0.46921611 0.086393833 -0.32770738 0
-0.33421397 0.2676847 -0.35893801 0
-0.10981369 0.49427438 -0.39063582 0
0.93616247 -0.3085165 -0.061418593 0
0.97811103 -0.23489428 -0.013663769 0
0.85125923 -0.25323629 -0.071451545 0
0.90142632 -0.19681072 -0.012875319 0
0.78187704 -0.1898365 -0.081507802 0
0.69821477 -0.11307478 -0.11348671 0
0.60736561 -0.047242641 -0.12926829 0
0.6619277 -0.0038609505 -0.082693279 0
0.55258942 0.005926609 -0.18883264 0
0.5799582 0.074187279 -0.13526285 0
0.54892206 0.13673353 -0.19279027 0
0.59929943 0.20778704 -0.15675545 0
0.51773739 0.20036411 -0.23194414 0
0.52514744 0.28543663 -0.20718235 0
0.4670105 0.35756683 -0.24482149 0
0.47887135 0.43053746 -0.21447754 0
0.41459179 0.41545343 -0.2899797 0
0.4393878 0.49067116 -0.23927528 0
-0.60226774 0.064516068 -0.30203122 0
-0.54401064 0.11089039 -0.30890569 0
-0.48095894 0.17144966 -0.31806388 0
-0.3979342 0.27181554 -0.33713016 0
-0.28081679 0.35910869 -0.36609697 0
-0.30465317 0.4124496 -0.35759509 0
-0.20693493 0.47217774 -0.37753978 0
-0.7857821 0.025110006 -0.26584277 0
-0.7350781 0.063310385 -0.27488843 0
-0.65311027 0.11649776 -0.28701738 0
-0.59719658 0.1828928 -0.29521808 0
-0.53136992 0.26912642 -0.30334282 0
-0.48853803 0.33267927 -0.31328043 0
-0.41031981 0.43147969 -0.32313132 0
-0.31828523 0.49957609 -0.34783262 0
-0.84556985 0.021375895 -0.25166461 0
-0.78113031 0.08830905 -0.26488417 0
-0.69755793 0.19393301 -0.27692249 0
-0.62598777 0.25585175 -0.28107798 0
-0.50583243 0.39613843 -0.30350721 0
-0.43576217 0.49380589 -0.31623629 0
0.97624302 -0.18410301 0.026948631 0
0.87849903 -0.16295481 0.0062345862 0
0.83751106 -0.096040726 0.023962915 0
0.87274694 0.0034356117 0.034350514 0
0.73949766 -0.089992523 -0.037151992 0
0.75054598 -0.055370808 -0.016261578 0
0.84404755 0.067541599 -0.0091940761 0
0.85879683 0.10695982 0.0058531165 0
0.66997218 -0.037398338 -0.057451427 0
0.65855336 0.017117023 -0.038532615 0
0.75205302 0.15579557 -0.077390611 0
0.81117415 0.17005825 -0.035034359 0
0.61101413 0.086846828 -0.10085994 0
0.69266415 0.18947792 -0.080761254 0
0.75459075 0.25149155 -0.028536975 0
0.62532091 0.26189995 -0.11160934 0
0.65738297 0.28008699 -0.073924839 0
0.57019162 0.32392788 -0.14670604 0
0.58834696 0.3679564 -0.11604667 0
0.53454375 0.45252585 -0.14593345 0
-0.94241214 -0.015032053 -0.23354179 0
-0.87787175 0.053275347 -0.24322638 0
-0.82292295 0.14966202 -0.24752519 0
-0.74619174 0.1972363 -0.2607756 0
-0.68015146 0.28492689 -0.27075937 0
-0.59230971 0.36468959 -0.2808319 0
-0.52339482 0.43519926 -0.29892388 0
-0.5049839 0.48799777 -0.30270275 0
-0.9329083 0.10206485 -0.22870713 0
-0.87073803 0.19480419 -0.23473299 0
-0.8205328 0.26918674 -0.23958778 0
-0.74467778 0.33364296 -0.25213146 0
-0.68482947 0.42323041 -0.25650993 0
-0.61693001 0.48674011 -0.27430487 0
-0.99239564 0.18106818 -0.20714939 0
-0.94297361 0.24628496 -0.21555075 0
-0.89100933 0.28461242 -0.22508582 0
-0.80952263 0.38486362 -0.23508757 0
-0.74624968 0.46906495 -0.24268609 0
0.95703101 -0.054989338 0.10715026 0
0.90466952 0.0058546066 0.079695344 0
0.93029237 0.09130764 0.10627508 0
0.881706 0.17356491 0.055583775 0
0.80788255 0.24539518 0.021245778 0
0.84429073 0.27665949 0.062856436 0
0.74268174 0.28759146 -0.0067554712 0
0.75100136 0.34959555 0.034781158 0
0.68746638 0.35411835 -0.013076365 0
0.69928479 0.39545298 0.021657765 0
0.62869096 0.40110826 -0.060844481 0
0.62823129 0.47796035 -0.035524726 0
-0.98394156 0.28752613 -0.20255351 0
-0.89705324 0.35440135 -0.21681228 0
-0.85174799 0.42823839 -0.22065049 0
-0.95886087 0.43190575 -0.19348189 0
-0.92032743 0.46745372 -0.20435619 0
0.97355151 0.0044984818 0.16530615 0
0.96577144 0.093295574 0.15340447 0
0.93763256 0.23755503 0.1540764 0
0.85394406 0.32099962 0.11874104 0
0.79493546 0.38448524 0.098054707 0
0.72480154 0.44571495 0.061643004 0
0.95406985 0.29460287 0.22220367 0
0.97609949 0.34189081 0.2685768 0
0.91201687 0.33729362 0.19782507 0
0.90773797 0.3894763 0.21760923 0
0.92867088 0.49716711 0.23978764 0
0.85055375 0.47435188 0.18133837 0
0.53036475 -0.49793482 -0.43797651 0
0.51668096 -0.42840528 -0.44422942 0
0.41581845 -0.4292047 -0.43841806 0
0.50104547 -0.35013556 -0.46288773 0
0.33987713 -0.39674878 -0.43480766 0
0.41266227 -0.27713323 -0.46143761 0
0.48924756 -0.21716475 -0.45768496 0
0.47652316 -0.16036081 -0.4668828 0
0.7346828 -0.47547555 -0.33128744 0
0.64942908 -0.47996521 -0.37700206 0
0.69643784 -0.41547537 -0.33064786 0
0.56204343 -0.40927958 -0.39478186 0
0.60569549 -0.35999227 -0.35204166 0
0.52050352 -0.33988786 -0.40408099 0
0.52199531 -0.28852606 -0.39231262 0
0.49730515 -0.21524739 -0.40898174 0
0.48365545 -0.12449455 -0.39705339 0
0.1725924 -0.37905765 -0.41920933 0
0.26365399 -0.33802295 -0.4269883 0
0.33067727 -0.19326591 -0.44571552 0
0.41554022 -0.13683414 -0.46420643 0
0.4664247 -0.071695805 -0.42755452 0
0.45158577 -0.0018758774 -0.43174294 0
0.014312506 -0.48602891 -0.39377818 0
0.082511425 -0.41621375 -0.40199667 0
0.14396 -0.31388569 -0.43138853 0
0.2426672 -0.20666838 -0.4464559 0
0.32192683 -0.1086309 -0.45388657 0
0.37927198 -0.025799751 -0.4671022 0
0.43030143 0.070100307 -0.43821588 0
-0.071254969 -0.42751145 -0.37353718 0
-0.0044705868 -0.35521221 -0.39553019 0
0.060685396 -0.24446249 -0.41001207 0
0.15797424 -0.094555616 -0.43004853 0
0.22622299 -0.061477184 -0.43939504 0
0.28491616 0.026711941 -0.45091203 0
0.36686373 0.10505915 -0.46809691 0
0.40733075 0.18493414 -0.4488847 0
-0.21724129 -0.39254189 -0.35947645 0
-0.12358499 -0.37619042 -0.37379667 0
-0.15628576 -0.28231978 -0.36278543 0
-0.060804367 -0.20782995 -0.38700458 0
0.038553715 -0.10854173 -0.41172966 0
0.086496592 -0.06462121 -0.41989323 0
0.17419004 0.036415815 -0.43710783 0
0.22614241 0.1440444 -0.44631112 0
0.34699488 0.26100326 -0.45518056 0
0.38154483 0.34219575 -0.45447165 0
-0.31337619 -0.3591547 -0.34862506 0
-0.23106861 -0.30626655 -0.36170682 0
-0.18733597 -0.22319126 -0.37291962 0
-0.11269879 -0.14669919 -0.39400303 0
-0.051257849 -0.062274218 -0.3925989 0
0.016685963 0.04082346 -0.40663469 0
0.096500874 0.14852667 -0.42099315 0
0.14759135 0.25414968 -0.43184224 0
0.25799894 0.30363727 -0.45621127 0
0.3360157 0.45319843 -0.45987818 0
-0.38326478 -0.3294034 -0.33928066 0
-0.32537055 -0.23725247 -0.34903461 0
-0.25426126 -0.14603996 -0.3608928 0
-0.17364478 -0.098565817 -0.37544873 0
-0.11576343 -0.051213503 -0.38842297 0
0.0045237541 0.10742378 -0.41013211 0
0.05388093 0.22758698 -0.41693977 0
0.13271737 0.32282186 -0.43457183 0
0.24769521 0.43366098 -0.44916624 0
0.79209995 -0.43030739 -0.28289029 0
0.7848897 -0.36784315 -0.25746709 0
0.72258925 -0.37366724 -0.29373461 0
0.63575864 -0.31037855 -0.31618893 0
0.68221855 -0.26863146 -0.2697992 0
0.56790853 -0.26511383 -0.32440174 0
0.57992411 -0.18990421 -0.27883601 0
0.51873922 -0.18912268 -0.34695834 0
0.51890779 -0.12653732 -0.31558555 0
0.49951839 -0.066808224 -0.32823223 0
0.48640251 0.025231361 -0.32280886 0
0.46202016 0.072076321 -0.35802984 0
0.44978476 0.16147566 -0.35196853 0
0.42471862 0.21890831 -0.38093516 0
0.40881395 0.32396531 -0.38071871 0
0.39024496 0.45891452 -0.40215731 0
-0.43436265 -0.32018137 -0.32916534 0
-0.18520212 -0.0066978931 -0.36940002 0
-0.079594851 0.09008956 -0.38145146 0
-0.045141697 0.17343497 -0.39664456 0
0.15845942 0.42223501 -0.4336558 0
-0.51918268 -0.30554199 -0.30855864 0
-0.4609189 -0.22288656 -0.31951714 0
-0.38173795 -0.19043684 -0.33768448 0
-0.3506074 -0.036050558 -0.33639473 0
-0.27811909 -0.01977253 -0.35335529 0
-0.19172502 0.055327892 -0.37160614 0
-0.14169478 0.1331203 -0.37922102 0
-0.11837196 0.20618987 -0.38413411 0
-0.039029121 0.30737662 -0.39890936 0
0.063973665 0.37002325 -0.41721776 0
-0.65394616 -0.27852368 -0.27726677 0
-0.591676 -0.26264954 -0.29200298 0
-0.54058981 -0.19183254 -0.30326784 0
-0.459831 -0.10395527 -0.31814936 0
-0.40596533 -0.013194323 -0.33068612 0
-0.3537972 0.085316896 -0.33459255 0
-0.27809215 0.12262034 -0.35229176 0
-0.22233987 0.22508311 -0.35551193 0
-0.17086983 0.2846272 -0.36987934 0
-0.048070908 0.42247152 -0.39189008 0
0.0079820156 0.48867369 -0.40336034 0
-0.7374804 -0.26436782 -0.26542437 0
-0.65823793 -0.19177294 -0.27706563 0
-0.59350777 -0.10751534 -0.29097548 0
-0.53052473 -0.018781185 -0.305812 0
-0.47692084 0.05325985 -0.31401312 0
-0.42234874 0.098067999 -0.3244423 0
-0.3657012 0.18617654 -0.3310957 0
-0.28666973 0.29317522 -0.34893498 0
-0.17049742 0.45906615 -0.3656927 0
-0.86901498 -0.24424982 -0.2383917 0
-0.80833149 -0.20998693 -0.24908301 0
-0.75194335 -0.12870264 -0.25864571 0
-0.67213488 -0.045691013 -0.27113709 0
-0.62344956 0.0094833374 -0.2838611 0
-0.55186152 0.05989337 -0.29415536 0
-0.4900434 0.16972852 -0.30143973 0
-0.36119366 0.29592085 -0.32535204 0
-0.25298023 0.4167397 -0.34797171 0
-0.25073004 0.48306131 -0.3474794 0
0.89346671 -0.46575427 -0.18758601 0
0.92135477 -0.40232706 -0.13609844 0
0.83635068 -0.4193635 -0.20598191 0
0.83296657 -0.37204266 -0.18479657 0
0.76994777 -0.30630541 -0.19315994 0
0.70099521 -0.23090363 -0.21030825 0
0.62976217 -0.14939976 -0.2057175 0
0.56226182 -0.09212923 -0.22557855 0
0.55956435 -0.035120964 -0.20940495 0
0.52796197 0.031264782 -0.23789978 0
0.50771809 0.146029 -0.25568742 0
0.49821401 0.24133492 -0.24811566 0
0.46590567 0.24971437 -0.28239495 0
0.45353818 0.30139327 -0.28504449 0
0.43099642 0.3784616 -0.29289973 0
0.41345429 0.44070292 -0.30771261 0
-0.83106828 -0.15899348 -0.24538776 0
-0.67453623 0.031888485 -0.27419817 0
-0.58338571 0.1223855 -0.28561726 0
-0.45095038 0.30047727 -0.30375737 0
-0.35772204 0.36749697 -0.32575795 0
-0.94623899 -0.23491788 -0.22383407 0
-0.87797761 -0.17586565 -0.24028084 0
-0.83896923 -0.064060688 -0.23969924 0
-0.76179433 -0.0028171539 -0.2571314 0
-0.7091198 0.11335874 -0.25778198 0
-0.66342092 0.18028331 -0.26425946 0
-0.56270862 0.24337983 -0.27819553 0
-0.51864862 0.32367873 -0.2844587 0
-0.43871999 0.41516185 -0.30433771 0
-0.38644481 0.49291062 -0.31071806 0
-0.96037221 -0.063656569 -0.21036968 0
-0.92168283 -0.015701532 -0.22186336 0
-0.83763719 0.059414148 -0.2367743 0
-0.77994394 0.15419793 -0.24412832 0
-0.70316219 0.24997973 -0.25194806 0
-0.6312809 0.34645391 -0.25540119 0
-0.60914636 0.39817834 -0.25981984 0
-0.53675723 0.45543647 -0.27716199 0
-0.91351962 0.14168048 -0.2104823 0
-0.86773157 0.23319745 -0.21499607 0
-0.79266644 0.31306839 -0.22479358 0
-0.74179196 0.37756324 -0.23267493 0
-0.66199541 0.46108961 -0.24370071 0
0.93637705 -0.37888718 -0.095047772 0
0.98207116 -0.31835461 -0.044914484 0
0.86380339 -0.32509899 -0.11342525 0
0.89991069 -0.30349874 -0.059207141 0
0.8095386 -0.26306438 -0.11439431 0
0.79739857 -0.22531033 -0.097062826 0
0.72626829 -0.19308376 -0.14154363 0
0.73041201 -0.1456213 -0.098033726 0
0.6648531 -0.11066008 -0.12685645 0
0.60493803 -0.042660236 -0.14002061 0
0.60993576 0.081194401 -0.11817753 0
0.57905293 0.10511017 -0.16630173 0
0.63138747 0.19345236 -0.13506055 0
0.56206226 0.24736023 -0.18634212 0
0.50634122 0.33159733 -0.2192899 0
0.53121519 0.3946321 -0.17358196 0
0.46767306 0.47169924 -0.21863389 0
-0.71683264 0.45770645 -0.23474959 0
-0.97407603 0.22762132 -0.18913633 0
-0.9501152 0.30624723 -0.1903275 0
-0.86510086 0.37444997 -0.20429772 0
-0.79356837 0.42704988 -0.21659872 0
-0.95899653 0.43271303 -0.17802316 0
0.99916601 -0.27260017 -0.019681454 0
0.89333987 -0.22805452 -0.021317363 0
0.97958016 -0.20032549 0.011318743 0
0.83458638 -0.16281652 -0.017866492 0
0.83948851 -0.10432863 0.024759769 0
0.75438285 -0.10374737 -0.041236818 0
0.78103352 -0.0583148 0.0077445507 0
0.85537171 0.022010803 -0.01130271 0
0.68087983 -0.037411213 -0.053702474 0
0.72980523 0.0044951439 -0.0045971274 0
0.82441688 0.11434984 -0.0427953 0
0.82068372 0.17247915 -0.02567327 0
0.62673712 0.025790215 -0.078288734 0
0.63960123 0.085809708 -0.080466032 0
0.72895241 0.15372324 -0.077472329 0
0.77544093 0.2480073 -0.022779703 0
0.65867805 0.24494457 -0.092000425 0
0.66251612 0.29203272 -0.068463266 0
0.62863946 0.34354162 -0.089317143 0
0.62686133 0.424685 -0.059963286 0
0.59088373 0.39778805 -0.11265552 0
0.58303928 0.48293853 -0.10219961 0
0.98913956 -0.13862181 0.07179755 0
0.9015944 -0.096090317 0.064174891 0
0.93850732 -0.029375076 0.099577844 0
0.88939834 0.029829979 0.039767146 0
0.91336823 0.11436653 0.071598709 0
0.86952853 0.16969299 0.033150673 0
0.77532244 0.25968933 0.0068907142 0
0.83680248 0.27944374 0.056986213 0
0.70077634 0.32309246 -0.024953842 0
0.74684048 0.35479021 0.03580296 0
0.64639235 0.39996934 -0.03728044 0
0.68926334 0.44289899 0.0081893802 0
0.97350669 -0.0053758621 0.15809536 0
0.98260355 0.078611851 0.16404986 0
0.95892739 0.13984442 0.13291597 0
0.95162296 0.23020363 0.15747994 0
0.89375448 0.26574659 0.11983359 0
0.83987999 0.33757639 0.10874653 0
0.79106522 0.389534 0.10822064 0
0.8088274 0.48993063 0.1252569 0
0.73846722 0.45667076 0.068487525 0
0.95239043 0.2798233 0.2093206 0
0.93790698 0.38013697 0.240906 0
0.89717984 0.34164286 0.17434913 0
0.89327908 0.40855026 0.20175552 0
0.97051287 0.44819975 0.27237767 0
0.82548714 -0.4680512 -0.29717654 0
0.72667217 -0.49260235 -0.35067508 0
0.72141838 -0.40303373 -0.321951 0
0.64475775 -0.42363334 -0.36423019 0
0.55888534 -0.3677361 -0.38358995 0
0.49520659 -0.37332273 -0.43673047 0
0.50264502 -0.31863046 -0.40856326 0
0.43620729 -0.22266078 -0.46178913 0
0.46720338 -0.16832161 -0.44285253 0
0.32003045 -0.16604233 -0.46846184 0
0.43655705 -0.090826988 -0.48120642 0
0.44125009 -0.044074059 -0.44318837 0
0.19455433 -0.21614003 -0.44875664 0
0.24536824 -0.082927227 -0.46140236 0
0.35645986 -0.039628029 -0.47739837 0
0.41222143 0.054135799 -0.46934688 0
0.10378575 -0.21180248 -0.43550318 0
0.29059005 0.031451225 -0.47255951 0
0.84562659 -0.48378372 -0.24140781 0
0.78564119 -0.37662745 -0.25350228 0
0.7107873 -0.32456064 -0.28789994 0
0.62762499 -0.27329302 -0.30523065 0
0.51501107 -0.27649021 -0.36162797 0
0.54014969 -0.20728636 -0.31921181 0
0.49163961 -0.14602184 -0.36201501 0
0.47002339 -0.070976734 -0.37137899 0
0.45853925 -0.088356018 -0.40610287 0
0.46234012 0.0054478645 -0.37318686 0
0.42763042 0.073907375 -0.42573449 0
0.42072845 0.13348866 -0.41828689 0
0.0007212162 -0.20878386 -0.4122656 0
0.13754201 -0.12316012 -0.44494486 0
0.17324877 -0.016099453 -0.44713905 0
0.39225054 0.17255211 -0.44181111 0
0.38804317 0.26212931 -0.44695801 0
-0.099042177 -0.21127844 -0.40200886 0
0.029132605 -0.1193068 -0.42229864 0
0.040340424 -0.054474354 -0.42442611 0
0.040719509 0.026631355 -0.42180729 0
0.14862204 0.075661421 -0.44699392 0
0.24526715 0.13756609 -0.4621217 0
0.28196621 0.27986145 -0.47012317 0
0.36791277 0.32412815 -0.45654026 0
-0.29463243 -0.25504446 -0.36244226 0
-0.22264838 -0.26765704 -0.37501377 0
-0.1736517 -0.12621379 -0.3878732 0
-0.07262969 -0.11049628 -0.41433802 0
-0.063965559 0.022360802 -0.40125182 0
-0.013547659 0.054876566 -0.41694146 0
0.11440849 0.1714983 -0.44383386 0
0.13522673 0.27182746 -0.44590589 0
0.28939891 0.39296007 -0.47142202 0
0.34315825 0.47443628 -0.4755823 0
0.92445183 -0.45387936 -0.15535724 0
0.98553038 -0.42174149 -0.11849475 0
0.87577415 -0.39669371 -0.16163629 0
0.88877845 -0.35338926 -0.11274409 0
0.82077265 -0.34233665 -0.17727959 0
0.79755998 -0.3095789 -0.16032213 0
0.72292042 -0.27036619 -0.22456819 0
0.72758508 -0.2095623 -0.17125332 0
0.64062262 -0.21962214 -0.23288786 0
0.66894126 -0.19326782 -0.20775723 0
0.56708574 -0.17332125 -0.26855141 0
0.57711506 -0.10535812 -0.22617871 0
0.52830005 -0.1199851 -0.29305285 0
0.51363897 -0.025319099 -0.26751444 0
0.47251225 0.042584896 -0.3267456 0
0.47747755 0.09180975 -0.29023829 0
0.44522309 0.14933777 -0.3446025 0
0.41257548 0.22457433 -0.38214168 0
0.41611624 0.28237653 -0.35160765 0
0.39070535 0.37353754 -0.37519529 0
0.37643313 0.44812107 -0.39811471 0
0.010690451 0.14093542 -0.4224655 0
0.36720777 0.47735524 -0.4360036 0
-0.46505952 -0.28351235 -0.33730823 0
-0.37100983 -0.22433448 -0.35360616 0
-0.30307627 -0.15677905 -0.36892807 0
-0.25776458 -0.03732276 -0.37524801 0
-0.19132948 -0.0045440197 -0.38743314 0
-0.11418533 0.08645606 -0.39693823 0
-0.01066184 0.24058533 -0.41246089 0
0.10757852 0.37479877 -0.43977019 0
0.19469142 0.49140096 -0.44710031 0
-0.59613991 -0.29719067 -0.30573931 0
-0.54669356 -0.22138095 -0.31546536 0
-0.45318294 -0.15971303 -0.33453596 0
-0.35726142 -0.054231405 -0.35863292 0
-0.30747199 0.022871971 -0.36407688 0
-0.3148129 0.06723547 -0.3662031 0
-0.2184577 0.15598536 -0.37431553 0
-0.11876273 0.22376013 -0.39507416 0
-0.02926898 0.34099054 -0.41064286 0
0.060057878 0.47225094 -0.42509782 0
