# .PCD v0.7 - Point Cloud Data file format
VERSION 0.7
FIELDS x y z intensity
SIZE 4 4 4 4
TYPE F F F F
COUNT 1 1 1 1
WIDTH 1278
HEIGHT 1
VIEWPOINT 0 0 0 1 0 0 0
POINTS 1278
DATA ascii
0.16858292 -0.44493675 -0.50519943 0
0.1460762 -0.33199787 -0.49026489 0
0.12028122 -0.26845169 -0.48092079 0
0.08820343 -0.12910843 -0.46887302 0
0.068336487 -0.055641174 -0.46567917 0
0.0082321167 0.01895237 -0.44314098 0
0.092445374 -0.46494865 -0.47159958 0
0.056007385 -0.39962864 -0.45585537 0
0.043348312 -0.28493595 -0.44040871 0
0.011728287 -0.2194767 -0.43748188 0
-0.032173157 -0.068321228 -0.42209148 0
-0.02709198 -0.41514301 -0.41792011 0
-0.048025131 -0.32795048 -0.40491867 0
-0.06980896 -0.21290684 -0.39723396 0
-0.097425461 -0.14857674 -0.38752842 0
-0.10748672 -0.44902611 -0.37971592 0
-0.14336205 -0.34120464 -0.3678484 0
-0.18829918 -0.24831295 -0.35196781 0
-0.19155502 -0.16457558 -0.34738922 0
-0.2448082 -0.097605705 -0.32796001 0
-0.29610443 -0.0063123703 -0.30208015 0
-0.21647453 -0.49980068 -0.3365593 0
-0.22140884 -0.36439514 -0.33167648 0
-0.27331734 -0.28989983 -0.30878353 0
-0.28860283 -0.18792152 -0.30608177 0
-0.32398224 -0.093380928 -0.28726292 0
-0.2819252 -0.49775219 -0.30070019 0
-0.30356407 -0.41373634 -0.29152966 0
-0.33192062 -0.30812263 -0.2860651 0
-0.3787899 -0.23671627 -0.26483536 0
-0.41497421 -0.11975098 -0.25281429 0
-0.42508888 -0.027855873 -0.24879837 0
-0.50577736 0.045375824 -0.21856499 0
-0.50227165 0.15103436 -0.21694469 0
-0.41225052 -0.46473026 -0.25581455 0
-0.43463326 -0.35305691 -0.2448082 0
-0.47484016 -0.22509098 -0.22411633 0
-0.49538422 -0.14050198 -0.21916008 0
-0.52871132 -0.04486084 -0.20446968 0
-0.55668831 0.061250687 -0.18888092 0
-0.58274078 0.14893436 -0.1782589 0
-0.48714066 -0.47826004 -0.21917152 0
-0.5136013 -0.40059376 -0.20600605 0
-0.54423904 -0.29366398 -0.18907833 0
-0.5799942 -0.1973896 -0.18190289 0
-0.61342239 -0.090952873 -0.16414547 0
-0.64019585 0.017987251 -0.16273689 0
-0.67380524 0.083918571 -0.13980198 0
-0.57749176 -0.49726486 -0.17500877 0
-0.60475731 -0.43714237 -0.16900158 0
-0.60817719 -0.30705929 -0.16692924 0
-0.66453171 -0.22097588 -0.14118099 0
-0.69341087 -0.076135635 -0.13231659 0
-0.75408936 -0.04074955 -0.10824203 0
-0.70612144 0.037209511 -0.12351418 0
-0.74795914 0.14097118 -0.10171127 0
-0.69098282 -0.45698071 -0.13104057 0
-0.70105553 -0.35751915 -0.1299963 0
-0.7247982 -0.24057007 -0.11770153 0
-0.77181625 -0.20101357 -0.098914146 0
-0.80693436 -0.087660789 -0.078496933 0
-0.8211689 0.02941227 -0.079665184 0
-0.84207535 0.1187048 -0.061922073 0
-0.86639023 0.21947193 -0.058831215 0
-0.78318977 -0.49989796 -0.093443871 0
-0.78606033 -0.39422417 -0.090712547 0
-0.82252693 -0.3218441 -0.076889038 0
-0.85437012 -0.22933865 -0.066156387 0
-0.87970734 -0.11866188 -0.050915718 0
-0.91008949 -0.025129318 -0.040315628 0
-0.9304142 0.07598114 -0.031479836 0
-0.98342705 0.20826721 -0.0062541962 0
-0.90938187 -0.43573666 -0.044382095 0
-0.94276428 -0.32423401 -0.033876419 0
-0.90932655 -0.23201466 -0.036651611 0
-0.98133087 -0.16219521 -0.016512871 0
0.99357605 -0.27086449 -0.81636429 0
0.95274925 -0.1753397 -0.83610249 0
0.98418999 -0.46016216 -0.84844971 0
0.96086693 -0.37285995 -0.84444141 0
0.94501877 -0.29634094 -0.84796238 0
0.38457298 -0.47507286 -0.52404404 0
0.35344124 -0.38445568 -0.48938084 0
0.340765 -0.31007671 -0.4695673 0
0.29594994 -0.39491463 -0.51303387 0
0.27052498 -0.31201267 -0.48429394 0
0.22793961 -0.23960018 -0.4726963 0
0.20261383 -0.13767052 -0.44483852 0
0.15453529 -0.050330162 -0.44792747 0
0.11261177 0.014038086 -0.43138599 0
0.063140869 0.16611195 -0.45615292 0
0.019834518 0.22435856 -0.45090675 0
0.039604187 0.38164711 -0.4523325 0
0.11086464 -0.16900349 -0.4684782 0
0.043153763 -0.037623405 -0.44659138 0
0.027978897 0.048822403 -0.44361401 0
-0.0064430237 0.14068031 -0.42862511 0
-0.030763626 0.24286079 -0.41631031 0
-0.060434341 0.32271004 -0.40339756 0
-0.11430359 0.35864353 -0.37656021 0
-0.10728073 0.48872757 -0.38531113 0
0.0044803619 -0.12614441 -0.42779922 0
-0.067253113 0.015185356 -0.39922619 0
-0.082231522 0.14208221 -0.39103031 0
-0.15959358 0.34004593 -0.35811424 0
-0.21261406 0.45257282 -0.3398571 0
-0.12924957 -0.024640083 -0.37206459 0
-0.17545509 0.045343399 -0.34570217 0
-0.17980576 0.14278316 -0.35041237 0
-0.21984863 0.23426437 -0.33270073 0
-0.23986626 0.33219624 -0.31851482 0
-0.2979641 0.43475056 -0.2974472 0
-0.21388817 -0.052001953 -0.32776737 0
-0.22899628 0.049710274 -0.31681824 0
-0.28476715 0.1171751 -0.29859543 0
-0.32399559 0.16827393 -0.29320335 0
-0.33641052 0.30671597 -0.28018093 0
-0.36904144 0.42512703 -0.26489353 0
-0.3256855 0.010614395 -0.28284073 0
-0.37900925 0.092798233 -0.26242828 0
-0.40694046 0.17143726 -0.25439548 0
-0.46001244 0.2872839 -0.22938061 0
-0.44840622 0.39982224 -0.23358059 0
-0.44085693 0.086657524 -0.23563004 0
-0.51972771 0.18092442 -0.1989727 0
-0.5166626 0.29159641 -0.1989193 0
-0.54893875 0.37142849 -0.19200802 0
-0.60761833 0.1649456 -0.15880394 0
-0.59863281 0.25539112 -0.16874123 0
-0.64128685 0.34938145 -0.15158844 0
-0.66354752 0.49797535 -0.12964725 0
-0.68247986 0.20189285 -0.12927055 0
-0.72816467 0.2583189 -0.10864449 0
-0.72824097 0.36404228 -0.10872173 0
-0.8043251 0.24613476 -0.07995224 0
-0.83185005 0.36372471 -0.065538406 0
-0.86199951 0.48214436 -0.051697731 0
-0.89644051 0.23791122 -0.037321091 0
-0.93755722 0.35569096 -0.022106171 0
0.5198822 -0.45114613 -0.46731567 0
0.49299622 -0.35300255 -0.43448353 0
0.47085571 -0.299119 -0.41308403 0
0.44677925 -0.45650387 -0.49021435 0
0.42855644 -0.36981773 -0.45597935 0
0.39019966 -0.27761745 -0.43023682 0
0.35198975 -0.18811417 -0.41079712 0
0.3296299 -0.099374771 -0.38844585 0
0.28051758 0.00021648407 -0.381217 0
0.31694221 -0.29721165 -0.44521141 0
0.28613853 -0.19410038 -0.42486763 0
0.25389099 -0.088990211 -0.40755367 0
0.18972969 -0.005358696 -0.40449142 0
0.21313667 0.068799973 -0.38865185 0
0.65903854 -0.41508484 -0.41050339 0
0.62836647 -0.2938509 -0.38289356 0
0.61549759 -0.4660387 -0.45438194 0
0.58623314 -0.41511822 -0.42609978 0
0.54277992 -0.32922935 -0.40724182 0
0.52755356 -0.24147129 -0.37464809 0
0.47185326 -0.15823936 -0.35957718 0
0.43437576 -0.05039978 -0.34624672 0
0.40556526 -0.14221287 -0.37690735 0
0.35322189 -0.056102753 -0.35890388 0
0.31887245 0.028045654 -0.35813713 0
0.80289841 -0.46968174 -0.37465858 0
0.76704216 -0.36448193 -0.34781647 0
0.75307846 -0.48509407 -0.38955593 0
0.7195282 -0.38325119 -0.3795557 0
0.67635345 -0.3042469 -0.35055447 0
0.64667511 -0.20606518 -0.32300377 0
0.6084137 -0.13013554 -0.30551624 0
0.55611038 -0.17663765 -0.34040642 0
0.55048561 -0.11693192 -0.31148911 0
0.50320625 -0.036619186 -0.32024384 0
0.9521637 -0.42650032 -0.30869007 0
0.90024948 -0.3396244 -0.2834053 0
0.87207794 -0.43665981 -0.32158566 0
0.80861092 -0.36332893 -0.3206749 0
0.82419968 -0.25980568 -0.29301643 0
0.76885605 -0.1813736 -0.27937889 0
0.71172905 -0.11130238 -0.26566505 0
0.69024658 -0.15676403 -0.28127003 0
0.65797424 -0.076459885 -0.27714634 0
0.95794106 -0.12417412 -0.23232651 0
0.9850769 -0.41553116 -0.2738266 0
0.95730972 -0.32429409 -0.25697708 0
0.91321373 -0.20935726 -0.2517767 0
0.87234497 -0.14919567 -0.24052811 0
0.81906509 -0.15190125 -0.25028229 0
0.98284912 0.058806419 -0.91307831 0
0.98644257 -0.43987846 -0.85505772 0
0.95376015 -0.34857464 -0.85374832 0
0.94687462 -0.21451855 -0.85547352 0
0.94432449 -0.1822834 -0.85683537 0
0.30299568 -0.4535408 -0.54679871 0
0.28256416 -0.34695721 -0.53240967 0
0.23208237 -0.44071102 -0.52298737 0
0.21399117 -0.36515331 -0.5171175 0
0.17477417 -0.27922344 -0.49820423 0
0.17408562 -0.18913078 -0.49516869 0
0.11668968 -0.075349808 -0.47576618 0
0.059577942 0.19983292 -0.46460247 0
0.059270859 0.36336899 -0.45946789 0
0.024469376 0.48772049 -0.45449448 0
0.13988686 -0.46386528 -0.48313332 0
0.11894798 -0.38138199 -0.48328495 0
0.080341339 -0.27261543 -0.46561909 0
0.082279205 -0.20530891 -0.4618988 0
0.03981781 -0.114501 -0.44584084 0
0.028558731 -0.0091772079 -0.4412508 0
0.0059108734 0.085053444 -0.43535423 0
0.0031795502 0.20560646 -0.43159676 0
-0.021549225 0.32874489 -0.42835712 0
0.0088653564 -0.39338875 -0.43449402 0
0.016958237 -0.27539539 -0.42772198 0
-0.0073318481 -0.22947693 -0.42798901 0
-0.066015244 -0.12853813 -0.40146255 0
-0.074581146 -0.01057148 -0.39329147 0
-0.088569641 0.060332298 -0.39775753 0
-0.11175156 0.17794609 -0.38125992 0
-0.13959885 0.30469704 -0.37136936 0
-0.16720772 0.45488739 -0.36057663 0
-0.06595993 -0.43234634 -0.39746475 0
-0.069038391 -0.3388176 -0.39848137 0
-0.10982513 -0.23909283 -0.38294411 0
-0.097946167 -0.096940994 -0.37613678 0
-0.15955925 -0.027924538 -0.35679054 0
-0.16552734 0.067206383 -0.35727692 0
-0.21384239 0.14100742 -0.34352493 0
-0.2270031 0.29480457 -0.32814121 0
-0.26329422 0.2982502 -0.30879593 0
-0.25287437 0.4413805 -0.31648254 0
-0.15034676 -0.46787548 -0.36187458 0
-0.16695023 -0.35397434 -0.35713387 0
-0.20279884 -0.24944687 -0.34126949 0
-0.21796608 -0.1677103 -0.34000778 0
-0.26117897 -0.067389488 -0.31876373 0
-0.28257561 0.041082382 -0.30747986 0
-0.27497101 0.15125275 -0.30915165 0
-0.31152534 0.29735756 -0.28580761 0
-0.33919907 0.40221596 -0.28295422 0
-0.24085236 -0.480443 -0.31916237 0
-0.24803162 -0.34796429 -0.32217121 0
-0.27845001 -0.27707863 -0.30292892 0
-0.30360794 -0.17926216 -0.28974724 0
-0.32191658 -0.072887421 -0.29157543 0
-0.36187935 0.0062055588 -0.27041435 0
-0.37353516 0.13119698 -0.26992893 0
-0.40575409 0.26292229 -0.25448608 0
-0.42476273 0.40945625 -0.23692608 0
-0.3742733 -0.38753319 -0.27245617 0
-0.41555214 -0.2882967 -0.24627304 0
-0.37608528 -0.19811058 -0.2607851 0
-0.43831635 -0.10186958 -0.24650383 0
-0.45755196 0.082256317 -0.22999191 0
-0.50001717 0.25209808 -0.21156597 0
-0.53957748 0.36950684 -0.19203663 0
-0.45295143 -0.41726398 -0.22955322 0
-0.45191383 -0.32456303 -0.22924709 0
-0.49561501 -0.20778561 -0.21476936 0
-0.51845932 -0.10845661 -0.20903969 0
-0.55279541 -0.021571159 -0.20146465 0
-0.55509949 0.060548782 -0.19092846 0
-0.5892849 0.1255846 -0.16852951 0
-0.58839607 0.23843193 -0.16986084 0
-0.63383293 0.3535881 -0.14927197 0
-0.6595993 0.48231888 -0.13544941 0
-0.54497719 -0.4629488 -0.18944168 0
-0.54594421 -0.31824207 -0.18643188 0
-0.56796074 -0.21955681 -0.17995453 0
-0.61306763 -0.16856766 -0.16050529 0
-0.56974602 -0.10149765 -0.17918777 0
-0.64572906 -0.0060720444 -0.15059662 0
-0.66198158 0.11224651 -0.13992214 0
-0.67918968 0.21158504 -0.13640404 0
-0.72446442 0.33090973 -0.11719418 0
-0.62033081 -0.46900463 -0.1581459 0
-0.64537239 -0.36428642 -0.15218735 0
-0.66061401 -0.24117184 -0.14195824 0
-0.68829155 -0.19251537 -0.13212967 0
-0.70332146 -0.13187313 -0.12485981 0
-0.71965408 -0.023533821 -0.12004948 0
-0.75052834 0.081368446 -0.10737705 0
-0.76225853 0.20140839 -0.1046257 0
-0.79164505 0.35751057 -0.081692696 0
-0.85214233 0.49168587 -0.054506302 0
-0.74302483 -0.41338062 -0.11147404 0
-0.77775383 -0.28296471 -0.097945213 0
-0.81691933 -0.18626881 -0.086177826 0
-0.76513863 -0.10375881 -0.10466671 0
-0.82831955 -0.045620918 -0.072128296 0
-0.84332657 0.06348896 -0.066836357 0
-0.86020088 0.19591713 -0.061682701 0
-0.90729523 0.3545866 -0.033847809 0
-0.93782806 0.49147034 -0.017474174 0
-0.84560394 -0.42399311 -0.067614555 0
-0.88901138 -0.32309818 -0.054320335 0
-0.86355209 -0.22775745 -0.061936378 0
-0.92029381 -0.17311478 -0.028518677 0
-0.89924431 -0.072662354 -0.044654846 0
-0.94783783 0.036665916 -0.024642944 0
-0.97211456 0.16277313 -0.019280434 0
-0.91292381 -0.44839764 -0.034086227 0
-0.95385742 -0.33493137 -0.026031494 0
-0.96953392 -0.17481899 -0.0086393356 0
-0.98254776 -0.099850655 -0.01606369 0
0.98921394 -0.26033688 -0.84283543 0
0.43888283 -0.43025303 -0.48980236 0
0.41386032 -0.34693909 -0.47643185 0
0.3549366 -0.42266655 -0.51062393 0
0.3191433 -0.35699368 -0.49212551 0
0.31428719 -0.25077915 -0.45411873 0
0.2402153 -0.12586594 -0.44583416 0
0.2534523 -0.078225136 -0.43009472 0
0.2351532 -0.23861217 -0.47540283 0
0.19359589 -0.12058353 -0.471838 0
0.19039917 -0.06019783 -0.43243885 0
0.14605713 0.0054311752 -0.43340111 0
-0.13813591 0.49323463 -0.36236572 0
0.58845901 -0.49438572 -0.46795845 0
0.53978348 -0.38828182 -0.44373131 0
0.52136612 -0.2675066 -0.42058182 0
0.51178169 -0.48371506 -0.47621727 0
0.47803688 -0.39568043 -0.45203018 0
0.46121979 -0.30162907 -0.4234848 0
0.4276886 -0.22839546 -0.40828323 0
0.4252243 -0.13912773 -0.38246536 0
0.37031937 -0.043213844 -0.36815548 0
0.3921833 -0.31229401 -0.44272232 0
0.36859131 -0.20587635 -0.41963863 0
0.32827187 -0.14151192 -0.40808868 0
0.28614044 -0.052542686 -0.39463806 0
0.25448418 0.017971039 -0.3851862 0
0.69431496 -0.45435524 -0.42399979 0
0.68691254 -0.37646675 -0.3922987 0
0.64325714 -0.44595909 -0.43682575 0
0.62652206 -0.35587025 -0.40331841 0
0.57236671 -0.29015541 -0.38282681 0
0.54532433 -0.19827271 -0.35608768 0
0.53137589 -0.10824013 -0.32593727 0
0.51498985 -0.25622654 -0.39340115 0
0.48549843 -0.19182301 -0.37205029 0
0.45404434 -0.094047546 -0.35197735 0
0.42241859 -0.025541306 -0.3460865 0
0.82417679 -0.42910576 -0.33764744 0
0.79931068 -0.49421978 -0.38181973 0
0.78294754 -0.46090794 -0.37092495 0
0.74412918 -0.36373711 -0.3591156 0
0.72007179 -0.26022053 -0.33076382 0
0.68624306 -0.17452908 -0.30039978 0
0.65104485 -0.098283768 -0.28895569 0
0.65450668 -0.25415993 -0.33291721 0
0.61565781 -0.18911839 -0.32828045 0
0.59460068 -0.064681053 -0.30412292 0
0.99356461 -0.48016453 -0.31816196 0
0.96430016 -0.4093647 -0.29746723 0
0.89641762 -0.4057579 -0.31013584 0
0.85199928 -0.31436539 -0.30209064 0
0.834692 -0.22322273 -0.2826004 0
0.79982758 -0.14512062 -0.25896835 0
0.7783947 -0.19937611 -0.27481079 0
0.73101807 -0.15956306 -0.27090645 0
0.98565865 -0.31742382 -0.24434853 0
0.92672539 -0.2240324 -0.25633812 0
0.96540642 -0.42990971 -0.26732159 0
0.8869133 -0.19830227 -0.25397301 0
-0.60336685 -0.25305843 -0.18379688 0
-0.72809792 -0.44802094 -0.12191105 0
-0.78386879 -0.29486275 -0.10738945 0
-0.78339386 -0.1418438 -0.10326672 0
-0.86227798 0.10131454 -0.073815346 0
-0.85487938 -0.45142078 -0.073158264 0
-0.86920357 -0.31434155 -0.069065094 0
-0.89301872 -0.19411469 -0.06303215 0
-0.94915199 -0.061131477 -0.035778999 0
-0.9275074 -0.48749924 -0.038967133 0
-0.9636898 -0.34068203 -0.030311584 0
-0.96715546 -0.1787796 -0.022017479 0
-0.98618698 -0.039354324 -0.014222145 0
0.9922142 -0.25703144 -0.83737087 0
0.98751831 -0.14833736 -0.84211445 0
0.9306736 -0.41612053 -0.84497261 0
0.94734192 -0.3905077 -0.8609333 0
0.92731857 -0.25438404 -0.85800552 0
0.38312149 -0.48230839 -0.53025055 0
0.29563332 -0.4633112 -0.53975582 0
0.2753067 -0.36213875 -0.51595879 0
0.24541092 -0.28227901 -0.49470043 0
0.21624565 -0.1631279 -0.47804451 0
0.17762947 -0.47454929 -0.51189804 0
0.17882156 -0.38968754 -0.51634979 0
0.16788292 -0.27900887 -0.50493908 0
0.15650558 -0.18261719 -0.47439098 0
0.13010979 -0.069904327 -0.4734354 0
0.14295769 -0.031697273 -0.45033836 0
0.07651329 0.058478355 -0.4651413 0
0.042924881 0.17080784 -0.45988464 0
0.044616699 0.32387638 -0.45944023 0
0.012132645 0.48368454 -0.4521389 0
0.082677841 -0.48939705 -0.46831608 0
0.098802567 -0.3826189 -0.47277355 0
0.078578949 -0.29557323 -0.46747589 0
0.070228577 -0.21122646 -0.46739864 0
0.023366928 -0.077921867 -0.44141579 0
0.012804031 0.021726608 -0.44608116 0
-0.023792267 0.036262512 -0.42394638 0
0.0046024323 0.17409039 -0.43667698 0
-0.03824234 0.28871155 -0.42581272 0
-0.06627655 0.46378708 -0.41495132 0
-0.0082473755 -0.40667915 -0.42910004 0
-0.02630043 -0.31598473 -0.42394829 0
-0.041416168 -0.22692871 -0.41943359 0
-0.05175972 -0.10420132 -0.41486454 0
-0.078594208 0.016210556 -0.40350723 0
-0.082300186 0.1324234 -0.40496159 0
-0.10730171 0.27969551 -0.38881779 0
-0.14137459 0.43783951 -0.38110161 0
-0.086538315 -0.41740131 -0.39455986 0
-0.12346268 -0.3203516 -0.37807465 0
-0.14413643 -0.23703766 -0.37317276 0
-0.12304306 -0.10806561 -0.38159657 0
-0.14413261 -0.039387703 -0.36799335 0
-0.18258476 0.0099163055 -0.35242081 0
-0.16978073 0.13250542 -0.36070251 0
-0.20415688 0.25725555 -0.34358501 0
-0.23774529 0.41465282 -0.33220577 0
-0.18499184 -0.4518671 -0.35213757 0
-0.22945976 -0.35164642 -0.33399296 0
-0.22199249 -0.24541092 -0.33671379 0
-0.2762146 -0.14679527 -0.31509018 0
-0.24416733 -0.073198318 -0.32784939 0
-0.26214981 0.11480045 -0.31909466 0
-0.30349731 0.23945522 -0.29910278 0
-0.32296371 0.41334057 -0.28356457 0
-0.27511406 -0.46882057 -0.30934811 0
-0.30953217 -0.36782265 -0.29927826 0
-0.30409431 -0.2592535 -0.29976559 0
-0.34391212 -0.15693378 -0.28625679 0
-0.33423996 -0.040194511 -0.29292488 0
-0.34563446 0.12113762 -0.27653599 0
-0.4021492 0.23054981 -0.25585747 0
-0.43124199 0.36206436 -0.24624538 0
-0.38013268 -0.49731541 -0.2682457 0
-0.39811516 -0.40085411 -0.26409626 0
-0.39297295 -0.2892704 -0.26365376 0
-0.42303276 -0.16283989 -0.24896049 0
-0.40258408 -0.046844482 -0.26274204 0
-0.44392586 -0.009967804 -0.23028851 0
-0.46326637 0.077900887 -0.23516178 0
-0.46710014 0.22489643 -0.22722912 0
-0.50348473 0.34187508 -0.21524906 0
-0.46624374 -0.4057579 -0.22795868 0
-0.48613167 -0.32792473 -0.2271204 0
-0.51127243 -0.21194649 -0.21947861 0
-0.52031517 -0.034568787 -0.20017433 0
-0.5568428 0.064752579 -0.1941843 0
-0.55876923 0.19054317 -0.19026756 0
-0.58599472 0.312994 -0.18154049 0
-0.58849335 0.49510098 -0.16722202 0
-0.55272293 -0.44546318 -0.19388294 0
-0.57211304 -0.33286095 -0.18124294 0
-0.5923481 -0.22445107 -0.18031216 0
-0.60545731 -0.080856323 -0.17166805 0
-0.65384102 0.045701981 -0.15212536 0
-0.66025925 0.16674519 -0.14699459 0
-0.65920258 0.3103323 -0.14515781 0
-0.71039009 0.46615505 -0.11873913 0
-0.64275169 -0.45614147 -0.15020275 0
-0.66026115 -0.36262894 -0.14632416 0
-0.68251991 -0.22361374 -0.13392353 0
-0.70205688 -0.098889351 -0.13019466 0
-0.72046471 0.041841507 -0.11978149 0
-0.75925064 0.13249588 -0.11486721 0
-0.80633926 0.29259014 -0.087428093 0
-0.73885727 0.31690788 -0.10888386 0
-0.80762863 0.44879723 -0.083395958 0
-0.76552773 -0.38579941 -0.099369049 0
-0.80982208 -0.12479115 -0.082596779 0
-0.80143547 0.010282516 -0.088834763 0
-0.81532669 0.11865807 -0.091923714 0
-0.85058975 0.30165958 -0.06567955 0
-0.88529587 0.45709801 -0.047981262 0
-0.89946938 -0.1459446 -0.04093647 0
-0.87809944 -0.015096664 -0.05725193 0
-0.92795944 0.10597706 -0.037510872 0
-0.979002 0.25223637 -0.020620346 0
-0.92230797 0.27752495 -0.041016579 0
-0.97626686 0.44807148 -0.0098781586 0
0.51213646 -0.46309471 -0.47419357 0
0.44267654 -0.45952034 -0.48876762 0
0.39562988 -0.36268616 -0.47395039 0
0.37226868 -0.27902985 -0.43325901 0
0.32003975 -0.33041573 -0.47479343 0
0.29389954 -0.24356556 -0.44625664 0
0.30376816 -0.16653824 -0.41942024 0
0.27405739 -0.11094761 -0.41684818 0
0.25686836 0.019151688 -0.39603615 0
0.1952877 -0.05547905 -0.42927742 0
0.63837624 -0.44525719 -0.43735313 0
0.56030655 -0.41408539 -0.43979073 0
0.53723335 -0.33819675 -0.41338825 0
0.51688004 -0.25573158 -0.38727379 0
0.47512627 -0.34106827 -0.42780781 0
0.44185257 -0.26751041 -0.41797352 0
0.4228878 -0.18145847 -0.38824177 0
0.42002678 -0.077968597 -0.36153221 0
0.33851242 -0.014406204 -0.36669636 0
0.33123589 -0.063217163 -0.38371944 0
0.28741646 0.055176735 -0.37430668 0
0.74523926 -0.37491894 -0.36491299 0
0.71564102 -0.4783802 -0.42298889 0
0.6828804 -0.41948986 -0.39543533 0
0.66372681 -0.30986977 -0.36423206 0
0.64231682 -0.23705959 -0.33795166 0
0.63702011 -0.1716013 -0.31506729 0
0.58013916 -0.24111748 -0.35645866 0
0.54035187 -0.14927483 -0.33975792 0
0.54140854 -0.073890686 -0.31559372 0
0.89283562 -0.49184322 -0.35399151 0
0.8144722 -0.49226379 -0.36519814 0
0.84157562 -0.38562202 -0.32602215 0
0.79232979 -0.30402088 -0.32091999 0
0.77849007 -0.20877361 -0.28815174 0
0.74917603 -0.15004253 -0.26692295 0
0.71449852 -0.21362305 -0.31099415 0
0.67616653 -0.11963177 -0.28554344 0
0.95446968 -0.45880795 -0.30611134 0
0.94888306 -0.37066746 -0.27458286 0
0.93269539 -0.2014389 -0.2589817 0
0.84824753 -0.28673649 -0.2835722 0
0.83991814 -0.18959999 -0.25840855 0
0.80045128 -0.1469698 -0.26154423 0
0.99209595 -0.33248425 -0.24031544 0
0.98588943 0.25789547 -0.91553593 0
0.95472908 0.10000324 -0.90554142 0
0.90481377 -0.19464493 -0.85066509 0
0.22223091 -0.47510529 -0.52734566 0
0.15220833 -0.46620178 -0.49158382 0
0.16031456 -0.36116314 -0.4972868 0
0.13955688 -0.25638294 -0.4872818 0
0.085346222 -0.48272324 -0.46363831 0
0.066242218 -0.38572121 -0.45861149 0
0.034614563 -0.26108074 -0.43737888 0
0.092191696 -0.15154552 -0.47404194 0
0.056163788 -0.13035202 -0.44822884 0
-0.0081996918 -0.48287868 -0.41879845 0
0.00014686584 -0.36492348 -0.42101192 0
-0.041837692 -0.276968 -0.40736771 0
-0.032152176 -0.1372118 -0.41019058 0
-0.0019054413 0.0044527054 -0.42423916 0
-0.073177338 0.10100746 -0.40576458 0
-0.099250793 0.4659729 -0.39200115 0
-0.10111809 -0.37087536 -0.37460804 0
-0.12624741 -0.28339958 -0.36979008 0
-0.12625122 -0.14938641 -0.37062836 0
-0.13891411 -0.031689644 -0.37144184 0
-0.17856598 0.12176609 -0.34693909 0
-0.17602921 0.24240971 -0.3545332 0
-0.11360168 0.2722044 -0.3768959 0
-0.20002365 0.44047737 -0.3437624 0
-0.21391487 -0.41220856 -0.32801914 0
-0.21674919 -0.29801464 -0.33065796 0
-0.21043587 -0.17433071 -0.33818245 0
-0.25601959 -0.043740273 -0.31640434 0
-0.26246071 0.094152451 -0.314188 0
-0.22463608 0.24533463 -0.32942677 0
-0.28429794 -0.42942429 -0.29839993 0
-0.29986954 -0.30751896 -0.29239559 0
-0.30408669 -0.19760799 -0.29899502 0
-0.3338871 -0.055729866 -0.28272915 0
-0.32496262 0.10634327 -0.27974319 0
-0.32374382 0.24330616 -0.28080273 0
-0.33877373 0.40525246 -0.27834129 0
-0.36473846 -0.45792294 -0.27118778 0
-0.4004631 -0.3379631 -0.25191593 0
-0.3856678 -0.19328976 -0.25857162 0
-0.40268707 -0.060996056 -0.2527914 0
-0.40394211 0.10501099 -0.24428272 0
-0.39084625 0.21522713 -0.2596817 0
-0.41827393 0.24604702 -0.23764229 0
-0.44953918 0.39468384 -0.22668076 0
-0.46688843 -0.44687748 -0.21479607 0
-0.4943676 -0.37129307 -0.21421337 0
-0.48693085 -0.22684288 -0.21806049 0
-0.51208305 -0.095503807 -0.21233368 0
-0.45363808 -0.062512398 -0.22946167 0
-0.51671982 0.073976517 -0.2019701 0
-0.51066971 0.22215176 -0.20187187 0
-0.53256989 0.3770237 -0.1899519 0
-0.5662632 -0.49765778 -0.17924118 0
-0.60355759 -0.40499401 -0.16775227 0
-0.53894043 -0.35609627 -0.18414211 0
-0.57810593 -0.24703217 -0.17672729 0
-0.60434532 -0.10788536 -0.16816807 0
-0.5511055 -0.08433342 -0.18787956 0
-0.62539291 0.052220345 -0.15738487 0
-0.5914402 0.20513344 -0.16567516 0
-0.61359787 0.35995293 -0.15332413 0
-0.69690704 -0.41981888 -0.12704659 0
-0.61700249 -0.35347557 -0.14379978 0
-0.66255569 -0.2471447 -0.13540268 0
-0.67559814 -0.1065731 -0.13388062 0
-0.69121361 0.061647415 -0.1221056 0
-0.68419647 0.17201233 -0.13255501 0
-0.70691872 0.34454632 -0.11580372 0
-0.72176743 -0.40038681 -0.10777378 0
-0.7723484 -0.28872585 -0.095897675 0
-0.77894783 -0.12861538 -0.091497421 0
-0.78175735 0.027935028 -0.088523865 0
-0.80072784 0.16705227 -0.082852364 0
-0.77222443 0.33404541 -0.092056274 0
-0.77936745 0.4930172 -0.088851929 0
-0.83421326 -0.47675705 -0.07172966 0
-0.87374115 -0.32098675 -0.056012154 0
-0.86321259 -0.16044617 -0.059038162 0
-0.87075806 -0.014503479 -0.058130264 0
-0.91324997 -0.0097417831 -0.0343647 0
-0.90930748 0.10220528 -0.051070213 0
-0.8676281 0.32488823 -0.055131912 0
-0.96981812 -0.37221336 -0.024279594 0
-0.944067 -0.1874609 -0.027691841 0
-0.97325516 -0.029491425 -0.012952805 0
-0.97508621 0.12145996 -0.013234138 0
-0.9889946 0.3157692 -0.005572319 0
-0.98417282 0.46659184 -0.010728836 0
0.99608231 0.23640633 -0.87134838 0
0.99205399 -0.32296085 -0.82263184 0
0.99229622 -0.2461319 -0.81342602 0
0.9207077 -0.43388844 -0.83230209 0
0.91897583 -0.27176189 -0.8361702 0
0.37421036 -0.48562908 -0.52310181 0
0.3455658 -0.38272762 -0.48918533 0
0.28988266 -0.44409943 -0.53379631 0
0.26607132 -0.35248756 -0.51292706 0
0.26396751 -0.26791477 -0.48247051 0
0.23102188 -0.20512962 -0.45483208 0
0.2103157 -0.43516064 -0.50993061 0
0.19003296 -0.17173481 -0.46173668 0
0.16892433 -0.083909035 -0.44906235 0
0.13645554 0.0045776367 -0.42832184 0
0.09463501 -0.23070049 -0.4554224 0
0.075342178 -0.0022706985 -0.45447063 0
0.021673203 0.15015793 -0.43639755 0
0.031564713 0.32184029 -0.43977642 0
0.0019340515 -0.45433426 -0.41522503 0
-0.012046814 -0.11014366 -0.41085625 0
-0.046964645 0.009809494 -0.4022131 0
-0.048973083 0.30592728 -0.40072727 0
-0.10364532 0.1634388 -0.36979771 0
-0.13049507 0.48589897 -0.36625767 0
-0.1829834 0.0013437271 -0.3378334 0
-0.2500515 0.27385902 -0.30672073 0
-0.23950958 0.45191097 -0.31564808 0
0.49919319 -0.46372795 -0.47424984 0
0.46624184 -0.38329887 -0.45605183 0
0.44037247 -0.43073082 -0.47248936 0
0.42134094 -0.36559391 -0.45738983 0
0.38531113 -0.26766968 -0.42375374 0
0.39249992 -0.16904163 -0.39980602 0
0.31720924 -0.18065071 -0.41482639 0
0.28419876 -0.10965633 -0.40501022 0
0.32712555 -0.017848969 -0.37241268 0
0.23663902 -0.053329468 -0.39918137 0
0.23711395 -0.02117157 -0.38110065 0
0.72226143 -0.4881258 -0.44442081 0
0.63618279 -0.45308876 -0.43723011 0
0.63449287 -0.38087463 -0.3863821 0
0.55563545 -0.46690273 -0.44352722 0
0.55717087 -0.35331154 -0.40701675 0
0.51299286 -0.27076149 -0.38786793 0
0.49854088 -0.18537235 -0.35846901 0
0.50750542 -0.10027409 -0.32984257 0
0.46485138 -0.30178356 -0.40593243 0
0.43339729 -0.13464642 -0.36365795 0
0.43767929 -0.085199356 -0.33863258 0
0.39662552 -0.0081386566 -0.34523106 0
0.36939049 -0.079600334 -0.36364937 0
0.33264542 0.04172039 -0.35315418 0
0.7657547 -0.45988083 -0.38102531 0
0.75178719 -0.34846973 -0.35334873 0
0.69669342 -0.4109745 -0.39897633 0
0.68431473 -0.33721447 -0.36385059 0
0.67163467 -0.25286579 -0.33543682 0
0.63114929 -0.1550293 -0.2996273 0
0.61031723 -0.21904373 -0.32880402 0
0.5784626 -0.13696861 -0.31244659 0
0.59082794 -0.032362938 -0.2867136 0
0.89397049 -0.44735146 -0.32308388 0
0.86867332 -0.25217628 -0.27933788 0
0.83940697 -0.40895939 -0.30962467 0
0.81321716 -0.32364559 -0.31634235 0
0.81430817 -0.2391777 -0.2803421 0
0.76409912 -0.12486935 -0.24968243 0
0.72856331 -0.22948074 -0.29811192 0
0.71141243 -0.14679909 -0.27761078 0
0.9591713 -0.43379688 -0.27621555 0
0.95129204 -0.33258915 -0.25239849 0
0.93030548 -0.20820713 -0.25476074 0
0.92380714 -0.17732811 -0.23619747 0
0.83602333 -0.14908791 -0.24231052 0
0.23890305 -0.41747856 -0.52318096 0
0.14366531 -0.42290974 -0.48023605 0
0.17152214 -0.30263805 -0.49883556 0
0.15308952 -0.13916492 -0.48380184 0
0.055475235 -0.42790699 -0.44109726 0
0.084749222 -0.29994583 -0.45678616 0
0.068704605 -0.15920925 -0.45048904 0
0.08467865 -0.0023336411 -0.45616055 0
0.057544708 0.14362717 -0.44714069 0
-0.062221527 -0.43148804 -0.39053917 0
-0.0170784 -0.30648518 -0.41401672 0
-0.023593903 -0.14916134 -0.40717316 0
-0.0099124908 -0.033151627 -0.42343235 0
0.0032157898 0.1404047 -0.4202919 0
0.022752762 0.32011032 -0.44197845 0
-0.017187119 0.33996964 -0.41411018 0
-0.12902451 -0.44453049 -0.36200142 0
-0.093313217 -0.28417683 -0.37353611 0
-0.10934067 -0.17001438 -0.37623978 0
-0.10217094 -0.01071167 -0.37547684 0
-0.085435867 0.12418938 -0.38493061 0
-0.073448181 0.33605862 -0.38576794 0
-0.23155212 -0.48174095 -0.32089615 0
-0.19535637 -0.29540348 -0.33095169 0
-0.18662834 -0.17324924 -0.34219074 0
-0.20631981 -0.025298119 -0.33097744 0
-0.17452812 0.11000252 -0.34812546 0
-0.17162514 0.29498577 -0.34836102 0
-0.30923462 -0.46536541 -0.28192139 0
-0.30013657 -0.31829834 -0.28959179 0
-0.29917908 -0.20376492 -0.29887867 0
-0.26920509 -0.011037827 -0.29587269 0
-0.26573563 0.09048748 -0.31122303 0
-0.2646656 0.28084087 -0.30763721 0
-0.24429321 0.49562263 -0.32110119 0
-0.41273308 -0.48234463 -0.24213696 0
-0.42113304 -0.37052345 -0.24918652 0
-0.3912468 -0.19292068 -0.25465679 0
-0.35551071 -0.011208534 -0.25891876 0
-0.35051346 0.1239233 -0.26303959 0
-0.3374157 0.29201794 -0.27094936 0
-0.36195183 0.4626236 -0.26622486 0
-0.30846977 0.47249031 -0.2942152 0
-0.49501228 -0.35264397 -0.20667362 0
-0.49229813 -0.20344734 -0.20973301 0
-0.44551277 -0.028303146 -0.22492123 0
-0.44786644 0.096057892 -0.22974396 0
-0.42623329 0.28524113 -0.23572636 0
-0.44870949 0.44861984 -0.22503948 0
-0.56109619 -0.49887657 -0.17282295 0
-0.59378052 -0.36660862 -0.16288662 0
-0.57791519 -0.23528767 -0.17839527 0
-0.54451561 -0.066421509 -0.19220448 0
-0.54824448 0.080342293 -0.19074249 0
-0.52898788 0.25580978 -0.19555855 0
-0.53269768 0.45336533 -0.18253803 0
-0.66073036 -0.35965538 -0.13050365 0
-0.63737869 -0.2115202 -0.14352703 0
-0.64150047 -0.058508873 -0.14455605 0
-0.61597633 0.089594841 -0.15534306 0
-0.64118195 0.25287056 -0.1418581 0
-0.60555267 0.43165588 -0.15393639 0
-0.75048447 -0.38818169 -0.098443985 0
-0.74753571 -0.23182297 -0.10093689 0
-0.74650764 -0.059967995 -0.097744942 0
-0.69626427 0.057138443 -0.13184452 0
-0.7334156 0.099150658 -0.10144806 0
-0.7510128 0.227911 -0.10445118 0
-0.69245338 0.42704487 -0.11612797 0
-0.84894943 -0.4118185 -0.057772636 0
-0.8735714 -0.26582241 -0.053184509 0
-0.85265732 -0.10469246 -0.061962128 0
-0.83228302 0.058904648 -0.068465233 0
-0.79299355 0.26400757 -0.077787399 0
-0.78755188 0.44495964 -0.074602127 0
-0.94213104 -0.43111134 -0.014769554 0
-0.95134735 -0.27000713 -0.019470215 0
-0.93881035 -0.12101746 -0.027001381 0
-0.93931961 0.057694435 -0.019337654 0
-0.948452 0.21279144 -0.026680946 0
-0.8614006 0.25784016 -0.05230999 0
-0.8897686 0.45281219 -0.032329559 0
-0.9976635 -0.25049782 0.0042142868 0
-0.99532127 0.23680878 0.00048828125 0
0.98630524 -0.30827618 -0.81978416 0
0.98427582 0.18395042 -0.85057926 0
0.92076302 -0.43285942 -0.83644485 0
0.92955589 -0.19147301 -0.81365395 0
0.34885025 -0.45532608 -0.5124855 0
0.34626579 -0.35616016 -0.48069572 0
0.26860237 -0.34653378 -0.49821281 0
0.27582741 -0.25628567 -0.45087051 0
0.2154808 -0.24570179 -0.48123169 0
0.20163155 -0.11687088 -0.44092655 0
0.1322422 -0.036313057 -0.43615532 0
0.47486496 -0.45870495 -0.4695015 0
0.49048042 -0.3751955 -0.43337345 0
0.38203621 -0.401577 -0.46313572 0
0.42469978 -0.33086205 -0.42985725 0
0.41864967 -0.24479008 -0.39746761 0
0.33790398 -0.30906677 -0.45136452 0
0.33863449 -0.227211 -0.42200565 0
0.34268188 -0.14189339 -0.38991165 0
0.29831314 -0.070957184 -0.38344193 0
0.32282257 0.02557373 -0.3618679 0
0.22020531 -0.015925407 -0.38333416 0
0.67236519 -0.48466015 -0.43513298 0
0.60593987 -0.47126579 -0.43686581 0
0.6143074 -0.36826992 -0.39166832 0
0.52181244 -0.34832287 -0.40254879 0
0.57240105 -0.26780415 -0.36571503 0
0.48621559 -0.24896431 -0.38000107 0
0.4815464 -0.11850166 -0.34306908 0
0.43322945 -0.04432869 -0.32775974 0
0.38916016 -0.020771027 -0.34522057 0
0.7679615 -0.47930336 -0.37456703 0
0.73390579 -0.38330746 -0.3646965 0
0.7454586 -0.28580666 -0.31894588 0
0.70004654 -0.33715153 -0.35074711 0
0.6734581 -0.24285126 -0.33094311 0
0.69466782 -0.20222092 -0.30211639 0
0.61088371 -0.28363705 -0.35027599 0
0.59795952 -0.15235901 -0.30674362 0
0.96050453 -0.47940063 -0.31517315 0
0.89315796 -0.4584322 -0.3184433 0
0.87200356 -0.30156517 -0.28680038 0
0.82625771 -0.45197105 -0.33302021 0
0.81550026 -0.36992836 -0.30849838 0
0.82471848 -0.25537777 -0.2831955 0
0.80576324 -0.1800766 -0.25435925 0
0.76706505 -0.21525764 -0.27812481 0
0.70654678 -0.16182137 -0.27172661 0
0.66024971 -0.070683479 -0.26704121 0
0.94379616 -0.47274017 -0.29598713 0
0.93614197 -0.38986874 -0.27122211 0
0.95393753 -0.31044292 -0.23858929 0
0.96925163 -0.19674587 -0.22727585 0
0.88765907 -0.22580719 -0.24934864 0
-0.35588455 -0.49795628 -0.27370453 0
-0.33415794 -0.37336731 -0.29213238 0
-0.4310627 -0.49695396 -0.24242878 0
-0.43486404 -0.25638485 -0.25556374 0
-0.51196671 -0.34337234 -0.20269966 0
-0.49764252 -0.22045803 -0.21634293 0
-0.65821457 -0.4981041 -0.14201164 0
-0.63222504 -0.40728951 -0.16947746 0
-0.58274841 -0.23987293 -0.18393993 0
-0.58722115 -0.06426239 -0.18418312 0
-0.71331406 -0.36938667 -0.12506199 0
-0.71405792 -0.24858665 -0.13276958 0
-0.63857651 -0.22916031 -0.15765572 0
-0.62232399 -0.035618782 -0.16066647 0
-0.64153862 0.092551231 -0.16402054 0
-0.81035042 -0.37714005 -0.086604118 0
-0.7801857 -0.26268101 -0.10985279 0
-0.78874397 -0.19447327 -0.08645153 0
-0.72779083 -0.056740761 -0.12354565 0
-0.69465828 0.11368465 -0.13801384 0
-0.89145279 -0.38347912 -0.052713394 0
-0.8693428 -0.22920609 -0.061190605 0
-0.83211327 -0.026765823 -0.069083214 0
-0.82619858 0.11330032 -0.085374832 0
-0.74480057 0.14080906 -0.11165237 0
-0.93414688 -0.24140835 -0.036725998 0
-0.92211151 -0.038233757 -0.032828331 0
-0.85847664 0.15997601 -0.057481766 0
-0.84802055 0.30684853 -0.071140289 0
-0.98957825 0.12204266 -0.015826225 0
-0.94429207 0.33377075 -0.028017044 0
0.98363113 -0.44796467 -0.85346508 0
0.90777206 -0.40810394 -0.8401413 0
0.94186783 -0.2068243 -0.86917782 0
0.34541321 -0.45538044 -0.53952217 0
0.31317902 -0.38500977 -0.50795078 0
0.23754311 -0.39837456 -0.53698349 0
0.24000168 -0.32763577 -0.50661182 0
0.13821983 -0.37902832 -0.4937849 0
0.16420364 -0.21761417 -0.48817348 0
0.20289421 -0.13261032 -0.44770622 0
0.029687881 -0.46845531 -0.43364143 0
0.016374588 -0.37015343 -0.43899441 0
0.051280975 -0.26888275 -0.46273422 0
0.11378098 -0.06143856 -0.46992779 0
0.12978745 0.017918587 -0.43772507 0
-0.087226868 -0.49958801 -0.39145184 0
-0.030639648 -0.48346043 -0.41305542 0
-0.039892197 -0.34019661 -0.40732861 0
-0.00872612 -0.23868084 -0.42989826 0
0.037014008 -0.058033943 -0.44502354 0
0.039493561 0.097468376 -0.45490551 0
-0.12799644 -0.35005569 -0.37354279 0
-0.1285553 -0.24202633 -0.3819294 0
-0.088537216 -0.074027061 -0.3986578 0
-0.051931381 0.098653793 -0.41385937 0
0.025249481 0.32173729 -0.44778156 0
-0.22191811 -0.34411907 -0.33009148 0
-0.22039413 -0.2248745 -0.33771992 0
-0.18270302 -0.040691376 -0.34718704 0
-0.13397217 0.1127224 -0.37406158 0
-0.089792252 0.32393646 -0.39096928 0
-0.036018372 0.31954575 -0.41886806 0
-0.038970947 0.49013519 -0.43488598 0
-0.35670662 -0.34167004 -0.27234268 0
-0.29363632 -0.20937061 -0.30146503 0
-0.28691101 -0.074411392 -0.31082726 0
-0.22398186 0.10879135 -0.33560658 0
-0.18057632 0.31663132 -0.34874821 0
-0.43244553 -0.33873177 -0.23747444 0
-0.34712791 -0.20031071 -0.27675056 0
-0.36272812 -0.047857285 -0.27278709 0
-0.32594299 0.13943481 -0.28278828 0
-0.24956322 0.34058475 -0.30991364 0
-0.43986893 -0.030816078 -0.23661327 0
-0.42909431 0.13647938 -0.24263668 0
-0.35839844 0.2782774 -0.282444 0
-0.40000916 0.32883549 -0.25205326 0
-0.28452492 0.48265362 -0.31604671 0
-0.49952888 -0.02398777 -0.21007061 0
-0.50094604 0.1213007 -0.21805668 0
-0.47587013 0.30137539 -0.22600746 0
-0.42416382 0.48036957 -0.24145126 0
-0.54743767 0.14699936 -0.19079971 0
-0.56083107 0.31212807 -0.1830368 0
-0.51345062 0.48691368 -0.19860363 0
-0.67499161 0.28329659 -0.14105225 0
-0.60508919 0.49001026 -0.15522194 0
-0.73247337 0.30434895 -0.11452579 0
-0.80558968 0.48803139 -0.079082489 0
0.44043732 -0.49519348 -0.50338268 0
0.44031715 -0.40361977 -0.46278191 0
0.37099075 -0.44301033 -0.49999714 0
0.39118958 -0.35013866 -0.46013069 0
0.33213806 -0.32113647 -0.46831417 0
0.3051033 -0.24145222 -0.45089436 0
0.35484695 -0.16798401 -0.40493774 0
0.27937889 -0.11625004 -0.42323112 0
0.19604874 -0.0160923 -0.41441345 0
0.69355774 -0.46770954 -0.45366478 0
0.60124779 -0.42547894 -0.43113518 0
0.50513268 -0.44175053 -0.46505928 0
0.51617241 -0.36323166 -0.43601227 0
0.52088356 -0.29730034 -0.40210629 0
0.45188713 -0.23449326 -0.39560699 0
0.43417549 -0.15725994 -0.37776375 0
0.39754105 -0.11184692 -0.37172031 0
0.36831093 -0.038421631 -0.36504459 0
0.31162643 -0.018389702 -0.38305473 0
0.71437073 -0.42508507 -0.40097618 0
0.65387344 -0.41097546 -0.40518093 0
0.65018463 -0.29754257 -0.37329865 0
0.58169174 -0.24706745 -0.35195827 0
0.59024048 -0.18398666 -0.34476757 0
0.52756691 -0.16322231 -0.33528805 0
0.55881119 -0.08698082 -0.31526947 0
0.45911026 -0.033661842 -0.3370285 0
0.87061882 -0.45363808 -0.33375645 0
0.78743744 -0.4304266 -0.36183548 0
0.79217148 -0.31672382 -0.32650757 0
0.78895569 -0.25003624 -0.30798912 0
0.70078278 -0.26095772 -0.33389378 0
0.74904251 -0.19221783 -0.29552555 0
0.74913025 -0.090023994 -0.26462078 0
0.65018845 -0.17229748 -0.30661011 0
0.65244484 -0.10937214 -0.27434731 0
0.99678612 -0.45333672 -0.29518318 0
0.92887688 -0.43608856 -0.29983521 0
0.92529678 -0.36924171 -0.28027916 0
0.92952347 -0.22565174 -0.2650547 0
0.84575462 -0.24761486 -0.28042889 0
0.87482071 -0.16779327 -0.25841045 0
0.8005867 -0.17025661 -0.26437378 0
0.97277069 -0.34006691 -0.24731064 0
-0.64227676 -0.41328335 -0.15242958 0
-0.63908958 -0.24374104 -0.15580559 0
-0.72364616 -0.43918324 -0.12730408 0
-0.76122475 -0.40923119 -0.10355473 0
-0.69789124 -0.24268246 -0.13266277 0
-0.85542107 -0.42911053 -0.069769859 0
-0.79297638 -0.23390675 -0.092691422 0
-0.75695992 -0.048703194 -0.10732269 0
-0.75467491 0.11540318 -0.11480808 0
-0.92766571 -0.40302849 -0.028551102 0
-0.86877441 -0.20882797 -0.053397179 0
-0.85018158 -0.048818588 -0.068060875 0
-0.81761169 0.14331818 -0.082154274 0
-0.95726395 -0.25086784 -0.028983116 0
-0.95664024 -0.055384636 -0.024496078 0
-0.94610405 0.15391064 -0.02551651 0
-0.89339447 0.30164051 -0.054445267 0
-0.96251869 0.32921696 -0.021968842 0
0.99207306 -0.46939945 -0.84603882 0
0.96737671 -0.3353157 -0.84122372 0
0.91833496 -0.21597004 -0.84213734 0
0.97352982 0.19290733 -0.8777256 0
0.33727074 -0.49789715 -0.53773499 0
0.26671219 -0.44577599 -0.53601837 0
0.29426575 -0.3691206 -0.50472355 0
0.18564034 -0.4483633 -0.51193142 0
0.21307182 -0.32366943 -0.4943819 0
0.084568024 -0.43913937 -0.46490097 0
0.12065125 -0.3020649 -0.48955917 0
0.16040611 -0.17665482 -0.47425079 0
0.16945839 -0.098485947 -0.4427824 0
0.011518478 -0.43339252 -0.43352318 0
0.012224197 -0.288867 -0.43951225 0
0.082841873 -0.1187973 -0.47192192 0
0.13071442 0.0021333694 -0.45401096 0
-0.067436218 -0.41945267 -0.39788437 0
-0.06710434 -0.26126289 -0.4004221 0
0.023550034 -0.12846661 -0.44869995 0
-0.031106949 -0.10425377 -0.42081642 0
0.030033112 0.097186089 -0.44239235 0
0.063465118 0.3120079 -0.45816612 0
-0.18045998 -0.43035221 -0.35236168 0
-0.14581299 -0.25790787 -0.36778831 0
-0.095491409 -0.10302544 -0.39519215 0
-0.13832474 -0.073644638 -0.36881828 0
-0.073352814 0.088293076 -0.40170956 0
-0.014465332 0.27477169 -0.43369389 0
-0.28303528 -0.42406654 -0.30498409 0
-0.24801445 -0.2825861 -0.33322239 0
-0.17351151 -0.050522804 -0.34644604 0
-0.17227554 0.081130028 -0.36171246 0
-0.11295319 0.27336121 -0.38698673 0
-0.37152481 -0.41825104 -0.2706356 0
-0.33180809 -0.27092075 -0.29449272 0
-0.31765747 -0.070352554 -0.29067898 0
-0.23681259 -0.046216011 -0.31728745 0
-0.24217606 0.12217712 -0.31898785 0
-0.2178421 0.25277424 -0.3435297 0
-0.46834755 -0.40475178 -0.22427082 0
-0.42251587 -0.40766811 -0.2452774 0
-0.44037628 -0.25218391 -0.24332523 0
-0.37637901 -0.069508553 -0.26746559 0
-0.34414482 0.11825657 -0.27782249 0
-0.34056664 0.2609911 -0.28808308 0
-0.2580471 0.29247475 -0.31429482 0
-0.55552292 -0.40455341 -0.18561172 0
-0.52204704 -0.24242973 -0.20501709 0
-0.46659851 -0.05330658 -0.22713947 0
-0.44095802 0.13066292 -0.23684025 0
-0.41201782 0.27082062 -0.25809574 0
-0.56602287 -0.22998428 -0.18183613 0
-0.58163261 -0.030571938 -0.17285824 0
-0.53063583 0.14784336 -0.19679642 0
-0.48264313 0.26725101 -0.22981644 0
-0.68488693 -0.04582119 -0.13627148 0
-0.60746002 0.13357353 -0.16674042 0
-0.57320595 0.27913284 -0.18489838 0
-0.66515541 0.15059662 -0.13822365 0
-0.67714882 0.27200031 -0.14003277 0
-0.65570641 0.47128105 -0.14818001 0
-0.76698685 0.32222462 -0.094887733 0
-0.86938667 0.16587162 -0.054102898 0
0.96191406 -0.31524849 -0.7160759 0
0.43182755 -0.4832468 -0.49244022 0
0.41882324 -0.41661549 -0.46723461 0
0.35935974 -0.43784237 -0.50713825 0
0.34419441 -0.35692883 -0.46268368 0
0.28907585 -0.31294346 -0.45340919 0
0.27556229 -0.20867348 -0.43427944 0
0.25665092 -0.12077999 -0.41676903 0
0.26495934 -0.045605659 -0.38375854 0
0.1782608 -0.01766777 -0.40728283 0
0.57595444 -0.49552441 -0.45366096 0
0.55621338 -0.43249702 -0.42428017 0
0.4894352 -0.46194363 -0.46199131 0
0.4854641 -0.36715031 -0.42751789 0
0.49896812 -0.2059536 -0.3831749 0
0.42999268 -0.26058102 -0.4081974 0
0.412714 -0.1546917 -0.37788296 0
0.32795143 -0.14122009 -0.38725662 0
0.37488556 -0.063393593 -0.35000896 0
0.69011497 -0.49365139 -0.43549919 0
0.68363953 -0.44043827 -0.39220905 0
0.61341858 -0.399333 -0.40037823 0
0.63651848 -0.31015587 -0.3574419 0
0.57062912 -0.25459862 -0.35383034 0
0.55740356 -0.16191769 -0.31978798 0
0.48881531 -0.17013073 -0.34904671 0
0.49819374 -0.067733765 -0.31713676 0
0.82195473 -0.45434666 -0.34469986 0
0.71760941 -0.4066925 -0.36130524 0
0.76311111 -0.32290268 -0.31527615 0
0.71187401 -0.21740055 -0.29903221 0
0.6343708 -0.18144989 -0.29259872 0
0.59233093 -0.060004234 -0.28801823 0
0.96891594 -0.47077751 -0.3057251 0
0.96173477 -0.40238857 -0.27429771 0
0.87581253 -0.41648006 -0.29196072 0
0.91961288 -0.33572102 -0.25733757 0
0.82608223 -0.29886246 -0.27837086 0
0.78194427 -0.21626472 -0.27047253 0
0.84850883 -0.15872192 -0.24669838 0
0.71861267 -0.1491394 -0.25307369 0
0.96889305 -0.35514832 -0.22920609 0
0.97075081 -0.24585438 -0.21157646 0
-0.55628967 -0.28494167 -0.19347477 0
-0.63405991 -0.45224285 -0.15678883 0
-0.73418045 -0.45970154 -0.12053871 0
-0.68480682 -0.26281261 -0.13775063 0
-0.8782444 -0.4479332 -0.056670189 0
-0.82221794 -0.44145775 -0.081376076 0
-0.8213501 -0.2453289 -0.081506729 0
-0.93762016 -0.4300251 -0.027334213 0
-0.87462044 -0.24196339 -0.058556557 0
-0.83846092 -0.055915833 -0.075592041 0
-0.95724869 -0.25116539 -0.029366493 0
-0.95014191 -0.061570168 -0.031580925 0
-0.87153435 0.14050007 -0.059868813 0
0.98809242 -0.48150921 -0.85708904 0
0.98631668 -0.38638687 -0.85054398 0
0.95569992 -0.28072739 -0.84761333 0
0.98168182 0.17329693 -0.86463737 0
0.34807587 -0.47909451 -0.5399971 0
0.2944603 -0.41967678 -0.53001595 0
0.24008369 -0.3505373 -0.50961971 0
0.230896 -0.24636173 -0.48269367 0
0.13470459 -0.3481102 -0.48876286 0
0.1686554 -0.19390774 -0.49552059 0
0.064947128 -0.32317162 -0.45236683 0
0.12657356 -0.13594437 -0.47197723 0
0.10502243 0.028674126 -0.46180916 0
-0.083721161 -0.49935341 -0.39243031 0
-0.035415649 -0.32322979 -0.4141016 0
0.011405945 -0.13922691 -0.434165 0
0.019517899 0.046503067 -0.43794537 0
0.082889557 0.32939148 -0.46140862 0
-0.18832397 -0.49491882 -0.34402943 0
-0.11968803 -0.29331398 -0.37320995 0
-0.093381882 -0.14329147 -0.39553261 0
-0.043121338 0.058589935 -0.40977192 0
-0.017002106 0.27272892 -0.43389416 0
-0.27952576 -0.48884487 -0.30575085 0
-0.21297264 -0.28771782 -0.33482361 0
-0.21910286 -0.14030838 -0.34345818 0
-0.13935089 -0.099226952 -0.36493587 0
-0.14407921 0.060317993 -0.36748505 0
-0.074239731 0.28989029 -0.4019556 0
-0.39103317 -0.47844315 -0.26454926 0
-0.3273735 -0.46397305 -0.28308296 0
-0.29054642 -0.25874233 -0.29555416 0
-0.24995041 -0.087489128 -0.31442547 0
-0.26041794 0.044332504 -0.32341385 0
-0.17804337 0.28561878 -0.35503578 0
-0.45191193 -0.45584679 -0.23233128 0
-0.40873718 -0.2966013 -0.25832462 0
-0.36747932 -0.089033127 -0.26970291 0
-0.30184555 0.075960159 -0.29686642 0
-0.26678085 0.31857109 -0.30700684 0
-0.53403473 -0.4498682 -0.19552517 0
-0.48324966 -0.26116753 -0.21711159 0
-0.45523643 -0.081029892 -0.23403168 0
-0.41136169 0.090691566 -0.25200748 0
-0.36879158 0.32393646 -0.26562023 0
-0.61731339 -0.26187229 -0.16257763 0
-0.56641388 -0.076153755 -0.18811989 0
-0.49842262 0.12718773 -0.20920658 0
-0.47859955 0.3384428 -0.21564579 0
-0.72706223 -0.21951962 -0.11028671 0
-0.64721107 -0.045907021 -0.14839077 0
-0.60907745 0.13201141 -0.16261768 0
-0.55156326 0.33233452 -0.18536091 0
-0.71522713 -0.036102295 -0.1196022 0
-0.70214081 0.1711216 -0.11774063 0
-0.65370178 0.34760094 -0.13782883 0
-0.78464127 0.16398907 -0.087812424 0
-0.78557777 0.3549614 -0.089254379 0
-0.84968376 0.40463352 -0.054243088 0
-0.92599678 0.17935753 -0.026936531 0
-0.93411064 0.3972559 -0.026320457 0
0.94717598 -0.16878796 -0.8144598 0
0.46230316 -0.41857147 -0.47890949 0
0.37287903 -0.39991188 -0.49747562 0
0.3913517 -0.33167362 -0.45227909 0
0.32069016 -0.28218842 -0.44978809 0
0.24917221 -0.16672802 -0.44573212 0
0.24155045 -0.074440956 -0.41589832 0
0.20159149 -0.012078285 -0.40141296 0
0.21852303 0.033935547 -0.42136097 0
0.64058876 -0.49522209 -0.47417545 0
0.57292175 -0.44094753 -0.44479942 0
0.48335648 -0.4187355 -0.45403767 0
0.51963615 -0.34209061 -0.42178249 0
0.42547417 -0.28382969 -0.41382504 0
0.43580246 -0.2185545 -0.38424873 0
0.34562492 -0.13925076 -0.40126133 0
0.35312271 -0.067065239 -0.36743927 0
0.69732094 -0.4786644 -0.42993736 0
0.7513485 -0.41851997 -0.38766956 0
0.63853264 -0.36967468 -0.38850784 0
0.63589478 -0.28588104 -0.35155869 0
0.56256485 -0.31142235 -0.38368225 0
0.57768631 -0.20156193 -0.34379864 0
0.51775551 -0.20440865 -0.36528492 0
0.528265 -0.11523056 -0.3289957 0
0.4614315 -0.048605919 -0.3458786 0
0.84556198 -0.47964668 -0.35291576 0
0.7588768 -0.36463356 -0.35776997 0
0.82045174 -0.27894974 -0.31669712 0
0.7094841 -0.32508469 -0.34582138 0
0.70471001 -0.25161552 -0.3156929 0
0.69284058 -0.18230438 -0.30447102 0
0.64393234 -0.15184212 -0.29446983 0
0.9125061 -0.45956993 -0.32499123 0
0.91965485 -0.39674473 -0.29565525 0
0.89464378 -0.27400112 -0.27510262 0
0.81754494 -0.25136757 -0.28044891 0
0.85297203 -0.15709972 -0.24554348 0
0.74871063 -0.20222187 -0.27397442 0
0.96577835 -0.32210445 -0.23959064 0
-0.15377235 -0.18854046 -0.36570072 0
-0.3120575 -0.318717 -0.28701019 0
-0.27526665 -0.14413071 -0.30638313 0
-0.27856445 -0.0018501282 -0.31814289 0
-0.47365189 -0.49151325 -0.21833038 0
-0.4034996 -0.29512405 -0.24620914 0
-0.38469124 -0.12515545 -0.26307774 0
-0.57508278 -0.48979568 -0.17869473 0
-0.50827408 -0.28317356 -0.20290375 0
-0.48292542 -0.079292297 -0.21643162 0
-0.65730095 -0.4378376 -0.1361475 0
-0.59828949 -0.24911308 -0.16018677 0
-0.55916023 -0.09287262 -0.19135857 0
-0.50011635 0.1044836 -0.21204472 0
-0.43426132 0.32487583 -0.23917103 0
-0.7349968 -0.44810295 -0.11130619 0
-0.69175148 -0.21218204 -0.11873722 0
-0.611269 -0.043884277 -0.15860653 0
-0.60710907 0.11849594 -0.16754532 0
-0.57753181 0.33718395 -0.17679119 0
-0.83250427 -0.42485428 -0.068762779 0
-0.7588253 -0.18879032 -0.089576721 0
-0.73518181 -0.028613091 -0.11136341 0
-0.66874313 0.16037655 -0.13386536 0
-0.64092827 0.38109207 -0.13758945 0
-0.93475151 -0.42450905 -0.028778076 0
-0.85521698 -0.22904587 -0.064894676 0
-0.85245132 -0.015138626 -0.064130783 0
-0.74307823 0.20143795 -0.099235535 0
-0.74035263 0.36388206 -0.10897064 0
-0.92935944 -0.18774891 -0.026315689 0
-0.93023872 -0.0088043213 -0.033129692 0
-0.84473801 0.18143749 -0.068346024 0
-0.78701591 0.45973492 -0.070940971 0
-0.92550468 0.20004559 -0.033697128 0
-0.87503815 0.47759628 -0.037636757 0
-0.98080063 0.47591686 -0.00074577332 0
0.97891045 -0.40862751 -0.84575653 0
0.96972847 -0.25752544 -0.8382616 0
0.32364082 -0.48488426 -0.53542995 0
0.31493568 -0.39556503 -0.51836967 0
0.16493607 -0.46327019 -0.50029659 0
0.25182343 -0.44104862 -0.52635574 0
0.25184059 -0.27937698 -0.49055004 0
0.11257553 -0.44781399 -0.47527409 0
0.17621613 -0.24381733 -0.50071716 0
0.16343117 -0.15265369 -0.46635532 0
0.019872665 -0.41669559 -0.43305874 0
0.053920746 -0.21058369 -0.44434452 0
0.12619972 -0.20113277 -0.4692297 0
0.086912155 -0.049030304 -0.4680891 0
-0.060474396 -0.3855114 -0.3965559 0
-0.027215958 -0.21396065 -0.41692448 0
0.018188477 -0.024474144 -0.43553734 0
0.076065063 0.22308731 -0.46826839 0
-0.15691566 -0.36660576 -0.3567009 0
-0.057073593 -0.14572048 -0.38910484 0
-0.017286301 0.041657448 -0.40687084 0
0.0079288483 0.23712921 -0.43619537 0
-0.23783112 -0.32456207 -0.31292725 0
-0.19071388 -0.1344471 -0.33711338 0
-0.13268852 0.044561386 -0.3619585 0
-0.066942215 0.24357605 -0.40319443 0
-0.12114525 0.28111839 -0.36918545 0
-0.20166206 0.28087616 -0.33706856 0
-0.31492996 0.064759254 -0.28661823 0
-0.27241516 0.29873466 -0.3049736 0
