# .PCD v0.7 - Point Cloud Data file format
VERSION 0.7
FIELDS x y z intensity
SIZE 4 4 4 4
TYPE F F F F
COUNT 1 1 1 1
WIDTH 1114
HEIGHT 1
VIEWPOINT 0 0 0 1 0 0 0
POINTS 1114
DATA ascii
-0.22605133 -0.45956421 0.73839855 0
-0.16643143 -0.48670006 0.82647038 0
-0.31647491 -0.48290443 0.76192188 0
-0.24542332 -0.46675682 0.76819897 0
-0.28107738 -0.43243408 0.70839882 0
-0.24451065 -0.43772888 0.73810863 0
-0.2358036 -0.47136688 0.80497932 0
-0.73470688 -0.48995018 0.95665264 0
0.63848305 0.059692383 -0.40143967 0
0.70214081 0.015542984 -0.39001465 0
0.78891277 -0.025676727 -0.35903454 0
0.85097504 -0.054731369 -0.34118462 0
0.35556793 0.26316643 -0.43621063 0
0.45318985 0.19710922 -0.41898537 0
0.5326519 0.14202499 -0.4109087 0
0.63797474 0.081615448 -0.38207722 0
0.700037 0.05241394 -0.37366962 0
0.38313389 0.26683044 -0.42935944 0
0.4771452 0.22491264 -0.39997673 0
0.53717804 0.1815052 -0.39065647 0
0.63178921 0.13358879 -0.37001133 0
0.75334167 0.042469025 -0.34787846 0
0.13882065 0.40193558 -0.48014355 0
0.18904018 0.36888313 -0.47022533 0
0.26836205 0.31755829 -0.45273781 0
0.040410042 0.48189354 -0.48757172 0
0.11404419 0.45138741 -0.46917439 0
0.20855904 0.40241623 -0.44621944 0
0.29440117 0.3589592 -0.42718124 0
0.37936401 0.32751465 -0.40297127 0
0.46750641 0.28704834 -0.37920189 0
0.54043674 0.236166 -0.36839294 0
0.62618542 0.18288231 -0.35084724 0
0.22928524 0.48360252 -0.40394211 0
0.3155241 0.43673134 -0.3866024 0
0.39371204 0.40574074 -0.3647747 0
0.30652332 0.49866295 -0.36408997 0
-0.20107365 -0.46242523 0.7504158 0
-0.18810558 -0.4750061 0.78910446 0
-0.14072514 -0.47645378 0.81766129 0
-0.54299736 -0.49918938 1.0365858 0
-0.46429634 -0.48732567 1.0570974 0
0.98133183 -0.21273804 -0.39503479 0
0.86946964 -0.4667778 -0.2152853 0
0.8806963 -0.35708046 -0.29403496 0
0.87973404 -0.41289139 -0.25244045 0
0.93845081 -0.30690193 -0.32082558 0
0.73673058 -0.07705307 -0.40838909 0
0.78098869 -0.071376801 -0.38971233 0
0.95238876 -0.25593567 -0.36095428 0
0.43474102 0.14034081 -0.45136356 0
0.5331955 0.086778641 -0.43183422 0
0.64035606 0.023406982 -0.4078083 0
0.71452427 -0.0053272247 -0.38461876 0
0.79434776 -0.028276443 -0.3569622 0
0.74564075 0.038835526 -0.35196209 0
0.056042671 0.38499832 -0.52100658 0
0.13740253 0.34396744 -0.50011635 0
0.19445419 0.31801414 -0.48490524 0
0.28235722 0.26331329 -0.46952248 0
0.36944962 0.20323944 -0.45267296 0
0.43862534 0.18095779 -0.42885208 0
0.51620007 0.13882637 -0.41607094 0
0.60026741 0.10272789 -0.39652157 0
0.29713058 0.29614067 -0.45115852 0
0.38603783 0.25948143 -0.42732334 0
0.47141647 0.22628593 -0.40373802 0
0.55563354 0.17763901 -0.38167381 0
0.6245594 0.14677048 -0.3615303 0
0.69541454 0.093334198 -0.35208321 0
-0.060606003 0.48484993 -0.52889633 0
0.020699501 0.43203545 -0.51622486 0
0.10903263 0.38970566 -0.49461651 0
0.03738308 0.47821426 -0.49089622 0
0.12503338 0.43695641 -0.46791744 0
0.2110796 0.39690781 -0.4476223 0
0.30688572 0.36647797 -0.41676235 0
0.38434124 0.34006882 -0.39473152 0
0.46473503 0.27958488 -0.38348389 0
0.23485565 0.48027992 -0.40591812 0
0.32593727 0.43710709 -0.3813448 0
0.29599857 0.48692703 -0.37351418 0
-0.20582962 -0.47390556 0.77042198 0
-0.16524601 -0.46936607 0.80087948 0
-0.59525299 -0.48577118 0.99128819 0
-0.8354578 -0.48435974 1.1160154 0
0.98617649 -0.43345833 -0.23304367 0
0.59968758 0.039731979 -0.4100523 0
0.69275856 0.0055046082 -0.38400364 0
0.79811859 -0.045507431 -0.35839462 0
0.18497944 0.2947464 -0.48937225 0
0.25025749 0.26197052 -0.47659588 0
0.35078526 0.20956993 -0.45244789 0
0.42409801 0.16699409 -0.44199657 0
0.5216856 0.12804604 -0.40648365 0
0.61353588 0.084060669 -0.38281059 0
0.4412117 0.22005844 -0.40607738 0
0.54419422 0.16137886 -0.37966061 0
0.62303734 0.12766838 -0.36449718 0
0.74018192 0.041173935 -0.34654617 0
-0.15129375 0.49905205 -0.55158043 0
-0.073945045 0.46740723 -0.53377342 0
0.0060415268 0.43219948 -0.51408005 0
0.10254955 0.37108421 -0.49754047 0
0.18431854 0.33490944 -0.47384453 0
0.27269363 0.29202652 -0.45079136 0
0.34022999 0.25693512 -0.44191647 0
0.10342503 0.41604996 -0.48222542 0
0.19238377 0.38447952 -0.45354271 0
0.27575302 0.34432983 -0.43332481 0
0.37178135 0.31123543 -0.40561771 0
0.46581268 0.25989151 -0.38111782 0
0.52005291 0.21936989 -0.37232876 0
-0.015008926 0.48010254 -0.50343227 0
0.11591816 0.47359467 -0.44970703 0
0.21635342 0.45639801 -0.41212463 0
0.29139423 0.42637634 -0.39348125 0
0.38425541 0.3770504 -0.37064838 0
-0.2538414 -0.45630646 0.74405861 0
-0.23886585 -0.45225906 0.77616215 0
-0.1534996 -0.47270393 0.82337093 0
-0.69359779 -0.49050713 0.97665119 0
-0.56523609 -0.48064613 1.0266104 0
-0.82625961 -0.45562935 1.1190281 0
-0.81934738 -0.49120903 1.1302338 0
-0.51793098 -0.49236679 1.4602747 0
0.68876362 -0.017261505 -0.41854572 0
0.78507042 -0.040885925 -0.38082886 0
0.46180725 0.12578964 -0.45462513 0
0.53796196 0.11832428 -0.42755508 0
0.62477303 0.08073616 -0.40142155 0
0.70205307 0.046005249 -0.38986778 0
0.34983158 0.19011879 -0.48430347 0
0.40559673 0.18351555 -0.46046543 0
0.10355186 0.34156036 -0.52790928 0
0.18000221 0.32590294 -0.50173378 0
0.27671051 0.28748322 -0.47506714 0
0.34729576 0.26308441 -0.45637131 0
0.45916462 0.22886848 -0.42193794 0
0.50058556 0.17724419 -0.42090702 0
0.58063984 0.18426704 -0.37686539 0
0.00069332123 0.4000988 -0.55507278 0
0.068313599 0.38423729 -0.52589035 0
0.38210964 0.31316185 -0.41858482 0
0.44442463 0.30316734 -0.39477348 0
-0.10090446 0.49960136 -0.55465221 0
-0.013235092 0.46473122 -0.53305626 0
0.076163292 0.4599781 -0.49816895 0
0.16682053 0.40354347 -0.47684288 0
0.25412846 0.40029335 -0.44291592 0
0.34431648 0.38649178 -0.40694618 0
0.41368294 0.33830643 -0.39888287 0
0.24668503 0.48586464 -0.41328716 0
-0.3295784 -0.48061943 0.7544632 0
-0.27888203 -0.47188568 0.76947117 0
-0.19818687 -0.46228218 0.78312492 0
-0.57859802 -0.46592712 0.98037243 0
-0.44182587 -0.47148514 1.049284 0
-0.90554428 -0.48207283 1.1066637 0
-0.91419792 -0.44419098 1.0966539 0
-0.98606777 -0.48062897 1.3866634 0
-0.77078819 -0.41139221 1.4293089 0
-0.67704868 -0.45466995 1.4700947 0
-0.59141827 -0.45354652 1.4685802 0
-0.50823021 -0.48572922 1.4502201 0
-0.52698231 -0.38456154 1.4254169 0
-0.51762867 -0.42483711 1.4404173 0
-0.67408562 -0.39658928 1.4657688 0
-0.58493328 -0.36675644 1.4582233 0
0.2466898 0.48521233 -0.39530468 0
0.3180685 0.44907188 -0.37967491 0
-0.27080727 -0.47753906 0.76914215 0
-0.19829845 -0.4664669 0.78854465 0
-0.64119244 -0.49453354 0.99005222 0
-0.87027073 -0.49836922 1.1149435 0
-0.86401463 -0.4861412 1.1214743 0
-0.49062061 -0.46750069 1.4389782 0
-0.74731731 -0.4987793 1.471488 0
-0.63985634 -0.49504852 1.4941874 0
-0.76348591 -0.38072205 1.4319935 0
-0.63480282 -0.41161728 1.4731998 0
-0.55123329 -0.39938927 1.4504232 0
-0.46915054 -0.42631721 1.4452553 0
-0.49879169 -0.36712646 1.4267969 0
-0.73234081 -0.35550308 1.444602 0
-0.65572643 -0.35432816 1.47229 0
-0.7230978 -0.32569504 1.4440336 0
-0.4039259 -0.49703789 1.8855333 0
0.62619591 0.021076202 -0.42779446 0
0.72380733 -0.0071792603 -0.39537048 0
0.78804779 -0.073230743 -0.39803219 0
0.6633749 0.059326172 -0.39041042 0
0.72754002 0.031114578 -0.38170528 0
0.43828964 0.16055298 -0.45671463 0
0.55681801 0.10121727 -0.42383957 0
0.4244585 0.19750023 -0.44087887 0
0.49083042 0.20783997 -0.40353584 0
0.61793232 0.14917374 -0.37482738 0
0.18177128 0.31578445 -0.50037956 0
0.24398327 0.29985237 -0.48077011 0
0.33608055 0.24632645 -0.462533 0
0.44332314 0.26091003 -0.41314316 0
0.51875305 0.22453499 -0.39959812 0
0.079314232 0.36510086 -0.52565098 0
0.12690735 0.3456459 -0.51533127 0
0.28846645 0.33885384 -0.44931602 0
0.33338928 0.33658791 -0.43167114 0
0.39271641 0.32912827 -0.40408802 0
-0.018087387 0.43219948 -0.54109573 0
0.056275368 0.41367912 -0.516119 0
0.1478796 0.41984367 -0.47535229 0
0.24674225 0.41494942 -0.4368124 0
0.34135914 0.39583206 -0.40910912 0
0.3985281 0.3675518 -0.3968277 0
-0.12254524 0.49161339 -0.55943012 0
-0.047944069 0.49398804 -0.53139591 0
0.033910751 0.47667122 -0.50189114 0
0.24718094 0.47205734 -0.40939903 0
0.32307434 0.44944763 -0.38718224 0
-0.27366066 -0.46466446 0.76054478 0
-0.21822548 -0.48533058 0.81414223 0
-0.13728046 -0.45772171 0.79141331 0
-0.23636818 -0.44663048 0.73919582 0
-0.47947502 -0.47306061 1.0361986 0
-0.62846565 -0.45892906 0.95992279 0
-0.83017826 -0.44267464 1.089942 0
-0.90477753 -0.4460392 1.0986414 0
-0.96391582 -0.49435616 1.3993244 0
-0.72800541 -0.42997551 1.4543953 0
-0.61220074 -0.4384594 1.479002 0
-0.52711964 -0.44709778 1.4596748 0
-0.46276474 -0.46146202 1.4392157 0
-0.48970032 -0.38147354 1.4132023 0
-0.62578297 -0.39471054 1.4719276 0
-0.56116676 -0.35113525 1.448947 0
0.77182007 -0.046749115 -0.37897491 0
0.54272747 0.1109314 -0.41744518 0
0.61655426 0.050952911 -0.4087286 0
0.73737144 0.01597023 -0.37055111 0
0.22328091 0.29704666 -0.48714638 0
0.30163574 0.26982498 -0.46396542 0
0.3815136 0.21788788 -0.45297623 0
0.47699451 0.2040062 -0.40563393 0
0.54043388 0.16015625 -0.40058422 0
0.62038612 0.12496185 -0.37604618 0
0.69034481 0.084337234 -0.36168003 0
0.01523304 0.42812538 -0.52481747 0
0.11435318 0.38009453 -0.50204563 0
0.15214157 0.35801125 -0.50073624 0
0.26441002 0.32680321 -0.45248604 0
0.36623383 0.28602982 -0.42433357 0
0.49513149 0.24293327 -0.38833809 0
-0.048938751 0.47917557 -0.52871227 0
0.028446198 0.45268059 -0.50759315 0
0.11124897 0.43343163 -0.48047733 0
0.20986271 0.38717461 -0.45215034 0
0.29468727 0.36704636 -0.42467308 0
0.38459015 0.33626175 -0.39992905 0
0.4849453 0.27446938 -0.3719902 0
0.20476341 0.47794533 -0.41831589 0
0.29304409 0.46378517 -0.38367367 0
0.35795116 0.39238167 -0.38265228 0
-0.26504803 -0.4764595 0.75997829 0
-0.20384502 -0.47251701 0.77425766 0
-0.2249918 -0.48794746 0.81787395 0
-0.14852047 -0.46554375 0.80398369 0
-0.4845562 -0.48797417 1.0503893 0
-0.45102215 -0.47463036 1.0451965 0
-0.8643446 -0.4661293 1.1067581 0
-0.7966404 -0.48244476 1.1112499 0
-0.98743629 -0.48827362 1.3836842 0
-0.62806988 -0.46375275 1.4798489 0
-0.55561829 -0.49970627 1.4808388 0
-0.50260162 -0.43596458 1.4450579 0
-0.4779253 -0.44293594 1.4379959 0
-0.47777367 -0.36424637 1.4066505 0
-0.65862751 -0.49843025 1.5052309 0
0.62312317 0.033348083 -0.43550301 0
0.84577942 -0.092638016 -0.38195801 0
0.71114445 0.011737823 -0.40388393 0
0.79877567 -0.0087471008 -0.37049103 0
0.36716843 0.19198608 -0.4786396 0
0.45121956 0.15292358 -0.45991325 0
0.53421974 0.14336586 -0.4275074 0
0.65307522 0.076305389 -0.39947987 0
0.71557045 0.0801754 -0.37060738 0
0.087078094 0.3718071 -0.52928925 0
0.17082024 0.34326744 -0.50933647 0
0.27561283 0.29898262 -0.479249 0
0.34933472 0.257761 -0.46360207 0
0.42731571 0.23193359 -0.43355083 0
0.52437401 0.22315788 -0.40135098 0
0.67111683 0.14962769 -0.35119343 0
0.30792427 0.33790779 -0.45799255 0
-0.095632553 0.47543335 -0.56839657 0
-0.011580467 0.43893242 -0.54715824 0
0.072156906 0.42018318 -0.51846695 0
0.18379879 0.38610077 -0.48425007 0
-0.0092906952 0.49284935 -0.52518272 0
0.089826584 0.45917892 -0.49201775 0
0.17298222 0.44568825 -0.46572971 0
0.25091648 0.40605164 -0.44935989 0
0.35557175 0.38127518 -0.41077805 0
0.46589279 0.31425285 -0.38786697 0
-0.2264204 -0.46360397 0.75405598 0
-0.13913059 -0.47520065 0.80613327 0
-0.44610977 -0.46524811 1.0253716 0
-0.86596394 -0.454916 1.0922403 0
-0.80847931 -0.47629929 1.0980644 0
-0.71441174 -0.48601913 1.1204767 0
-0.96294308 -0.4953022 1.3670111 0
-0.48476505 -0.46643448 1.4245491 0
-0.96045494 -0.47956467 1.4152908 0
-0.77261639 -0.45299911 1.4318514 0
-0.75192261 -0.34344864 1.4070387 0
-0.71687698 -0.40892029 1.4414577 0
-0.60686874 -0.43152428 1.4751959 0
-0.55005074 -0.47788239 1.4653988 0
-0.57344151 -0.37617874 1.4568605 0
-0.49308681 -0.40974426 1.4396276 0
-0.44066238 -0.36580086 1.3943663 0
-0.49815845 -0.4066925 1.5543375 0
-0.72485447 -0.31100082 1.4180107 0
-0.65006828 -0.32559586 1.454525 0
-0.58904839 -0.34190369 1.4622536 0
0.67140293 -0.0061817169 -0.40602684 0
0.80317974 -0.046657562 -0.36384869 0
0.46932793 0.10639191 -0.45794392 0
0.57187176 0.078300476 -0.42539692 0
0.67738247 0.051591873 -0.38518429 0
0.17413044 0.27494812 -0.52260399 0
0.2598629 0.25642395 -0.4846077 0
0.34499836 0.18206596 -0.47386074 0
0.40163708 0.21731949 -0.43481731 0
0.52472496 0.17284966 -0.40086174 0
0.60037804 0.15028763 -0.37499332 0
-0.10236168 0.44739532 -0.56203938 0
-0.01526165 0.41137886 -0.53852844 0
0.051544189 0.38378716 -0.52374268 0
0.15436172 0.34005356 -0.49441338 0
0.25138283 0.32136917 -0.46235371 0
0.33127403 0.31702232 -0.42798042 0
0.08165741 0.41866302 -0.50718117 0
0.16914845 0.3989315 -0.46984196 0
0.26814747 0.38443947 -0.43234825 0
0.4142704 0.31236076 -0.3975296 0
0.053318024 0.49272919 -0.4807024 0
0.1599865 0.48131561 -0.43809128 0
0.25329113 0.46036148 -0.40629101 0
0.3440752 0.39398956 -0.39286804 0
-0.25785351 -0.46678925 0.75649738 0
-0.19702816 -0.47544479 0.78847122 0
-0.25883293 -0.47818565 0.80759525 0
-0.15910625 -0.46575737 0.81546497 0
-0.70490074 -0.49261665 0.95589828 0
-0.58171082 -0.49938774 1.0293379 0
-0.94957542 -0.49173355 1.1164112 0
-0.83323288 -0.46808434 1.1056223 0
-0.98908806 -0.49764061 1.3734913 0
-0.66354179 -0.47504425 1.4836626 0
-0.55293369 -0.49323654 1.4666224 0
-0.51449013 -0.41287804 1.4336338 0
-0.4503994 -0.40975189 1.4292097 0
-0.66863346 -0.47114182 1.4993057 0
-0.73908138 -0.38204956 1.4474001 0
-0.63948059 -0.41909981 1.4791985 0
-0.46296692 -0.41026497 1.5933228 0
-0.82515335 -0.3088932 1.385499 0
-0.67978859 -0.31327057 1.4630127 0
-0.61958122 -0.35580635 1.4622526 0
-0.54598141 -0.38790131 1.4589033 0
-0.42871094 -0.47584724 1.8746529 0
0.53515911 0.058374405 -0.4519453 0
0.65604401 0.027206421 -0.40971756 0
0.76603889 0.00080680847 -0.37606716 0
0.3102293 0.18298721 -0.499506 0
0.39908123 0.1644783 -0.47076416 0
0.5151968 0.13227081 -0.43524456 0
0.60412216 0.11705017 -0.3997345 0
0.6373806 0.12947464 -0.37855053 0
0.044066429 0.3427124 -0.55289555 0
0.154809 0.29553223 -0.52330303 0
0.23717594 0.2957592 -0.48764038 0
0.34119511 0.26932144 -0.45515823 0
0.41265488 0.25786209 -0.42325878 0
0.54388428 0.20814133 -0.38449955 0
-0.044989586 0.40390396 -0.56566334 0
0.033221245 0.39769936 -0.53765488 0
0.12383556 0.40067673 -0.48963642 0
0.046822548 0.46242142 -0.4998579 0
0.14931393 0.44937706 -0.46244526 0
0.23702431 0.38357735 -0.44979572 0
0.29572296 0.39309692 -0.42339993 0
0.38132954 0.39404106 -0.38223362 0
0.22014809 0.49754715 -0.41531754 0
-0.31657505 -0.47282791 0.76177502 0
-0.22206116 -0.45387077 0.7645731 0
-0.69347 -0.47529411 0.94877529 0
-0.54090405 -0.48913574 1.0339832 0
-0.4740324 -0.45907402 1.026576 0
-0.81352806 -0.46793365 1.1030998 0
-0.92872143 -0.48334694 1.1131411 0
-0.88220978 -0.46474075 1.1105394 0
-0.96194649 -0.48360062 1.4266233 0
-0.98904133 -0.49468994 1.3642359 0
-0.9628315 -0.49508476 1.4020071 0
-0.7864542 -0.48091888 1.4481812 0
-0.78080368 -0.38659477 1.420146 0
-0.6936121 -0.41345596 1.4641523 0
-0.5898819 -0.4505024 1.4740276 0
-0.52518749 -0.47073746 1.4548979 0
-0.55316067 -0.38228607 1.4394875 0
-0.49100876 -0.39253998 1.4348555 0
-0.72059059 -0.36131096 1.4504995 0
-0.768466 -0.3249836 1.4092865 0
-0.65768909 -0.33182716 1.4532127 0
-0.48145199 -0.45970535 1.7941666 0
0.74050331 -0.47343063 -0.21348476 0
0.78999138 -0.41011429 -0.24542618 0
0.80626774 -0.304039 -0.31824112 0
0.79894352 -0.35508919 -0.28129196 0
0.84848499 -0.24798203 -0.358078 0
0.91424656 -0.19458008 -0.40168285 0
0.54837894 0.024929047 -0.44543648 0
0.68328571 -0.04703331 -0.42639542 0
0.1047039 0.23178291 -0.56300545 0
0.26931 0.14067268 -0.52932739 0
0.38049698 0.11274719 -0.49390697 0
0.16926479 0.22592163 -0.54106712 0
0.29676723 0.18974686 -0.49464893 0
0.35931587 0.20013428 -0.46674728 0
0.47245789 0.19038391 -0.42168617 0
0.5886631 0.11725616 -0.40056896 0
0.63677311 0.075725555 -0.39405823 0
0.10228539 0.29113007 -0.53985882 0
0.17711163 0.29249191 -0.50754833 0
0.30644226 0.28627586 -0.45363522 0
0.47941399 0.26250267 -0.38433075 0
0.13917065 0.37923813 -0.49484348 0
0.25836277 0.35141182 -0.44082355 0
0.2204237 0.42079735 -0.43852997 0
0.32124233 0.40510178 -0.3996191 0
-0.28109741 -0.47391701 0.76657104 0
-0.20371151 -0.47656059 0.80628681 0
-0.68883228 -0.48311806 0.95697689 0
-0.56881523 -0.49533653 1.0345869 0
-0.81071377 -0.47754478 1.1128645 0
-0.48549938 -0.41473579 1.4131069 0
-0.77550316 -0.37017822 1.4204578 0
-0.67876148 -0.42126656 1.4763861 0
-0.6009531 -0.44361115 1.4765263 0
-0.52104378 -0.48176575 1.4658794 0
-0.63891125 -0.36215401 1.4694223 0
-0.55427074 -0.37022781 1.4503031 0
-0.50842762 -0.40312767 1.4531851 0
-0.72739792 -0.32795525 1.4416094 0
-0.66499138 -0.32847977 1.4666777 0
-0.42695713 -0.47141457 1.8799162 0
0.39851761 -0.4505043 -0.22386169 0
0.41783237 -0.35394096 -0.28746796 0
0.46722317 -0.29205513 -0.31946087 0
0.8164587 -0.42065048 -0.25016022 0
0.85117245 -0.35160255 -0.2913599 0
0.87394714 -0.27048683 -0.34732723 0
0.93573856 -0.21144104 -0.39417934 0
-0.014941216 -0.48934746 -0.19564629 0
0.065356255 -0.40545082 -0.25047207 0
0.094502449 -0.32096481 -0.30836964 0
0.14783573 -0.25003815 -0.34808064 0
0.13387108 -0.14809608 -0.42099285 0
0.1682415 -0.092960358 -0.45060539 0
0.43466187 -0.20443726 -0.38432503 0
0.17889595 0.037250519 -0.53447723 0
0.1786108 -0.029430389 -0.48995304 0
0.48066998 -0.12310028 -0.42961884 0
0.19673443 0.097389221 -0.57533169 0
0.37436199 0.034061432 -0.52510262 0
0.50181675 0.00096321106 -0.48116589 0
0.52340698 -0.063745499 -0.47496796 0
0.64272594 -0.020336151 -0.42620754 0
0.71949196 -0.0062713623 -0.3956461 0
0.074954987 0.1960392 -0.59256554 0
0.21658611 0.15263748 -0.54354095 0
0.3218689 0.12917328 -0.50469398 0
0.33749294 0.1502552 -0.49221992 0
0.48553562 0.11115265 -0.43928528 0
0.61815739 0.080162048 -0.39746189 0
0.26468182 0.24980545 -0.48731327 0
0.42792797 0.21800613 -0.42277145 0
0.54729843 0.2122612 -0.37618542 0
0.33790493 0.33688736 -0.42014122 0
0.32625484 0.42958641 -0.38902378 0
-0.29254246 -0.48063278 0.75735855 0
-0.23703289 -0.46169472 0.77125549 0
-0.68222237 -0.47720146 0.96440697 0
-0.46227169 -0.48199081 1.0594444 0
-0.39012909 -0.47664833 1.0754957 0
-0.93790531 -0.45897675 1.1020908 0
-0.82840252 -0.47290802 1.10674 0
-0.51100826 -0.49987602 1.4569311 0
-0.51088333 -0.42795563 1.4120798 0
-0.64949894 -0.49678421 1.4958286 0
-0.76394463 -0.36215782 1.429738 0
-0.6837492 -0.40175629 1.4725342 0
-0.59970284 -0.44738388 1.4744625 0
-0.53962517 -0.43072128 1.4816008 0
-0.58400154 -0.36629486 1.4538488 0
-0.50857162 -0.40399933 1.4283266 0
-0.47798347 -0.36395073 1.3973961 0
-0.67737675 -0.33691406 1.4714117 0
0.45782089 -0.45216179 -0.22885132 0
0.5151186 -0.39027596 -0.26200294 0
0.55643177 -0.29035378 -0.32510376 0
0.59613419 -0.2300396 -0.35946274 0
0.66755199 -0.19402313 -0.38393307 0
0.73654938 -0.16721725 -0.41120625 0
0.6337471 -0.066705704 -0.47495937 0
-0.43894196 -0.3876667 -0.25943089 0
-0.38469505 -0.37339783 -0.26535606 0
-0.32024574 -0.33296013 -0.29194736 0
-0.034585953 -0.44993591 -0.21985531 0
-0.26844215 -0.29020882 -0.32133198 0
-0.21097088 -0.27103615 -0.32910633 0
0.069466591 -0.39728737 -0.25064945 0
-0.20439529 -0.20473862 -0.37866306 0
0.12661171 -0.31410599 -0.30657196 0
-0.16419411 -0.15012169 -0.41273308 0
-0.12752056 -0.11788368 -0.43002415 0
0.16024685 -0.23028755 -0.36241531 0
-0.11392593 -0.02614212 -0.49380398 0
-0.11397934 -0.074680328 -0.4589777 0
0.21744442 -0.1482563 -0.41059208 0
-0.081802368 0.0029792786 -0.50829124 0
-0.046762466 0.028182983 -0.51990604 0
0.23791885 -0.076732635 -0.45663452 0
-0.039330482 0.098798752 -0.5764761 0
0.035894394 0.12789345 -0.58896637 0
0.27032089 -0.018659592 -0.48968601 0
0.12428379 0.16030312 -0.59880352 0
0.30028915 0.072660446 -0.53400421 0
0.43996716 0.082984924 -0.48255634 0
0.59943104 0.057813644 -0.42809296 0
-0.92753792 -0.45137596 -0.22349358 0
-0.9868412 -0.36903 -0.27577114 0
-0.92644882 -0.3424015 -0.29041767 0
-0.80455875 -0.41631889 -0.23970699 0
-0.72253418 -0.40064812 -0.24291325 0
-0.61124802 -0.49790001 -0.18497753 0
-0.97143078 -0.23539734 -0.36242008 0
-0.86401939 -0.29929924 -0.31800556 0
-0.69812202 -0.35146904 -0.28112984 0
-0.51292324 -0.43847466 -0.22354317 0
-0.96219826 -0.1541729 -0.42506313 0
-0.9560976 -0.19165611 -0.39469147 0
-0.80993176 -0.2306881 -0.3652029 0
-0.62741375 -0.3062439 -0.31104851 0
-0.98314476 -0.078344345 -0.46509266 0
-0.87398624 -0.11916542 -0.43929482 0
-0.70498276 -0.18082237 -0.39001656 0
-0.56939697 -0.27543831 -0.33087158 0
-0.51051044 -0.23797226 -0.35277462 0
-0.93129158 -0.0034046173 -0.51720142 0
-0.8142643 -0.056310654 -0.48090076 0
-0.76004219 -0.026985168 -0.49581814 0
-0.66946125 -0.10294342 -0.44698238 0
-0.44627666 -0.18309593 -0.38598156 0
-0.86973763 0.070112228 -0.56564426 0
-0.71457958 0.023910522 -0.52842426 0
-0.57981968 -0.045455933 -0.47808075 0
-0.41544628 -0.11118698 -0.4362278 0
-0.80400085 0.1442318 -0.61230183 0
-0.66953182 0.099775314 -0.57954216 0
-0.5353384 0.033094406 -0.53150368 0
-0.37279892 -0.043394089 -0.47975922 0
-0.30837917 -0.0085926056 -0.49382019 0
-0.7552042 0.21020317 -0.65416527 0
-0.62405682 0.15138626 -0.61100006 0
-0.51946831 0.086839676 -0.56974316 0
-0.45140934 0.11301994 -0.57928371 0
-0.29463768 0.049890518 -0.53717422 0
-0.71517181 0.27929688 -0.69902992 0
-0.5813036 0.22594643 -0.66157722 0
-0.44319439 0.19005203 -0.64132118 0
-0.23413944 0.10784912 -0.57657528 0
-0.66519451 0.32721138 -0.73057461 0
-0.53696632 0.30086899 -0.7154007 0
-0.36953259 0.23759651 -0.66901493 0
-0.20168018 0.2014122 -0.6476469 0
-0.19326782 0.15434456 -0.60852814 0
0.39691734 0.19124031 -0.46069813 0
0.54907227 0.15494347 -0.40653515 0
0.62394238 0.15348434 -0.37577248 0
-0.86000156 0.49353218 -0.77280903 0
-0.8255167 0.45056915 -0.75581837 0
-0.30536747 -0.48713684 0.77479076 0
-0.2343502 -0.46643639 0.77179909 0
-0.16662025 -0.49077988 0.84381485 0
-0.18887615 -0.43484497 0.75627804 0
-0.65020466 -0.48021126 0.96290588 0
-0.48209095 -0.49439812 1.0563574 0
-0.44780064 -0.46071815 1.0395145 0
-0.82598019 -0.47206116 1.1085072 0
-0.91009331 -0.43170166 1.0900497 0
-0.95993614 -0.48844528 1.401638 0
-0.78945446 -0.3549118 1.4039745 0
-0.69529629 -0.42260361 1.4653034 0
-0.61973572 -0.44475555 1.4713602 0
-0.57054138 -0.49877548 1.4796047 0
-0.54886723 -0.38164711 1.4490728 0
-0.50300217 -0.4186821 1.4389086 0
-0.67804718 -0.33894539 1.4592333 0
-0.60586071 -0.33418846 1.4614477 0
-0.89170742 -0.49424744 1.9237461 0
-0.20581436 -0.46902275 -0.20665264 0
-0.10023499 -0.41439629 -0.23803329 0
-0.030582428 -0.34091377 -0.28787804 0
0.3484726 -0.48801422 -0.19910431 0
0.015976906 -0.27920532 -0.32802486 0
0.37975216 -0.43691444 -0.23043919 0
0.43883228 -0.40799522 -0.24005318 0
0.015582085 -0.19760704 -0.38665581 0
0.40514183 -0.3292408 -0.3021307 0
0.063672066 -0.10825729 -0.44018841 0
0.43580437 -0.2808075 -0.32979774 0
0.071528435 -0.034809113 -0.4890976 0
0.44657326 -0.19459724 -0.38653278 0
0.09803009 0.058488846 -0.55114746 0
0.097314835 0.0088348389 -0.51328564 0
0.48893356 -0.1211586 -0.42685509 0
0.58098984 -0.10124207 -0.44578552 0
0.13689804 0.09611702 -0.57607174 0
0.40619087 0.020914078 -0.51762009 0
0.54626369 -0.0082645416 -0.46104145 0
0.80189133 -0.088537216 -0.38122654 0
-0.89696312 -0.38686562 -0.26088238 0
-0.66029549 -0.45989799 -0.2130785 0
-0.85130978 -0.32533836 -0.30445671 0
-0.61233902 -0.42017746 -0.23839569 0
-0.55514431 -0.3929348 -0.25345612 0
-0.94487953 -0.18820953 -0.39759827 0
-0.77482128 -0.25405502 -0.34985924 0
-0.51473713 -0.34350014 -0.29020309 0
-0.89731121 -0.10925102 -0.45095444 0
-0.67625046 -0.19122887 -0.38427258 0
-0.4404335 -0.30515289 -0.31251812 0
-0.39894581 -0.27930641 -0.32817841 0
-0.94765472 -0.0081214905 -0.51439762 0
-0.80765724 -0.068571091 -0.46885872 0
-0.62292767 -0.12629509 -0.42656326 0
-0.35986996 -0.22040749 -0.36595345 0
-0.90394878 0.067964554 -0.56630898 0
-0.88635445 0.063234329 -0.55987549 0
-0.76489353 0.014787674 -0.52643871 0
-0.59375572 -0.051631927 -0.47941399 0
-0.32319069 -0.13634109 -0.42164707 0
-0.99584675 0.18571854 -0.64638138 0
-0.83969021 0.15784645 -0.62422562 0
-0.85675812 0.12310791 -0.60079098 0
-0.68570805 0.082406998 -0.56479645 0
-0.53094482 0.010990143 -0.51657391 0
-0.27752304 -0.059911728 -0.46844673 0
-0.90154362 0.25553131 -0.69045544 0
-0.89390755 0.25474548 -0.6886549 0
-0.78706646 0.20791054 -0.65269661 0
-0.68401814 0.16024208 -0.62299919 0
-0.49425125 0.10025787 -0.57839298 0
-0.26393986 0.048021317 -0.54447937 0
-0.24410534 -0.0036010742 -0.50200844 0
-0.98451614 0.37615013 -0.7791872 0
-0.87711811 0.33611488 -0.74658585 0
-0.79594803 0.32995987 -0.74476624 0
-0.76692295 0.27776527 -0.70102024 0
-0.63784122 0.23965454 -0.67584991 0
-0.43554974 0.16270638 -0.62061119 0
-0.37116051 0.1717453 -0.61883068 0
-0.16935825 0.081226349 -0.55872345 0
-0.95491791 0.44690895 -0.82442474 0
-0.87925529 0.42416 -0.80663109 0
-0.76632786 0.35188103 -0.76085377 0
-0.55565739 0.28746986 -0.70210552 0
-0.41193581 0.2423954 -0.68202019 0
-0.15353203 0.14774513 -0.61069775 0
-0.14182377 0.1913662 -0.64423943 0
0.45817566 0.11077309 -0.4559536 0
0.55698776 0.098178864 -0.42605019 0
-0.85604382 0.46582413 -0.76528835 0
-0.23435116 -0.48696709 0.77511215 0
-0.18819618 -0.45544434 0.75819588 0
-0.24058437 -0.48336411 0.81413746 0
-0.58576679 -0.46733284 0.98277473 0
-0.8197298 -0.46931648 1.1001215 0
-0.7609129 -0.41745567 1.4354649 0
-0.61215305 -0.48847008 1.4811516 0
-0.52861118 -0.48202705 1.4706964 0
-0.50507832 -0.42108345 1.4451485 0
-0.68984604 -0.38499832 1.4707479 0
-0.65152454 -0.41778374 1.4716692 0
-0.6618433 -0.31967926 1.4630775 0
-0.60115051 -0.37417412 1.4645758 0
0.32596111 -0.49920082 -0.17851067 0
0.36492348 -0.3927803 -0.25106716 0
0.35604 -0.45043373 -0.2098875 0
0.40562248 -0.34406281 -0.27951908 0
0.44943905 -0.29067802 -0.31013393 0
0.46308136 -0.20212173 -0.37073421 0
0.52270699 -0.13552094 -0.40689659 0
0.66766071 -0.12892914 -0.42486572 0
-0.9795599 -0.49987602 -0.18576622 0
-0.87363243 -0.48566818 -0.1835165 0
-0.80881214 -0.4209404 -0.22807598 0
-0.96322918 -0.26737595 -0.33907413 0
-0.73610115 -0.36114311 -0.266366 0
-0.4707098 -0.46225929 -0.2019043 0
-0.9008112 -0.20743179 -0.3745966 0
-0.69880581 -0.30759811 -0.304533 0
-0.64737988 -0.28251457 -0.3196106 0
-0.34565639 -0.4161129 -0.22632694 0
-0.82720184 -0.14944649 -0.40784264 0
-0.58750534 -0.23806572 -0.34595585 0
-0.31326199 -0.35139275 -0.27718163 0
-0.22838211 -0.33645058 -0.27864647 0
-0.972085 0.0010509491 -0.51561451 0
-0.77073193 -0.081573486 -0.45270443 0
-0.54486561 -0.15356827 -0.40430355 0
-0.20008373 -0.29886627 -0.30626392 0
-0.87728786 0.062278748 -0.54845715 0
-0.69457817 -0.0063323975 -0.49926949 0
-0.477108 -0.089143753 -0.44168949 0
-0.14945602 -0.23893929 -0.34522629 0
-0.83207989 0.12385368 -0.58864784 0
-0.67831135 0.077817917 -0.5615778 0
-0.42175388 -0.010057449 -0.49102402 0
-0.09287262 -0.15082359 -0.40065384 0
-0.93168259 0.24771309 -0.67759895 0
-0.7894001 0.21342278 -0.64987469 0
-0.61383247 0.14084816 -0.59886551 0
-0.40077496 0.049413681 -0.53442669 0
-0.32456589 0.066501617 -0.53948689 0
-0.072497368 -0.074865341 -0.45235729 0
-0.86710835 0.35780144 -0.749259 0
-0.88054276 0.30587006 -0.71380424 0
-0.75515556 0.3012619 -0.71089172 0
-0.53185844 0.21896935 -0.64986897 0
-0.26089478 0.11711884 -0.57423782 0
-0.023885727 -0.012384415 -0.48799515 0
-0.97426224 0.45863914 -0.82531738 0
-0.84175968 0.44118118 -0.78935146 0
-0.83802128 0.38624382 -0.76445675 0
-0.68514156 0.33275414 -0.72977352 0
-0.46694756 0.25613022 -0.6722517 0
-0.21614361 0.17500114 -0.61706448 0
0.0190382 0.078878403 -0.55455399 0
0.34001064 0.056934357 -0.52536678 0
0.51950264 0.010168076 -0.46104717 0
0.78657341 -0.054239273 -0.37650681 0
-0.84924984 0.46744347 -0.7485342 0
-0.82327747 0.46430969 -0.71073532 0
-0.34692955 -0.4958744 0.7762661 0
-0.28040314 -0.47124481 0.76794434 0
-0.20194435 -0.49424362 0.84455109 0
-0.48600769 -0.48165894 1.0459824 0
-0.81831837 -0.48843575 1.1332569 0
-0.69526672 -0.46853256 1.4907093 0
-0.58698273 -0.49047661 1.4940443 0
-0.67132378 -0.36039734 1.4681101 0
-0.5702219 -0.39739418 1.4857731 0
-0.48256207 -0.44058037 1.4711275 0
-0.49471474 -0.35981941 1.4232101 0
-0.64041519 -0.33144951 1.4925613 0
-0.48889446 -0.49813652 1.7896633 0
-0.9565649 -0.45672798 -0.21472645 0
-0.90643692 -0.40454674 -0.24863338 0
-0.54947472 -0.48347855 -0.18647957 0
-0.83279705 -0.36417389 -0.26933861 0
-0.80594444 -0.32750893 -0.29410172 0
-0.53991699 -0.42373657 -0.23134708 0
-0.98322296 -0.18870163 -0.39283657 0
-0.7650423 -0.23664093 -0.35690117 0
-0.78463078 -0.28927422 -0.32085419 0
-0.4611702 -0.37869453 -0.25758266 0
-0.95135784 -0.12956429 -0.43067265 0
-0.90348816 -0.10335541 -0.44177628 0
-0.6988821 -0.19345474 -0.37950611 0
-0.41355133 -0.28873825 -0.3242588 0
-0.8912487 -0.018779755 -0.50476933 0
-0.66620636 -0.11106682 -0.43733311 0
-0.35270596 -0.2313633 -0.3577261 0
0.17494774 -0.43915367 -0.22395229 0
-0.78624344 0.027147293 -0.52229691 0
-0.59366131 -0.037044525 -0.48145676 0
-0.30354118 -0.17104912 -0.39200306 0
0.22013092 -0.35859871 -0.27279377 0
-0.96787834 0.18039131 -0.63992691 0
-0.80596447 0.12922859 -0.60283947 0
-0.79513645 0.083017349 -0.56612587 0
-0.56309032 0.04675293 -0.53941727 0
-0.27394772 -0.06970787 -0.45834064 0
0.24518013 -0.26540375 -0.33309555 0
-0.93424225 0.2736187 -0.7064476 0
-0.77324581 0.16457748 -0.62374973 0
-0.72509861 0.20443916 -0.64514732 0
-0.50689125 0.12163353 -0.58638763 0
-0.25714493 0.0076503754 -0.50920582 0
0.25823689 -0.17769051 -0.39091778 0
-0.90526867 0.34837532 -0.75747299 0
-0.84481716 0.36591148 -0.75875282 0
-0.70915794 0.26963806 -0.69076157 0
-0.66822815 0.30368996 -0.71126366 0
-0.43883896 0.17022133 -0.61621666 0
-0.21628571 0.075239182 -0.557724 0
0.29968643 -0.1056385 -0.43152809 0
-0.97601032 0.46735573 -0.83304882 0
-0.83914852 0.45045471 -0.80168629 0
-0.83030224 0.39862061 -0.77945232 0
-0.62864494 0.32840729 -0.7299509 0
-0.41676998 0.21252632 -0.64844799 0
-0.36609936 0.23915672 -0.66355705 0
-0.085783958 0.12599373 -0.58276558 0
0.29127789 -0.0032787323 -0.50191689 0
-0.85186481 0.49814224 -0.8246727 0
0.65860558 -0.01656723 -0.42096424 0
-0.83476543 0.48397064 -0.74492455 0
-0.81101799 0.4783287 -0.7188015 0
0.66101933 0.021432877 -0.41224003 0
-0.24192905 -0.48249245 0.7852211 0
-0.55680466 -0.49796295 1.0264645 0
-0.77889538 -0.48920059 1.1156893 0
-0.44466972 -0.47367477 1.4367151 0
-0.96208572 -0.48799896 1.4745007 0
-0.65183163 -0.44744492 1.48314 0
-0.58706188 -0.38244057 1.4735317 0
-0.5101757 -0.41765213 1.4594259 0
-0.43497276 -0.38892937 1.415801 0
-0.6317606 -0.34032822 1.4736185 0
-0.44801807 -0.38855743 1.5828257 0
0.20939255 -0.49049377 -0.20089245 0
0.22908401 -0.43334579 -0.24036694 0
0.30828381 -0.32417679 -0.30640602 0
0.61056042 -0.093034744 -0.46257687 0
-0.97989178 -0.3906498 -0.26772213 0
-0.8910017 -0.32177162 -0.30913639 0
-0.56887913 -0.46013451 -0.21261406 0
-0.83423615 -0.24177361 -0.35997486 0
-0.4757576 -0.38565063 -0.26164341 0
-0.80613708 -0.17373276 -0.40740013 0
-0.42541122 -0.31675148 -0.31289864 0
-0.98905659 0.0086231232 -0.53261566 0
-0.74775505 -0.11778069 -0.44176292 0
-0.35944653 -0.25638008 -0.35134888 0
-0.9267931 0.077936172 -0.57622433 0
-0.68322182 -0.038082123 -0.49316216 0
-0.27423096 -0.17563248 -0.39664555 0
0.29722977 -0.39337158 -0.25772285 0
-0.88306427 0.15649986 -0.62946129 0
-0.6148119 0.034410477 -0.53781509 0
-0.24208546 -0.097793579 -0.4482336 0
-0.94586849 0.29801369 -0.72345638 0
-0.80917072 0.22081375 -0.66680431 0
-0.59527493 0.10764503 -0.59065437 0
-0.21011829 -0.02126503 -0.49811935 0
0.35543919 -0.23745346 -0.36066532 0
-0.95480919 0.36793518 -0.77622318 0
-0.75685883 0.2718792 -0.69819927 0
-0.52058887 0.16394043 -0.62406063 0
-0.14700222 0.040866852 -0.53926182 0
0.40816975 -0.15543938 -0.40971184 0
-0.91724491 0.44202232 -0.82566833 0
-0.82758141 0.43406296 -0.76810074 0
-0.73648834 0.31317902 -0.72681618 0
-0.41682911 0.19800377 -0.64065266 0
-0.11405373 0.096035004 -0.58323669 0
-0.034908295 0.11803627 -0.59279156 0
0.43879032 -0.10212898 -0.44190407 0
-0.8652916 -0.48233604 1.1223965 0
-0.99884129 -0.47876549 1.3964577 0
-0.5048666 -0.49807549 1.4437647 0
-0.9762001 -0.47553253 1.4528265 0
-0.67054558 -0.48122406 1.4913473 0
-0.59783554 -0.36280632 1.4580221 0
-0.56546021 -0.41748428 1.4835196 0
-0.45578098 -0.47320747 1.4763041 0
-0.45980072 -0.39484406 1.408802 0
-0.59943295 -0.33766556 1.4833908 0
-0.9614687 -0.37907219 -0.26213646 0
-0.90799332 -0.32035446 -0.30070496 0
-0.50054359 -0.46051788 -0.19643116 0
-0.88660336 -0.26429939 -0.33925724 0
-0.8440361 -0.22997475 -0.35703945 0
-0.42904091 -0.4027462 -0.23506641 0
-0.83273983 -0.17744064 -0.39446735 0
-0.77764988 -0.14886856 -0.40804672 0
-0.34395504 -0.34037399 -0.27651978 0
-0.7375536 -0.10825539 -0.43332672 0
-0.27457905 -0.27488518 -0.31870937 0
-0.92823887 0.057542801 -0.54738903 0
-0.68894958 -0.039787292 -0.47873211 0
-0.22189331 -0.20059204 -0.36514473 0
-0.8972044 0.11980247 -0.5913887 0
-0.84483719 0.15477371 -0.6105938 0
-0.64339352 0.019920349 -0.51756668 0
-0.58619213 0.055343628 -0.53547859 0
-0.23462582 -0.091117859 -0.44875145 0
0.59241486 -0.45524597 -0.20526981 0
-0.99490929 0.26063919 -0.69142628 0
-0.83484077 0.20059013 -0.64498711 0
-0.7759428 0.2288723 -0.65771961 0
-0.59850025 0.11804008 -0.58580971 0
-0.12786388 -0.044384003 -0.46379089 0
0.64993858 -0.36455154 -0.25818062 0
-0.97123528 0.35577393 -0.75726223 0
-0.76280117 0.28038025 -0.69585991 0
-0.4998064 0.16272926 -0.60622978 0
-0.089165688 0.039678574 -0.52719116 0
0.68264294 -0.25512695 -0.33814335 0
-0.95821762 0.42002296 -0.80203056 0
-0.87179279 0.45704842 -0.81636524 0
-0.78408432 0.39870071 -0.74851608 0
-0.74906731 0.32175446 -0.72375774 0
-0.45323467 0.22758293 -0.65687847 0
-0.00077533722 0.062198639 -0.53689384 0
0.9065733 -0.27905464 -0.32129383 0
-0.82115841 0.47802162 -0.80641747 0
0.78085804 -0.13980675 -0.41035748 0
-0.80366611 0.43284225 -0.72490215 0
-0.80228043 0.49660873 -0.72126389 0
-0.7270155 -0.44832611 1.4614401 0
-0.47904682 -0.48181534 1.4733772 0
-0.43413639 -0.40697098 1.4413185 0
-0.53523731 -0.4778347 1.5321102 0
-0.69263172 -0.37430382 1.4586668 0
-0.56986904 -0.36479378 1.4863443 0
-0.49522781 -0.42863464 1.5014219 0
-0.9422636 -0.47101021 -0.21066189 0
-0.87860775 -0.40611267 -0.25189018 0
-0.80549812 -0.34412575 -0.28921986 0
-0.76311779 -0.27773666 -0.33347797 0
-0.27742386 -0.45538712 -0.2121067 0
-0.6910696 -0.18591118 -0.39203739 0
-0.16236782 -0.39909554 -0.24340343 0
-0.97389412 -0.0072803497 -0.51671505 0
-0.9183321 0.029092789 -0.535676 0
-0.63048267 -0.109375 -0.44132233 0
-0.12718201 -0.34057617 -0.28719234 0
-0.87757683 0.065055847 -0.55667019 0
-0.56827354 -0.047849655 -0.47848034 0
-0.075040817 -0.26197052 -0.34235287 0
-0.8490572 0.14113617 -0.61033726 0
-0.54086781 0.036300659 -0.53860378 0
-0.00014591217 -0.18829155 -0.38303757 0
-0.99661922 0.32927322 -0.74826336 0
-0.99632549 0.27765846 -0.71029377 0
-0.84583473 0.21522331 -0.66686249 0
-0.77629566 0.24630165 -0.68011761 0
-0.51081848 0.085390091 -0.57123566 0
-0.44287014 0.11780739 -0.58755398 0
0.047122955 -0.10414505 -0.4355526 0
-0.97288132 0.37479973 -0.77737713 0
-0.75636101 0.29146194 -0.71220779 0
-0.40049362 0.15672493 -0.61669064 0
0.10031223 -0.012422562 -0.492033 0
-0.96506119 0.44512749 -0.82741165 0
-0.80264378 0.43766594 -0.75837708 0
-0.70548534 0.32850075 -0.73556423 0
-0.30889797 0.18886566 -0.63415051 0
0.1768055 0.024782181 -0.51399136 0
-0.80972958 0.47707939 -0.71518326 0
-0.20890808 -0.48558426 0.78681183 0
-0.79722691 -0.48951149 1.1285315 0
-0.99554825 -0.46578598 1.4742947 0
-0.68048763 -0.44739914 1.4638443 0
-0.52961063 -0.41590691 1.4754419 0
-0.45675087 -0.43757629 1.449194 0
-0.62943077 -0.37972069 1.48281 0
-0.56374264 -0.33873367 1.4623222 0
-0.95170784 0.26740074 -0.69309902 0
-0.91675377 0.3420639 -0.74233055 0
-0.64081287 0.27365112 -0.69204617 0
-0.88263893 0.41146469 -0.7871151 0
-0.82290745 0.44172668 -0.80431366 0
-0.9984417 -0.31599426 -0.30333805 0
-0.6551342 -0.49535942 -0.17969513 0
-0.99747086 -0.26111412 -0.34344864 0
-0.58081436 -0.42424965 -0.22110653 0
-0.94031048 -0.15649986 -0.40877819 0
-0.94177628 -0.22308159 -0.36078739 0
-0.5237875 -0.38324165 -0.24582386 0
-0.47599602 -0.33782196 -0.27671432 0
-0.88131905 -0.12096024 -0.42478466 0
-0.42470169 -0.29216385 -0.30584526 0
-0.83914089 -0.052091599 -0.47088051 0
-0.37563896 -0.20701408 -0.35940266 0
-0.79374504 0.024656296 -0.52237797 0
-0.33917046 -0.10821915 -0.42503643 0
0.48841286 -0.49079323 -0.1841774 0
-0.75211048 0.098510742 -0.57218838 0
-0.31046295 -0.058912277 -0.45581055 0
0.51422405 -0.4215374 -0.22875595 0
-0.69922829 0.17442894 -0.62159729 0
-0.24765205 0.017339706 -0.50545883 0
0.56475163 -0.3065815 -0.30301094 0
-0.65097427 0.21134758 -0.64182568 0
-0.15430737 0.082288742 -0.55238628 0
0.71265984 -0.23595619 -0.35456753 0
-0.82839298 0.48006058 -0.73781681 0
-0.80834866 0.42147827 -0.75780964 0
-0.058178902 0.12801933 -0.58202553 0
0.94810295 -0.24541283 -0.35440159 0
-0.80954647 0.49990273 -0.69319725 0
-0.19199085 -0.46089172 0.74513054 0
-0.16635704 -0.49346924 0.83117294 0
-0.76605225 -0.49407578 1.1356707 0
-0.95126915 -0.48674965 1.4521742 0
-0.59977627 -0.47048378 1.5191422 0
-0.51280022 -0.4486866 1.4867592 0
-0.43242455 -0.46359444 1.4497557 0
-0.57049561 -0.48678398 -0.18472862 0
-0.98828697 -0.2228756 -0.37369537 0
-0.49237728 -0.40716934 -0.23147678 0
-0.94617081 -0.17231369 -0.40137291 0
-0.51688004 -0.32784271 -0.29823971 0
-0.90147781 -0.092592239 -0.45078754 0
-0.42180443 -0.29824257 -0.30732059 0
-0.8528738 -0.012264252 -0.50277519 0
-0.41283512 -0.18959236 -0.38132 0
-0.84101963 0.045185089 -0.54388809 0
-0.7776289 0.081317902 -0.56006908 0
-0.3699131 -0.091468811 -0.44082451 0
-0.77773094 0.1450901 -0.60787964 0
-0.36269569 -0.028795242 -0.48285389 0
-0.74265099 0.18871689 -0.63449478 0
-0.35565472 0.042314529 -0.53534985 0
-0.99205875 0.40745544 -0.79787731 0
-0.71947193 0.28153038 -0.70107937 0
-0.21282387 0.095405579 -0.56402206 0
-0.95198536 0.44529533 -0.81785488 0
-0.87751102 0.49900818 -0.81707382 0
-0.81432247 0.43796158 -0.76577187 0
0.41197968 -0.42772102 -0.22745895 0
0.4336853 -0.35542488 -0.27239895 0
0.47423744 -0.28606224 -0.31154633 0
0.49491596 -0.11855125 -0.42171383 0
0.46208858 -0.19174194 -0.37839603 0
-0.79584217 0.44426918 -0.70637512 0
-0.14651108 -0.48105812 0.8158226 0
-0.57333851 -0.47948647 0.99496078 0
-0.83531475 -0.48327446 1.1319199 0
-0.57997608 -0.41014099 1.4979315 0
-0.52078342 -0.47374344 1.4986267 0
-0.44696999 -0.41799927 1.4628448 0
-0.96760654 -0.41089249 -0.2407608 0
-0.88571835 -0.3705864 -0.25705051 0
-0.91496658 -0.28055191 -0.32875729 0
-0.89826965 -0.18144035 -0.39384842 0
-0.84749031 -0.10792923 -0.4371109 0
-0.84489346 -0.028997421 -0.49455547 0
-0.79887009 0.050514221 -0.54456329 0
-0.77072906 0.14341736 -0.60758305 0
-0.984025 0.31986618 -0.73058987 0
-0.71504593 0.21587563 -0.65063953 0
-0.99719143 0.41916275 -0.80399132 0
-0.69222355 0.30561638 -0.71523666 0
-0.9835701 0.4702034 -0.83782673 0
-0.83974743 0.49872017 -0.81138802 0
-0.84146404 0.43494225 -0.78487015 0
-0.49774551 -0.49607468 -0.17733002 0
-0.48409939 -0.43216896 -0.22230053 0
-0.42417526 -0.38349915 -0.24952984 0
-0.38631153 -0.27445412 -0.32389927 0
-0.37987518 -0.16574287 -0.39490795 0
-0.34735107 -0.097934723 -0.43232155 0
0.60473442 -0.43780136 -0.21800804 0
-0.34284973 -0.016160965 -0.48503399 0
0.5744524 -0.33200455 -0.28831196 0
-0.31516647 0.028835297 -0.5157938 0
0.58903503 -0.24252319 -0.34206963 0
-0.2258873 0.11552238 -0.57733536 0
-0.83002663 0.47783279 -0.72755527 0
0.8089056 -0.22792244 -0.36050987 0
-0.59656811 -0.45151329 1.4984999 0
-0.50513268 -0.46839142 1.4955759 0
-0.45925045 -0.46182632 1.4635296 0
-0.59107399 -0.33922958 1.4706774 0
-0.49000359 -0.4914875 1.635745 0
-0.98830986 -0.48626137 -0.19978428 0
-0.94871807 -0.43006516 -0.23361874 0
-0.94359303 -0.34613419 -0.29398346 0
-0.90438747 -0.25560379 -0.34985542 0
-0.39073944 -0.40436745 -0.24534988 0
-0.41076851 -0.47581291 -0.1980238 0
-0.90152168 -0.15059853 -0.41894722 0
-0.37154484 -0.33065224 -0.29457951 0
-0.91128063 -0.059875488 -0.48351002 0
-0.3591795 -0.24274445 -0.3497715 0
-0.88796997 0.0076313019 -0.5266552 0
-0.3449297 -0.17663765 -0.38562393 0
-0.86030006 0.092760086 -0.5814085 0
-0.40503979 -0.067401886 -0.46519661 0
-0.85294914 0.19399643 -0.65167618 0
-0.40997505 0.019481659 -0.52379131 0
-0.76805687 0.26641273 -0.69089603 0
-0.36222267 0.076417923 -0.55875587 0
-0.75386906 0.36143494 -0.75798512 0
-0.30860138 0.16731644 -0.62439728 0
-0.82868767 0.47958755 -0.7874918 0
0.60237503 -0.4163208 -0.23947811 0
0.58935738 -0.3099556 -0.30129528 0
0.5348053 -0.19957352 -0.37759781 0
0.49748707 -0.096578598 -0.44620705 0
-0.80106544 -0.49865341 1.1401358 0
-0.56895828 -0.49632645 1.5111933 0
-0.50027943 -0.44132423 1.4743319 0
-0.44867134 -0.49441528 1.4594517 0
-0.43510437 -0.38738441 1.4357281 0
-0.57190609 -0.37853813 1.4766302 0
