# .PCD v0.7 - Point Cloud Data file format
VERSION 0.7
FIELDS x y z intensity
SIZE 4 4 4 4
TYPE F F F F
COUNT 1 1 1 1
WIDTH 1295
HEIGHT 1
VIEWPOINT 0 0 0 1 0 0 0
POINTS 1295
DATA ascii
0.82620239 0.14667702 -0.30925131 0
0.93206787 0.14602757 -0.29585201 0
0.99498367 0.14885139 -0.28807932 0
0.55163956 0.29419994 -0.33484301 0
0.61802673 0.24816608 -0.33124512 0
0.71504879 0.26165104 -0.31846067 0
0.81188297 0.24310017 -0.30755427 0
0.93093204 0.24523544 -0.29210609 0
0.51641464 0.35956955 -0.33742672 0
0.61099243 0.3515749 -0.32707244 0
0.71798706 0.35655308 -0.31360811 0
0.81757164 0.34074783 -0.30270505 0
0.92506695 0.3551569 -0.28856945 0
0.99048996 0.33166885 -0.28134555 0
0.35940075 0.48969936 -0.34000045 0
0.42922211 0.45807743 -0.3383866 0
0.52033615 0.45254326 -0.3298901 0
0.60103703 0.44932175 -0.32228693 0
0.71251583 0.45914173 -0.30884981 0
0.81110477 0.45264149 -0.29830369 0
0.92108727 0.43902302 -0.28562611 0
0.042329788 -0.47570419 -0.322707 0
0.12522602 -0.44407082 -0.32684344 0
0.23272514 -0.45534229 -0.32257593 0
0.32672215 -0.44120598 -0.32494935 0
0.43162537 -0.41966343 -0.32807478 0
0.14825726 -0.35342884 -0.34573677 0
0.23760891 -0.3461237 -0.34669459 0
0.32836914 -0.35062885 -0.3448633 0
0.43078613 -0.34886169 -0.34117258 0
0.52133942 -0.34987164 -0.34108061 0
0.17168617 -0.28287125 -0.36103216 0
0.23351479 -0.24642849 -0.36720344 0
0.32892036 -0.24771404 -0.36436355 0
0.43007565 -0.24471283 -0.35806206 0
0.51974297 -0.24995708 -0.34832942 0
0.24597454 -0.14163685 -0.37638241 0
0.33626842 -0.14780235 -0.36772841 0
0.43361664 -0.14180088 -0.35824853 0
0.50495338 -0.15955734 -0.35038838 0
0.24123669 -0.036170959 -0.37493232 0
0.32676888 -0.044748306 -0.36864352 0
0.43480492 -0.047645569 -0.35770783 0
0.50080681 -0.085746765 -0.35189018 0
0.22548866 0.061870575 -0.37602788 0
0.34002018 0.05380249 -0.36633539 0
0.42523575 0.055813789 -0.3595925 0
0.17036057 0.17748356 -0.37817279 0
0.24190998 0.149683 -0.37398577 0
0.34319305 0.14974117 -0.36600214 0
0.42021561 0.13026905 -0.36017978 0
0.15215111 0.2641983 -0.37810737 0
0.24580574 0.25239182 -0.37046713 0
0.34009838 0.24602222 -0.36500397 0
0.13268375 0.36231327 -0.37552685 0
0.23399353 0.35775661 -0.36744505 0
0.32326317 0.31822205 -0.36224467 0
0.056882858 0.48384476 -0.37502569 0
0.14553452 0.45147038 -0.3678157 0
0.22634888 0.43911457 -0.36300802 0
0.37695885 -0.48191929 -0.31176722 0
0.44026184 -0.46655178 -0.31818992 0
0.54138374 -0.4537344 -0.31888381 0
0.63638878 -0.45047379 -0.31760585 0
0.74457932 -0.43459034 -0.31689644 0
0.81659603 -0.45066357 -0.31282946 0
0.94124699 -0.44796181 -0.30246419 0
0.54442692 -0.39158535 -0.33265904 0
0.62676525 -0.33877277 -0.33570868 0
0.73318863 -0.34103298 -0.32549697 0
0.8301506 -0.34748936 -0.3153699 0
0.94661427 -0.34397888 -0.30029514 0
0.57546329 -0.24716377 -0.34280884 0
0.64291096 -0.23531723 -0.33565217 0
0.73673248 -0.26163387 -0.32534945 0
0.82834911 -0.23863602 -0.31484303 0
0.93637085 -0.23668289 -0.30231434 0
0.57079506 -0.17103195 -0.34284151 0
0.6485157 -0.1402607 -0.3348195 0
0.74112129 -0.13393402 -0.32550904 0
0.83702946 -0.14254665 -0.31548479 0
0.95879173 -0.14725494 -0.30113375 0
0.54010773 -0.034898758 -0.34713894 0
0.63648033 -0.036558151 -0.33655781 0
0.74193096 -0.023360252 -0.32561058 0
0.86185551 -0.046364784 -0.31251687 0
0.95031261 -0.048045158 -0.30265373 0
0.48740101 0.047677994 -0.35252988 0
0.54498863 0.062904358 -0.34681427 0
0.6182766 0.067544937 -0.33919284 0
0.72991467 0.050873756 -0.3270424 0
0.84054947 0.065429688 -0.31567007 0
0.93885517 0.029706001 -0.30498689 0
0.4644022 0.16351128 -0.35572731 0
0.54803181 0.15316105 -0.34726331 0
0.65096092 0.15836906 -0.33542928 0
0.74705505 0.14360046 -0.32479683 0
0.84432793 0.15184975 -0.31295216 0
0.4299593 0.25425434 -0.35721341 0
0.54470825 0.26217365 -0.34491724 0
0.65921021 0.24777222 -0.33102793 0
0.74382496 0.24249077 -0.32192153 0
0.82702923 0.26030636 -0.310352 0
0.34536266 0.36976147 -0.35723314 0
0.44565582 0.353302 -0.34970635 0
0.55277252 0.35463142 -0.33923623 0
0.65947437 0.34446239 -0.32686633 0
0.74809456 0.35587311 -0.31633872 0
0.80720425 0.32188034 -0.31104696 0
0.2646389 0.47168922 -0.35692024 0
0.34635735 0.45359516 -0.35110629 0
0.44268608 0.46014786 -0.34239858 0
0.53540134 0.44839287 -0.33499238 0
0.62580585 0.45249748 -0.32569778 0
0.72814846 0.46044636 -0.31279805 0
0.96980095 0.076960564 -0.29942137 0
0.96500778 0.15660667 -0.29714674 0
0.88322735 0.27171135 -0.30370373 0
0.96105289 0.26205921 -0.29316515 0
0.87773037 0.35902405 -0.3004607 0
0.95890903 0.36036491 -0.2909261 0
0.78570461 0.42788029 -0.30750531 0
0.85801601 0.45904922 -0.297647 0
0.98029423 0.45648956 -0.28356034 0
-0.21941757 -0.48872662 -0.31151444 0
-0.13623524 -0.46525764 -0.314668 0
-0.027157784 -0.46219635 -0.31401181 0
0.058802605 -0.45859146 -0.315732 0
0.16073036 -0.43437386 -0.32133698 0
-0.1021595 -0.37106323 -0.33291835 0
-0.020884514 -0.36841297 -0.33415699 0
0.090186119 -0.36453533 -0.33395469 0
0.16724873 -0.36144829 -0.33451575 0
0.25067425 -0.36169243 -0.33552179 0
-0.080425262 -0.27188301 -0.35397768 0
-0.026957512 -0.27024841 -0.35316706 0
0.084097862 -0.26370144 -0.354157 0
0.16448212 -0.26072502 -0.35641912 0
0.27771282 -0.26783848 -0.35294312 0
0.36529064 -0.25467682 -0.34877074 0
-0.011713028 -0.16120911 -0.37532213 0
0.078181267 -0.16771889 -0.3727318 0
0.18678474 -0.17534637 -0.36931419 0
0.27917957 -0.16605473 -0.36286068 0
0.36763859 -0.16810513 -0.35480082 0
-0.016856194 -0.062263489 -0.38692567 0
0.073796272 -0.064666748 -0.37869042 0
0.16825104 -0.065594673 -0.37174994 0
0.28266144 -0.073124886 -0.3621408 0
0.36177254 -0.050006866 -0.35575402 0
-0.01214695 0.031287193 -0.38452062 0
0.081812859 0.029845238 -0.37631208 0
0.16474438 0.040462494 -0.3711853 0
0.27831459 0.02737236 -0.36213458 0
0.35422897 0.0030250549 -0.35811883 0
0.00055408478 0.13724422 -0.38002837 0
0.078445435 0.14200783 -0.37480181 0
0.1847105 0.13017559 -0.36705351 0
0.26566887 0.12968254 -0.36243522 0
0.34066391 0.086862564 -0.35758147 0
-0.070931435 0.25101852 -0.3843815 0
-0.026955605 0.24674797 -0.37969673 0
0.08206749 0.23442078 -0.37105417 0
0.18349171 0.23686886 -0.36411601 0
0.26749897 0.21939659 -0.35934055 0
-0.078274727 0.36194897 -0.37854117 0
-0.018811226 0.33151436 -0.37672278 0
0.079136848 0.34150219 -0.36831212 0
0.1802721 0.33019829 -0.36271107 0
-0.096100807 0.45976925 -0.37573379 0
-0.0070466995 0.43209648 -0.37133151 0
0.094209671 0.44098568 -0.36306739 0
0.16607952 0.4261961 -0.35958314 0
0.18499756 -0.48005772 -0.30910981 0
0.28775978 -0.46791553 -0.31061682 0
0.38791561 -0.46597576 -0.30901337 0
0.48293018 -0.47379589 -0.30747777 0
0.55002403 -0.47410488 -0.30641526 0
0.67760277 -0.46657753 -0.30436379 0
0.77567196 -0.4666996 -0.30339658 0
0.87566757 -0.47819328 -0.2972213 0
0.3810358 -0.36579323 -0.33198974 0
0.48151493 -0.37254906 -0.32814261 0
0.58271885 -0.37214851 -0.32487646 0
0.670784 -0.36144829 -0.32152605 0
0.76911449 -0.37187099 -0.31035885 0
0.86564159 -0.37642384 -0.29909635 0
0.406991 -0.28951359 -0.34489059 0
0.48019409 -0.27032757 -0.34173012 0
0.56287003 -0.26959419 -0.33320862 0
0.68010521 -0.26703072 -0.32115895 0
0.79240322 -0.2623682 -0.3084811 0
0.87031555 -0.26202679 -0.30025911 0
0.40982628 -0.1278286 -0.34941161 0
0.49044418 -0.17155933 -0.34107918 0
0.60141659 -0.16889668 -0.32934052 0
0.67422581 -0.18414021 -0.32163578 0
0.78659058 -0.16364765 -0.31043822 0
0.86126804 -0.19779873 -0.30214393 0
0.40252209 -0.070500374 -0.35181609 0
0.48600292 -0.058000565 -0.3423025 0
0.59091377 -0.054466248 -0.33094144 0
0.67328644 -0.078654289 -0.3219738 0
0.79014492 -0.078302383 -0.30996412 0
0.85794735 -0.069190025 -0.3033964 0
0.4023447 0.045868874 -0.35091782 0
0.4701643 0.041556358 -0.3444311 0
0.59327126 0.033532143 -0.33071545 0
0.69116879 0.024968147 -0.32142144 0
0.78530598 0.038212776 -0.31108069 0
0.32810307 0.14549255 -0.35619873 0
0.39548969 0.13432026 -0.35095865 0
0.48351002 0.12250805 -0.34295154 0
0.58006477 0.12644672 -0.33255571 0
0.68729019 0.1330986 -0.32106584 0
0.78759956 0.12689209 -0.31026006 0
0.31632423 0.24444294 -0.35521048 0
0.39303684 0.22128105 -0.35215473 0
0.49945354 0.24796963 -0.34078234 0
0.58994198 0.22593784 -0.33062187 0
0.6986475 0.23648643 -0.31672066 0
0.76164818 0.18280315 -0.31096762 0
0.29546738 0.34516525 -0.35312843 0
0.4060688 0.32741261 -0.34490061 0
0.50361443 0.34060287 -0.33408523 0
0.58502102 0.34064007 -0.32606924 0
0.69127655 0.32040977 -0.31380576 0
0.7463913 0.29569721 -0.3077158 0
0.18898487 0.44888115 -0.35407978 0
0.2807951 0.4485302 -0.34692633 0
0.38608074 0.43059921 -0.33826488 0
0.49759865 0.42943954 -0.32817131 0
0.59609604 0.42890072 -0.31900316 0
0.67403889 0.40010262 -0.31316209 0
0.977108 -0.46266842 -0.28802636 0
0.92100143 -0.33547497 -0.29321754 0
0.9589653 -0.26811028 -0.29002899 0
0.98407936 -0.18300819 -0.28669977 0
0.90964603 -0.060556412 -0.29723302 0
0.99636269 -0.087712288 -0.28656989 0
0.84070396 0.055612564 -0.30582243 0
0.90437794 0.026740074 -0.29809043 0
0.99353409 0.022320747 -0.28688169 0
0.87772846 0.12936401 -0.29845348 0
0.8331852 0.23855114 -0.29887646 0
0.89123154 0.22193909 -0.29358247 0
0.79994488 0.33292675 -0.30054426 0
0.89256191 0.32004738 -0.28961831 0
0.99905014 0.32779121 -0.27643925 0
0.73365402 0.44446564 -0.30292249 0
0.8208704 0.41671562 -0.2928949 0
0.89156151 0.42922306 -0.28548855 0
0.9930582 0.45309925 -0.2717196 0
-0.23477173 -0.063471794 -0.40833327 0
-0.23025703 0.037752151 -0.40972477 0
-0.43116474 -0.48903275 -0.32310724 0
-0.33095741 -0.49152184 -0.32256055 0
-0.22270489 -0.49416161 -0.32300597 0
-0.1346035 -0.48996162 -0.32422173 0
-0.050579071 -0.47126389 -0.33054632 0
-0.4213295 -0.38494968 -0.34652984 0
-0.3201952 -0.39338875 -0.34309369 0
-0.22470474 -0.39972115 -0.34186119 0
-0.13875103 -0.40172768 -0.34183782 0
-0.030055046 -0.39962196 -0.34215802 0
0.069618225 -0.35815716 -0.34883437 0
0.14415073 -0.3761797 -0.34909177 0
-0.31842518 -0.30231476 -0.35928521 0
-0.23320293 -0.29022598 -0.36244226 0
-0.1325922 -0.28494835 -0.36327976 0
-0.035695076 -0.3012867 -0.36156633 0
0.06151104 -0.27909565 -0.36683896 0
0.16550159 -0.29740238 -0.36271787 0
0.26662064 -0.30666637 -0.36186779 0
-0.30514717 -0.21498585 -0.37753528 0
-0.23628902 -0.19005966 -0.38189155 0
-0.1365099 -0.19573212 -0.37993005 0
-0.031791687 -0.20235825 -0.38176715 0
0.079327583 -0.18964958 -0.38245082 0
0.17837238 -0.18675804 -0.37795019 0
0.27359867 -0.20605755 -0.37305516 0
0.34422207 -0.19957352 -0.36444211 0
-0.21654129 -0.08760643 -0.39953774 0
-0.13825321 -0.10528851 -0.39561361 0
-0.03177166 -0.10253716 -0.3939814 0
0.086500168 -0.092442513 -0.38541788 0
0.18454075 -0.09823513 -0.37824726 0
0.281003 -0.096701622 -0.37150395 0
0.35599804 -0.09384346 -0.36458832 0
-0.18607044 0.019738197 -0.4054116 0
-0.12827492 -0.00096797943 -0.40222284 0
-0.028544426 0.0062837601 -0.3938159 0
0.072846413 0.013083458 -0.38680977 0
0.17453766 -0.0084867477 -0.37758794 0
0.26753616 -0.0042943954 -0.37080282 0
0.34313679 -0.0017213821 -0.36545923 0
-0.20592499 0.1150465 -0.40341452 0
-0.13379288 0.10505295 -0.39908206 0
-0.020978928 0.10544968 -0.38979471 0
0.098971367 0.081185341 -0.38247377 0
0.17510509 0.10664558 -0.37603867 0
0.27691269 0.084819794 -0.36980227 0
0.34689522 0.085801125 -0.36647785 0
-0.2057476 0.20890427 -0.40002376 0
-0.098086357 0.20096493 -0.39227253 0
-0.011497498 0.20104122 -0.38708571 0
0.089453697 0.19355774 -0.38070381 0
0.2013607 0.19963646 -0.37349653 0
0.29604816 0.20152473 -0.36608937 0
0.34924412 0.21146202 -0.36230844 0
-0.20364189 0.30134296 -0.39575225 0
-0.11675739 0.32026005 -0.38996044 0
-0.021100044 0.30155277 -0.38583317 0
0.091301918 0.29662132 -0.37909549 0
0.19471073 0.30405617 -0.37148243 0
0.29845715 0.29910755 -0.36265439 0
-0.27117443 0.42333317 -0.39375907 0
-0.21042538 0.4061861 -0.39188725 0
-0.10656071 0.40493011 -0.38651371 0
-0.0090093613 0.40253067 -0.38134399 0
0.095269203 0.40210056 -0.37158257 0
0.18427563 0.40807915 -0.36454618 0
0.29413986 0.39282036 -0.35575536 0
0.19921017 0.49778366 -0.35713327 0
0.27488804 0.47433758 -0.35244349 0
0.16527843 -0.4942131 -0.32149553 0
0.26091003 -0.48348522 -0.32291865 0
0.47413349 -0.48974228 -0.31845242 0
0.58484173 -0.49848652 -0.31612083 0
-0.001332283 -0.44397926 -0.32778728 0
0.086053848 -0.41181946 -0.33901295 0
0.19873619 -0.40816116 -0.3411971 0
0.27992725 -0.38650703 -0.34160584 0
0.36274815 -0.41412258 -0.33676636 0
0.45493507 -0.39418983 -0.33832788 0
0.5579586 -0.40329838 -0.33395612 0
0.664114 -0.42246628 -0.32430971 0
0.77590847 -0.42186451 -0.31824082 0
0.19178963 -0.35176086 -0.34846044 0
0.38419247 -0.3095417 -0.35650867 0
0.46629047 -0.31034946 -0.35077846 0
0.56205368 -0.29235172 -0.34149569 0
0.64726448 -0.31434917 -0.33254522 0
0.7705164 -0.32623196 -0.31979501 0
0.39028454 -0.21618652 -0.35993135 0
0.44055367 -0.20765686 -0.3557846 0
0.56336784 -0.21175194 -0.34239641 0
0.68117523 -0.2224884 -0.32917774 0
0.76812458 -0.24111938 -0.32042724 0
0.85351276 -0.17156982 -0.31031871 0
0.40468884 -0.098676682 -0.35877588 0
0.46121693 -0.10048294 -0.35431606 0
0.57424641 -0.11744022 -0.34101474 0
0.68171501 -0.11146545 -0.32981846 0
0.77265549 -0.10733318 -0.32109618 0
0.40628433 -0.0066289902 -0.35925084 0
0.51238632 -0.0094051361 -0.34682667 0
0.58344078 -0.010983467 -0.34079894 0
0.69221115 0.0015001297 -0.32882404 0
0.76407719 -0.00116539 -0.32143468 0
0.84710503 -0.0057592392 -0.31244981 0
0.41090488 0.099776268 -0.35856187 0
0.49453735 0.087524414 -0.35009477 0
0.58387756 0.09431839 -0.34144431 0
0.69927692 0.085661888 -0.32812876 0
0.76325607 0.087029457 -0.32136837 0
0.85792065 0.072041512 -0.31099331 0
0.39793587 0.19111061 -0.36241415 0
0.4894762 0.19231319 -0.35082883 0
0.5726881 0.18307018 -0.34171551 0
0.68332481 0.17887878 -0.3280679 0
0.78476334 0.16997337 -0.31571811 0
0.401227 0.30153656 -0.35257411 0
0.48773098 0.29520607 -0.34711134 0
0.59300995 0.2808857 -0.33539981 0
0.69291496 0.2801733 -0.32336617 0
0.81864452 0.27691364 -0.30737996 0
0.33424473 0.40458107 -0.3510983 0
0.38280201 0.40034676 -0.35071921 0
0.49799633 0.39058304 -0.338559 0
0.57784557 0.40707207 -0.33058906 0
0.70089817 0.38250542 -0.31699443 0
0.7939682 0.37157059 -0.30687267 0
0.4026022 0.47879028 -0.34051257 0
0.59388065 0.47792435 -0.32331926 0
0.78131962 0.48400593 -0.30115378 0
0.89079285 -0.43284988 -0.3052265 0
0.9338274 -0.40577126 -0.30236036 0
0.89194107 -0.33366585 -0.30487928 0
0.96276379 -0.3466177 -0.29722565 0
0.91333675 -0.23907852 -0.30190766 0
0.98156834 -0.22419262 -0.29537746 0
0.90231228 -0.14160252 -0.30564126 0
0.99520206 -0.12991524 -0.29440129 0
0.92230415 -0.045712471 -0.30366379 0
0.98355389 -0.020172119 -0.29684106 0
0.90025902 0.12729836 -0.30355847 0
0.99113274 0.08725071 -0.29200733 0
0.8962698 0.19596481 -0.30011076 0
0.90517139 0.30183792 -0.29605854 0
0.9903841 0.24837303 -0.28758135 0
0.89616299 0.38467503 -0.29229328 0
0.90648651 0.48086929 -0.28723061 0
-0.42432499 -0.016534805 -0.40518117 0
-0.36196232 0.010979652 -0.40611774 0
-0.28543854 0.019408226 -0.40736812 0
-0.41146183 0.15294456 -0.41025338 0
-0.34215069 0.113451 -0.4042266 0
-0.27305889 0.091428757 -0.40437499 0
-0.40616703 0.22445488 -0.40639937 0
-0.33299541 0.20893955 -0.39983654 0
-0.41143131 0.32983685 -0.40072134 0
-0.33148766 0.30180264 -0.39752334 0
-0.41585827 0.41621876 -0.39469951 0
-0.34903717 0.41009712 -0.39242446 0
-0.2913475 0.43748856 -0.38904157 0
-0.74971581 -0.49745178 -0.30574793 0
-0.66215897 -0.4893713 -0.31021684 0
-0.55468082 -0.48978329 -0.31200841 0
-0.46662617 -0.46466732 -0.32253891 0
-0.38981819 -0.46361923 -0.32388821 0
-0.64132309 -0.39966583 -0.33570999 0
-0.56909084 -0.38860226 -0.33827364 0
-0.45249939 -0.39015102 -0.33657902 0
-0.36208725 -0.39196014 -0.33513194 0
-0.26795769 -0.39757156 -0.33397871 0
-0.17798233 -0.37276745 -0.34133685 0
-0.61355877 -0.32394218 -0.35325226 0
-0.5304327 -0.29041767 -0.35533538 0
-0.4678793 -0.29481983 -0.35580039 0
-0.35511208 -0.29598713 -0.35276365 0
-0.25380516 -0.29813957 -0.35394454 0
-0.1682806 -0.2849226 -0.35822016 0
-0.069198608 -0.2984333 -0.35598254 0
0.03307724 -0.3055582 -0.35436749 0
0.13022232 -0.26774597 -0.36049721 0
-0.52301407 -0.23151016 -0.37264735 0
-0.45543003 -0.19391632 -0.37445709 0
-0.35295963 -0.2096796 -0.37194389 0
-0.26108837 -0.17829514 -0.37553924 0
-0.16660595 -0.18726635 -0.37562346 0
-0.06223774 -0.18886375 -0.37627202 0
0.04094696 -0.20725346 -0.37368128 0
0.13614368 -0.20279217 -0.37551093 0
0.24261951 -0.19926834 -0.36949199 0
-0.42713928 -0.095375061 -0.38971823 0
-0.35159397 -0.098757744 -0.39152494 0
-0.24532509 -0.089863777 -0.39167756 0
-0.158638 -0.086806297 -0.39264151 0
-0.05351162 -0.10121536 -0.38899982 0
0.029374123 -0.10062027 -0.38489127 0
0.13670444 -0.10388756 -0.37586319 0
0.23075294 -0.096609116 -0.36893076 0
0.29949188 -0.099323273 -0.36723024 0
-0.26150322 0.01486969 -0.40167278 0
-0.16441822 0.0037183762 -0.39844602 0
-0.055213928 0.013635635 -0.39106739 0
0.01417923 -0.009847641 -0.38814551 0
0.14631939 0.0033750534 -0.37565929 0
0.24927139 -0.018452644 -0.36765116 0
-0.30690193 0.075241089 -0.40082049 0
-0.25277042 0.11985874 -0.39996174 0
-0.14829922 0.10043526 -0.39455962 0
-0.049508095 0.10435104 -0.38815445 0
0.038885117 0.091507912 -0.38325438 0
0.12866688 0.098184586 -0.37692827 0
0.25206089 0.084415436 -0.36701918 0
-0.24068737 0.2007618 -0.3961463 0
-0.13527679 0.20986366 -0.38968283 0
-0.040622711 0.19825459 -0.38424668 0
0.037985802 0.21018314 -0.37984157 0
0.14886761 0.20621014 -0.37123388 0
0.24656963 0.18994236 -0.36646369 0
0.32201767 0.16550255 -0.36222309 0
-0.22998333 0.3071003 -0.39060926 0
-0.14570808 0.2922287 -0.38683441 0
-0.046515465 0.30458641 -0.38087127 0
0.060887337 0.31036663 -0.37569755 0
0.14234543 0.29799366 -0.37135631 0
0.25347137 0.29158592 -0.36190689 0
0.34113503 0.32378483 -0.35392246 0
-0.24275684 0.4053297 -0.38657641 0
-0.15191746 0.39768028 -0.38380042 0
-0.032689095 0.39806557 -0.37614703 0
0.062706947 0.39356518 -0.37117869 0
0.18411541 0.38809204 -0.36062738 0
0.2461729 0.39458466 -0.35597676 0
0.31645107 0.40923214 -0.35082662 0
-0.1374712 0.49211979 -0.37682623 0
0.061537743 0.48774433 -0.36547649 0
0.16832161 0.48859215 -0.3551873 0
0.2516222 0.49998951 -0.34804237 0
0.31821537 0.44570541 -0.34729338 0
-0.067516327 -0.49554443 -0.31504828 0
-0.22925091 -0.44596958 -0.32548717 0
-0.16126823 -0.41981506 -0.33082554 0
-0.070560455 -0.40807724 -0.33250761 0
0.050502777 -0.41344166 -0.33109111 0
0.13957214 -0.39744377 -0.33489853 0
0.24076557 -0.3988657 -0.33405071 0
0.33151913 -0.41560173 -0.33028519 0
0.44190598 -0.40444851 -0.32911873 0
0.55098724 -0.4333725 -0.321004 0
0.65717888 -0.42088032 -0.32064688 0
0.040160179 -0.3539505 -0.34613907 0
0.14387226 -0.32116985 -0.35128316 0
0.24343586 -0.31216049 -0.35215247 0
0.35001183 -0.29076099 -0.3558175 0
0.41990948 -0.33283424 -0.34484702 0
0.53620338 -0.33406448 -0.33915824 0
0.64455605 -0.31254673 -0.32757729 0
0.70879841 -0.31450462 -0.32298636 0
0.34393692 -0.22053146 -0.35899431 0
0.45071888 -0.2229805 -0.34824193 0
0.55074215 -0.23231792 -0.33876038 0
0.65884686 -0.19066906 -0.32706183 0
0.72761917 -0.22090435 -0.32119066 0
0.29190159 -0.10952377 -0.36365011 0
0.33726215 -0.10828114 -0.36124712 0
0.44013786 -0.12816143 -0.35049742 0
0.53941727 -0.093193054 -0.34012118 0
0.66642094 -0.12855339 -0.32590848 0
0.74692917 -0.12857723 -0.3179585 0
0.36467266 0.004573822 -0.35731578 0
0.45565033 -0.020941734 -0.3493239 0
0.55866146 -0.02298069 -0.33914575 0
0.66088295 -0.01706028 -0.32726771 0
0.75929737 -0.027036667 -0.31712979 0
0.34994888 0.085697174 -0.35993692 0
0.46769619 0.085474014 -0.34765816 0
0.58275223 0.084644318 -0.33511966 0
0.634758 0.091168404 -0.33103222 0
0.74685955 0.071014404 -0.31936836 0
0.36014748 0.23590183 -0.35662994 0
0.46738911 0.192029 -0.34747961 0
0.55494404 0.17431545 -0.33838776 0
0.67775249 0.19657612 -0.32335192 0
0.77847481 0.13962936 -0.3126798 0
0.38550091 0.27013779 -0.35072595 0
0.44013023 0.28645039 -0.34752268 0
0.56180477 0.28051376 -0.33320737 0
0.66951466 0.28729534 -0.32149982 0
0.79095078 0.25636292 -0.30739206 0
0.37592316 0.38732243 -0.34542507 0
0.46992016 0.38020515 -0.33708403 0
0.54704952 0.37464619 -0.3310295 0
0.6272049 0.38022804 -0.32121375 0
0.74150276 0.38463211 -0.3071968 0
0.36263943 0.49247456 -0.33845562 0
0.53869247 0.46638107 -0.32599252 0
0.66158485 0.48408318 -0.30983067 0
0.778368 0.4521656 -0.29775715 0
0.69033813 -0.46496964 -0.31178507 0
0.75972366 -0.4086895 -0.31636822 0
0.88994217 -0.45150375 -0.30158013 0
0.95920849 -0.44175529 -0.2928896 0
0.75903416 -0.32800484 -0.31501985 0
0.8364706 -0.31350327 -0.30679816 0
0.94544506 -0.31615448 -0.2942183 0
0.8251524 -0.23006535 -0.30985925 0
0.94236088 -0.21772957 -0.29513529 0
0.84503746 -0.1571312 -0.30792129 0
0.97104836 -0.11830711 -0.29224446 0
0.84417057 -0.073754311 -0.30932003 0
0.9610157 -0.02140522 -0.29395807 0
0.88064766 0.019993782 -0.30466443 0
0.94729042 0.069989204 -0.29429442 0
0.85864067 0.15844154 -0.30262363 0
0.97878933 0.15245247 -0.2878491 0
0.85012913 0.28297806 -0.29893881 0
0.97955036 0.26124382 -0.28347698 0
0.90090179 0.35383034 -0.28881049 0
0.96413994 0.3702507 -0.28154862 0
0.86689472 0.46974659 -0.28789505 0
0.95266628 0.48009682 -0.27782923 0
-0.65343952 0.05249691 -0.41083676 0
-0.58832932 0.050597191 -0.41267544 0
-0.5827055 0.1128273 -0.41573101 0
-0.5133009 0.11071491 -0.41828388 0
-0.59278297 0.21389675 -0.41428059 0
-0.53491497 0.18719959 -0.41410103 0
-0.64735794 0.29436874 -0.4084197 0
-0.59632301 0.32021332 -0.40510133 0
-0.53256512 0.27214432 -0.41091931 0
-0.67773438 0.40658665 -0.39465809 0
-0.59256363 0.40385246 -0.39933467 0
-0.58425045 0.48814297 -0.39390337 0
-0.99458122 -0.49818802 -0.30453947 0
-0.90103531 -0.47260284 -0.310471 0
-0.79958439 -0.47301483 -0.31448999 0
-0.71654224 -0.45441532 -0.31913865 0
-0.88446426 -0.40222836 -0.3319698 0
-0.80327034 -0.39605331 -0.33619511 0
-0.70198441 -0.3881731 -0.34050339 0
-0.59575844 -0.39260197 -0.34141088 0
-0.51489449 -0.3703537 -0.34437805 0
-0.78802681 -0.29637527 -0.35982496 0
-0.69229984 -0.29195309 -0.36109614 0
-0.59225655 -0.30021477 -0.35885561 0
-0.49142933 -0.30010223 -0.35698801 0
-0.39826775 -0.285882 -0.36000484 0
-0.33256149 -0.2688303 -0.36457577 0
-0.76360321 -0.1929884 -0.37473378 0
-0.70080662 -0.1874733 -0.37649411 0
-0.60247421 -0.19903851 -0.37751514 0
-0.50004196 -0.20499706 -0.37519178 0
-0.40354919 -0.19084454 -0.37722999 0
-0.29545879 -0.20991325 -0.37234682 0
-0.18658733 -0.19838715 -0.37441605 0
-0.68609905 -0.099932671 -0.38786483 0
-0.59477425 -0.090902328 -0.39053878 0
-0.50182152 -0.10259151 -0.3919518 0
-0.3901062 -0.10718536 -0.39302635 0
-0.29246807 -0.090281487 -0.3963635 0
-0.18795395 -0.11503315 -0.39170045 0
-0.11767292 -0.10340691 -0.39361739 0
-0.03235054 -0.08568573 -0.39100567 0
-0.67971706 -0.022357941 -0.39937925 0
-0.60680294 0.0034284592 -0.40363538 0
-0.49442387 -0.001074791 -0.40596855 0
-0.37891865 0.014167786 -0.40800989 0
-0.30041409 0.0081233978 -0.40697905 0
-0.18198299 -0.012550354 -0.40170932 0
-0.06534481 -0.0027132034 -0.3931753 0
-0.0024337769 -0.022609711 -0.39010224 0
-0.49396133 0.089585304 -0.41388348 0
-0.39315796 0.10120392 -0.40864903 0
-0.27935219 0.089577675 -0.40466645 0
-0.17655849 0.091238022 -0.39759064 0
-0.083358765 0.09416008 -0.39333099 0
0.0026283264 0.07438755 -0.38769811 0
-0.47616386 0.19547176 -0.41108871 0
-0.37530231 0.18728352 -0.40518886 0
-0.27010822 0.19323444 -0.39831999 0
-0.18031311 0.18680573 -0.39585745 0
-0.07160759 0.17348957 -0.38959828 0
0.0033950806 0.18200588 -0.38360727 0
-0.48160458 0.30569649 -0.40592384 0
-0.3801918 0.30135155 -0.40002084 0
-0.30736923 0.29734612 -0.39717805 0
-0.18812561 0.28112984 -0.39023823 0
-0.090885162 0.28353405 -0.38696253 0
0.012756348 0.30204487 -0.37853205 0
-0.63433456 0.39629078 -0.3880564 0
-0.57537556 0.45170498 -0.39432466 0
-0.488451 0.39800644 -0.39904356 0
-0.3965807 0.40339565 -0.39616466 0
-0.30364609 0.39582348 -0.39273742 0
-0.18033314 0.39337444 -0.38594115 0
-0.055533409 0.38381958 -0.37983108 0
0.012624741 0.37494087 -0.37710589 0
-0.47029877 0.49041843 -0.39263624 0
-0.18689823 0.48500347 -0.38146588 0
-0.082381248 0.48484135 -0.3760522 0
-0.59853935 -0.48559284 -0.31641892 0
-0.40308762 -0.49932384 -0.31583863 0
0.061794281 -0.49346924 -0.32086939 0
0.16843796 -0.47350979 -0.3258298 0
-0.57006645 -0.42942047 -0.33169547 0
-0.4912262 -0.40147018 -0.33710903 0
-0.37880421 -0.41339684 -0.33198249 0
-0.30250072 -0.41797066 -0.33363137 0
-0.18291664 -0.41568947 -0.33437374 0
-0.10188389 -0.41386986 -0.33523589 0
0.010429382 -0.41999435 -0.33422875 0
0.09678936 -0.43627262 -0.33108801 0
0.19547653 -0.40848541 -0.33497113 0
0.28321743 -0.40630054 -0.33535224 0
-0.35955238 -0.33742905 -0.34866542 0
-0.27714443 -0.32268238 -0.3518315 0
-0.19323444 -0.31277657 -0.35385266 0
-0.094168663 -0.30197716 -0.35655797 0
0.016677856 -0.30711555 -0.35689777 0
0.10178566 -0.33745384 -0.35063392 0
0.20599174 -0.32648563 -0.35321233 0
0.32294559 -0.33882999 -0.3479985 0
0.36057091 -0.31768703 -0.35469705 0
-0.18937969 -0.250247 -0.36509556 0
-0.059675217 -0.19460392 -0.37658525 0
0.023688316 -0.21172142 -0.37485611 0
0.11581326 -0.20464802 -0.37477016 0
0.2094841 -0.23568726 -0.36992604 0
0.32051849 -0.23472309 -0.36468053 0
0.40089035 -0.22808933 -0.35619348 0
0.46860409 -0.27070999 -0.34994468 0
0.019612312 -0.12864876 -0.3853792 0
0.11433983 -0.10904694 -0.38027221 0
0.22777462 -0.14214516 -0.3705911 0
0.31702042 -0.12393761 -0.36545873 0
0.41611767 -0.13181686 -0.35618621 0
0.48132992 -0.14788914 -0.34941369 0
0.10756302 -0.0050401688 -0.38194877 0
0.20575237 -0.022607803 -0.3741909 0
0.3120985 -0.030950546 -0.36515993 0
0.42794991 -0.0068445206 -0.35437721 0
0.49026299 -0.072940826 -0.34887058 0
0.12901878 0.077001572 -0.37825236 0
0.23157406 0.083271027 -0.37009048 0
0.30792427 0.099879265 -0.36641693 0
0.42597771 0.05389595 -0.35209367 0
0.50235271 0.062995911 -0.34664196 0
0.049704552 0.21998596 -0.37802354 0
0.10103226 0.18294239 -0.37701461 0
0.21400166 0.16617203 -0.36860183 0
0.31852436 0.17732239 -0.36180657 0
0.42214012 0.19182968 -0.35449699 0
0.50262928 0.16753769 -0.3476364 0
0.049564362 0.25984097 -0.37687784 0
0.11977768 0.27150059 -0.37358534 0
0.19796181 0.27917671 -0.36804181 0
0.30417919 0.2748909 -0.36098918 0
0.41807652 0.27154732 -0.35151118 0
0.52723217 0.29531097 -0.33869222 0
0.05480957 0.42895603 -0.36927137 0
0.1330862 0.38148212 -0.3676793 0
0.23905563 0.38148308 -0.35933307 0
0.34346485 0.36261463 -0.35227275 0
0.46936512 0.37491989 -0.33862829 0
0.52076912 0.3968792 -0.33621728 0
0.13029766 0.47699451 -0.36225635 0
0.24407196 0.47350693 -0.35227478 0
0.31813526 0.47414207 -0.3460964 0
0.44441605 0.47712898 -0.33431494 0
0.52208042 0.47411823 -0.32776409 0
0.24046707 -0.4409647 -0.32890889 0
0.34153938 -0.42889977 -0.33023542 0
0.42013264 -0.44299984 -0.3272655 0
0.505126 -0.38403416 -0.33739918 0
0.61478901 -0.43578625 -0.32393909 0
0.72058105 -0.44066238 -0.32248351 0
0.79641438 -0.41987991 -0.31397656 0
0.43425369 -0.34209538 -0.34729397 0
0.56036949 -0.33998013 -0.33904573 0
0.62369633 -0.32042789 -0.33385742 0
0.73784542 -0.33658504 -0.320568 0
0.82543564 -0.33281136 -0.31082696 0
0.52154827 -0.24633026 -0.34482011 0
0.61905003 -0.19533253 -0.33390188 0
0.72978497 -0.24242115 -0.32145151 0
0.85007 -0.23051834 -0.30867469 0
0.62022018 -0.10980988 -0.33472094 0
0.73229027 -0.14654827 -0.32375646 0
0.81551552 -0.12311459 -0.31331372 0
0.92465305 -0.14531994 -0.3020137 0
0.52354908 -0.034092903 -0.3441273 0
0.5907383 -0.032794952 -0.33794782 0
0.69220638 -0.033367157 -0.3266263 0
0.82470512 -0.040431976 -0.3128472 0
0.5520916 0.11431885 -0.34122092 0
0.60736275 0.04415226 -0.33619151 0
0.69338799 0.042821884 -0.32727879 0
0.78002739 0.067390442 -0.31879449 0
0.89269257 0.044286728 -0.30454415 0
0.63105106 0.14091873 -0.33306599 0
0.72927094 0.13892174 -0.3225137 0
0.79063511 0.18029022 -0.31319702 0
0.93150139 0.16048527 -0.29626003 0
0.56839657 0.22040653 -0.33763558 0
0.63048077 0.2482729 -0.32966489 0
0.73288631 0.24567413 -0.31764373 0
0.8348608 0.26484966 -0.30424559 0
0.94492626 0.2729826 -0.28956974 0
0.65719795 0.35746574 -0.32122338 0
0.69442177 0.33234024 -0.31893218 0
0.8296566 0.35858917 -0.3004314 0
0.60669899 0.45742607 -0.320889 0
0.70126247 0.46866512 -0.30886894 0
0.85080338 0.44044018 -0.29348367 0
0.9654274 0.45396805 -0.28036863 0
0.89562988 -0.46374607 -0.3033033 0
0.99303627 -0.45410919 -0.29293555 0
0.91194344 -0.35403538 -0.30065045 0
0.94819546 -0.24240398 -0.29682794 0
0.97915459 0.044127464 -0.29442406 0
-0.90054893 0.059774399 -0.40870506 0
-0.8197298 0.13354683 -0.40868509 0
-0.87326241 0.21113396 -0.40526247 0
-0.80763817 0.21388245 -0.40972847 0
-0.70407677 0.19048023 -0.41794845 0
-0.89465618 0.31251621 -0.39543417 0
-0.836936 0.3309536 -0.39196417 0
-0.90318108 0.41729164 -0.38440439 0
-0.81882477 0.4740591 -0.39099437 0
-0.92584229 -0.39945602 -0.33115694 0
-0.81852913 -0.36869144 -0.34259713 0
-0.76435471 -0.35591221 -0.34974903 0
-0.9202404 -0.27660656 -0.35868692 0
-0.829813 -0.28121853 -0.35771757 0
-0.73315716 -0.30651855 -0.35640419 0
-0.60680962 -0.27338886 -0.36250526 0
-0.98828316 -0.21677589 -0.36727554 0
-0.92509556 -0.18062973 -0.37079015 0
-0.82282162 -0.19205379 -0.37199271 0
-0.72904205 -0.20444298 -0.37298399 0
-0.63042068 -0.18278027 -0.37668708 0
-0.5299263 -0.19224167 -0.37683955 0
-0.43212891 -0.18092251 -0.37790406 0
-0.90137196 -0.10505867 -0.38036358 0
-0.82538033 -0.081858635 -0.38762707 0
-0.72096729 -0.099313736 -0.38641238 0
-0.61002827 -0.084438324 -0.3893086 0
-0.52021503 -0.099359512 -0.38978177 0
-0.41540527 -0.092547417 -0.39217058 0
-0.33629227 -0.095505714 -0.39321685 0
-0.19377899 -0.061142921 -0.40057892 0
-0.90703201 -0.005730629 -0.39842057 0
-0.81673908 0.022759438 -0.40068108 0
-0.73940754 0.0018587112 -0.40056992 0
-0.6322422 0.016967773 -0.4042877 0
-0.51498032 -0.0099534988 -0.4030773 0
-0.41213608 -0.00075626373 -0.40577793 0
-0.30317402 -0.0090236664 -0.4047873 0
-0.20983028 0.0054588318 -0.40160006 0
-0.79797649 0.099295616 -0.40480733 0
-0.70115089 0.10205555 -0.41337013 0
-0.62548256 0.10083389 -0.41583022 0
-0.51250458 0.10478878 -0.41365489 0
-0.39764214 0.083026886 -0.40822631 0
-0.31876755 0.10705948 -0.40446803 0
-0.19999218 0.088486671 -0.39637518 0
-0.83401203 0.22894764 -0.3940407 0
-0.72027111 0.21069527 -0.40733039 0
-0.61372471 0.20449829 -0.41510591 0
-0.50854301 0.19699574 -0.4091028 0
-0.4185276 0.19993496 -0.40669805 0
-0.3192625 0.19379902 -0.40220857 0
-0.19836235 0.18798828 -0.39419344 0
-0.78842545 0.31636047 -0.39267662 0
-0.70576 0.30944347 -0.40125519 0
-0.60351372 0.30384922 -0.40865979 0
-0.50493908 0.30081081 -0.40470928 0
-0.40650272 0.28671741 -0.40304339 0
-0.30842686 0.30325031 -0.39812949 0
-0.18433762 0.30008602 -0.3893311 0
-0.8983326 0.40574265 -0.3782607 0
-0.79938698 0.42109108 -0.38515997 0
-0.71611786 0.4109726 -0.39174834 0
-0.61175728 0.40541458 -0.39938301 0
-0.48803043 0.39890003 -0.39895111 0
-0.39742947 0.40575123 -0.39438701 0
-0.30011082 0.39252758 -0.39142948 0
-0.21959782 0.39527416 -0.38743725 0
-0.39128494 0.49427509 -0.38986528 0
-0.1886692 0.48804379 -0.38145298 0
-0.11938572 0.4751606 -0.37916225 0
-0.92166615 -0.49506855 -0.30264863 0
-0.82419586 -0.48154736 -0.30940175 0
-0.71969318 -0.49475574 -0.30930668 0
-0.61624432 -0.49995041 -0.30884475 0
-0.22608852 -0.49228287 -0.31793848 0
-0.81195354 -0.42245674 -0.32549888 0
-0.7127161 -0.40595913 -0.33394104 0
-0.62341595 -0.38703728 -0.34039766 0
-0.51316261 -0.41151619 -0.33306962 0
-0.41358471 -0.38762856 -0.3375904 0
-0.31799412 -0.41492558 -0.33221439 0
-0.20737457 -0.41233158 -0.33491403 0
-0.11266804 -0.43418503 -0.32814714 0
-0.06025219 -0.37625122 -0.34102026 0
-0.58712196 -0.3129282 -0.35142505 0
-0.50572681 -0.31644917 -0.35165715 0
-0.41338921 -0.30873585 -0.35319197 0
-0.32478333 -0.28052998 -0.35804078 0
-0.23058224 -0.31446648 -0.35206646 0
-0.12258339 -0.30950642 -0.35460824 0
-0.0083885193 -0.31500244 -0.35419247 0
0.040119171 -0.34460926 -0.35039994 0
-0.39228153 -0.24200726 -0.36459339 0
-0.3174324 -0.20503616 -0.37103617 0
-0.23207664 -0.20308208 -0.37282753 0
-0.11911011 -0.21105099 -0.37177652 0
-0.049282074 -0.24238491 -0.36952364 0
0.079236031 -0.22602367 -0.36861867 0
0.19358635 -0.22164917 -0.36892563 0
-0.31024742 -0.13379383 -0.38572386 0
-0.19467163 -0.12293053 -0.3877686 0
-0.10091686 -0.1185627 -0.39128473 0
-0.017577171 -0.079342842 -0.38925472 0
0.088868141 -0.12596989 -0.38181019 0
0.2030468 -0.092155457 -0.37243891 0
0.29423523 -0.12400341 -0.36610046 0
-0.10314465 -0.0030097961 -0.39404762 0
-0.012426376 -0.0028381348 -0.38782349 0
0.086303711 -0.0032234192 -0.3827849 0
0.19900131 -0.0064134598 -0.37233737 0
0.28779125 -0.027712822 -0.36550969 0
-0.10470486 0.072618484 -0.39050141 0
0.0028305054 0.073060036 -0.38339263 0
0.075937271 0.10157681 -0.37955683 0
0.19056225 0.086953163 -0.37275785 0
0.29704475 0.072469711 -0.36439174 0
-0.081988335 0.18520069 -0.38872212 0
-0.010966301 0.20140362 -0.38359678 0
0.082064629 0.19113159 -0.37647748 0
0.18488693 0.18809319 -0.36969101 0
0.29561329 0.17473125 -0.36312225 0
-0.085626602 0.29789543 -0.3830651 0
-0.015445709 0.29414177 -0.3820042 0
0.09910965 0.27796173 -0.3740117 0
0.17924309 0.284338 -0.36830372 0
0.28715801 0.27232361 -0.36094743 0
-0.10026169 0.37757778 -0.38239995 0
0.01560688 0.39864159 -0.37495703 0
0.11326122 0.36944771 -0.36865222 0
0.19086838 0.37970829 -0.36374789 0
0.29631519 0.39801979 -0.35171974 0
0.0050611496 0.49394512 -0.36871096 0
0.089006424 0.47128582 -0.36557397 0
0.20713425 0.48726368 -0.35227284 0
0.31852913 0.45486069 -0.34431747 0
-0.023114204 -0.46842194 -0.32566315 0
-0.029320717 -0.43044186 -0.33009756 0
0.086556435 -0.41453075 -0.32986724 0
0.16728783 -0.43428707 -0.32886326 0
0.30499649 -0.40013695 -0.33261344 0
0.41471291 -0.42552471 -0.3267085 0
0.50515938 -0.46038914 -0.31622323 0
0.55648518 -0.41871548 -0.32452559 0
0.12079144 -0.35008049 -0.34964329 0
0.1655035 -0.31197834 -0.35316232 0
0.2920208 -0.29945946 -0.35863978 0
0.397048 -0.33791065 -0.34605312 0
0.45786095 -0.31380558 -0.34797618 0
0.59823227 -0.33189392 -0.33372632 0
0.65750504 -0.36818218 -0.32902211 0
0.27853298 -0.24611568 -0.36326477 0
0.38094139 -0.21166897 -0.35623339 0
0.48688889 -0.21980095 -0.34615415 0
0.6057539 -0.21750355 -0.3341496 0
0.29978561 -0.17464066 -0.36496615 0
0.39662361 -0.11412907 -0.35649502 0
0.53337479 -0.10817814 -0.34117717 0
0.62557983 -0.13919258 -0.33214623 0
0.40850449 -0.030219078 -0.35429379 0
0.47079563 -0.031632423 -0.34888875 0
0.55843639 -0.036053658 -0.33972228 0
0.69597912 -0.050443649 -0.3241078 0
0.41137218 0.0750103 -0.35511994 0
0.48015976 0.049592018 -0.34844863 0
0.61604309 0.035268784 -0.33310372 0
0.71118069 0.054326057 -0.32396781 0
0.42526817 0.18461227 -0.35387728 0
0.51877975 0.15327072 -0.34369788 0
0.59165478 0.15443897 -0.3363443 0
0.70189095 0.16473198 -0.32201362 0
0.7814312 0.13803577 -0.31395695 0
0.42834759 0.27800179 -0.34543288 0
0.4909811 0.25440311 -0.34451103 0
0.60916233 0.26115417 -0.33019045 0
0.67727375 0.25440121 -0.32265735 0
0.40890789 0.34900856 -0.3444714 0
0.55622005 0.36018181 -0.32845783 0
0.62379551 0.37153816 -0.32138044 0
0.71323204 0.3337698 -0.31461281 0
0.78237057 0.37414455 -0.30436927 0
0.4221735 0.46686172 -0.33526453 0
0.50365353 0.47855568 -0.32831857 0
0.64757919 0.46791744 -0.31359395 0
0.74318504 0.42417526 -0.30513924 0
0.79004955 0.49236393 -0.29566276 0
0.60937119 -0.48114777 -0.310693 0
0.66158962 -0.45474434 -0.31924891 0
0.8142004 -0.45213223 -0.3111425 0
0.92545414 -0.43114662 -0.29849407 0
0.99619675 -0.41116619 -0.28967053 0
0.68817997 -0.32561588 -0.32488307 0
0.78033257 -0.35978889 -0.31480098 0
0.93208504 -0.35113621 -0.29525572 0
0.71200848 -0.2344408 -0.32248193 0
0.81611061 -0.24244404 -0.31131271 0
0.9006958 -0.25191879 -0.30182618 0
0.75078392 -0.095124245 -0.31838584 0
0.80507469 -0.1556797 -0.31179684 0
0.92698383 -0.12663555 -0.29859918 0
0.89918327 -0.051208496 -0.30131102 0
0.97997856 -0.048388481 -0.29309326 0
0.81308174 0.068819046 -0.31091723 0
0.89622211 0.047724724 -0.30200088 0
0.96800137 0.046936035 -0.29433486 0
0.79485989 0.19527531 -0.3095417 0
0.88605595 0.16626358 -0.29982165 0
0.98846245 0.14541721 -0.28780496 0
0.80219078 0.25286198 -0.30612391 0
0.92461395 0.25956726 -0.29216549 0
0.90546417 0.35081673 -0.28955123 0
0.99588966 0.35881329 -0.27885583 0
0.88714504 0.43765545 -0.28836435 0
-0.91527653 0.12048721 -0.40813556 0
-0.82446861 0.091304779 -0.41697997 0
-0.91619778 0.22198963 -0.40044698 0
-0.90432072 0.29215908 -0.39379334 0
-0.92262554 0.39763546 -0.38369536 0
-0.9390049 0.499547 -0.37753785 0
-0.95184135 -0.38794804 -0.33797544 0
-0.91857052 -0.30797386 -0.35428834 0
-0.82312679 -0.31635952 -0.35711733 0
-0.75366974 -0.27524376 -0.36046791 0
-0.92578697 -0.20241642 -0.37130851 0
-0.83683777 -0.19297504 -0.37362477 0
-0.72714138 -0.20869446 -0.37262064 0
-0.62469196 -0.20899391 -0.37555876 0
-0.54615498 -0.2010479 -0.37875611 0
-0.94392204 -0.10362339 -0.38268411 0
-0.82493687 -0.092134476 -0.38737923 0
-0.71545887 -0.093755722 -0.39024484 0
-0.62058258 -0.1023016 -0.3886739 0
-0.54398727 -0.10742283 -0.39042312 0
-0.45244598 -0.10626793 -0.3904196 0
-0.92791271 0.00095272064 -0.39721596 0
-0.83637047 0.0035657883 -0.39950535 0
-0.71764946 -0.0054321289 -0.40098184 0
-0.60712242 -0.025216103 -0.39990777 0
-0.53242397 -0.0093536377 -0.40377405 0
-0.43484402 -0.028285027 -0.40324157 0
-0.35261726 -0.017327309 -0.4058148 0
-0.26378155 -0.02765274 -0.40804937 0
-0.92795181 0.10503387 -0.39632371 0
-0.85155773 0.076692581 -0.40827215 0
-0.73317623 0.082979202 -0.41149849 0
-0.633255 0.095799446 -0.41633683 0
-0.5173502 0.093352318 -0.41420549 0
-0.40882206 0.093664169 -0.40965688 0
-0.2876873 0.071590424 -0.40376601 0
-0.96692944 0.22267914 -0.38100791 0
-0.91166687 0.16738033 -0.39363822 0
-0.81000519 0.16452694 -0.40394044 0
-0.73472786 0.1968298 -0.40950125 0
-0.63041973 0.19362545 -0.41644746 0
-0.50159645 0.19052219 -0.4109351 0
-0.39086342 0.17314339 -0.40513897 0
-0.31249237 0.18242073 -0.40163788 0
-0.23882866 0.16657829 -0.39936483 0
-0.91422844 0.31110859 -0.38390031 0
-0.80294609 0.29649925 -0.39355516 0
-0.70986938 0.29582024 -0.40419734 0
-0.58465862 0.2765522 -0.41141552 0
-0.51462746 0.29517174 -0.40434015 0
-0.40872383 0.27638054 -0.40299654 0
-0.30416298 0.28514862 -0.39628944 0
-0.22640133 0.25518703 -0.39759886 0
-0.88636398 0.40677166 -0.37881038 0
-0.80916119 0.39642334 -0.38643867 0
-0.71880054 0.3926239 -0.39363176 0
-0.6035099 0.39538574 -0.39493024 0
-0.50507832 0.40061188 -0.40183794 0
-0.39170551 0.36822033 -0.3972095 0
-0.28191853 0.38333797 -0.38987404 0
-0.21845436 0.37266827 -0.39088425 0
-0.97501087 0.47611713 -0.36481965 0
-0.88651943 0.49035168 -0.3726972 0
-0.80386066 0.49677563 -0.37958422 0
-0.70069027 0.49446869 -0.38431343 0
-0.5906601 0.49429321 -0.39204705 0
-0.47814941 0.47402477 -0.39440972 0
-0.40115452 0.48759842 -0.39241061 0
-0.29080009 0.47244644 -0.38616201 0
-0.21820927 0.49389076 -0.38427943 0
-0.42722797 -0.48942947 -0.31942087 0
-0.98900223 -0.42822361 -0.32704037 0
-0.92775536 -0.42254639 -0.3296687 0
-0.82176304 -0.40760517 -0.33388895 0
-0.7258606 -0.42373753 -0.33128625 0
-0.62937832 -0.40709877 -0.33895528 0
-0.53840828 -0.41935635 -0.33478045 0
-0.41906834 -0.42672348 -0.33298218 0
-0.30563259 -0.412817 -0.33536041 0
-0.71881104 -0.3179636 -0.35525686 0
-0.63703728 -0.32129383 -0.35453242 0
-0.52411461 -0.30666065 -0.35760957 0
-0.42633915 -0.32062721 -0.35497618 0
-0.31707382 -0.31250954 -0.35586321 0
-0.2095089 -0.33587933 -0.35258847 0
-0.14195251 -0.31527042 -0.35735062 0
-0.57928276 -0.25658703 -0.36744922 0
-0.47555828 -0.20680046 -0.37736461 0
-0.40468025 -0.21952343 -0.37352568 0
-0.31850052 -0.23658752 -0.36933273 0
-0.2184515 -0.23350811 -0.3692463 0
-0.12845039 -0.25063992 -0.36534551 0
-0.024915695 -0.25329685 -0.36665696 0
0.080151558 -0.21591187 -0.3765099 0
-0.40274334 -0.13350105 -0.38871649 0
-0.31575871 -0.1289978 -0.39122653 0
-0.2205267 -0.1222229 -0.39322799 0
-0.11375427 -0.1774416 -0.38056934 0
-0.016737938 -0.1371603 -0.38685292 0
0.079053879 -0.14491558 -0.38509375 0
0.1848402 -0.11828899 -0.37487006 0
-0.21741962 0.013654709 -0.40341738 0
-0.12277031 -0.043981552 -0.39873099 0
-0.017477989 -0.023194313 -0.39055866 0
0.10493279 -0.040312767 -0.38192895 0
0.15269184 -0.044351578 -0.37749258 0
-0.17380714 0.075864792 -0.39871782 0
-0.10387421 0.081825256 -0.39395678 0
-0.0065050125 0.071422577 -0.39000937 0
0.19844055 0.038108826 -0.3719973 0
0.26684284 0.012849808 -0.37046614 0
-0.16473484 0.16637707 -0.39503562 0
-0.095187187 0.17739964 -0.39066827 0
0.0049543381 0.17514038 -0.38196087 0
0.096020699 0.1603508 -0.37894875 0
0.23152351 0.16964436 -0.36823195 0
0.26881409 0.10559368 -0.36329234 0
-0.099902153 0.28295708 -0.38504171 0
-0.0068740845 0.27760601 -0.38190013 0
0.098693848 0.25754547 -0.37543157 0
0.22067451 0.24849224 -0.36611813 0
0.30910206 0.22790623 -0.36360866 0
-0.089828491 0.37764263 -0.38109905 0
0.025625229 0.3839798 -0.37639076 0
0.12733078 0.34595966 -0.37119517 0
0.22413158 0.3713131 -0.3599408 0
0.29465389 0.33567524 -0.36051005 0
-0.085684776 0.45908737 -0.37575409 0
-0.014224052 0.47730064 -0.37502617 0
0.064637184 0.48677635 -0.36864948 0
0.20592499 0.46345139 -0.35614043 0
0.32796574 0.44187641 -0.34675404 0
-0.28382397 -0.45725155 -0.32769823 0
-0.20275211 -0.44787407 -0.32784307 0
-0.11059284 -0.43836212 -0.33112267 0
-0.0046167374 -0.45803452 -0.32984525 0
0.090699196 -0.41245651 -0.33776003 0
0.21411324 -0.46926308 -0.32270509 0
0.27099133 -0.4481144 -0.32835811 0
0.3618679 -0.42984676 -0.33017135 0
-0.0039186478 -0.34880733 -0.34893471 0
0.08516407 -0.34231281 -0.35377413 0
0.19613361 -0.33051014 -0.35281885 0
0.2583456 -0.31083679 -0.35880473 0
0.40805817 -0.35506153 -0.34414518 0
0.54468155 -0.33974171 -0.34318274 0
0.068275452 -0.28755283 -0.3609032 0
0.20387363 -0.22395229 -0.37147063 0
0.32729244 -0.26182652 -0.36433613 0
0.39220619 -0.23803616 -0.35767436 0
0.50795364 -0.24876976 -0.34533536 0
0.26834393 -0.15177059 -0.36875618 0
0.40381718 -0.1354847 -0.35676765 0
0.49568558 -0.15722656 -0.34871989 0
0.59768581 -0.14546776 -0.33571628 0
0.26654625 -0.044992447 -0.37001884 0
0.40107918 -0.049373627 -0.35852677 0
0.57518387 -0.053628922 -0.33811206 0
0.65631866 -0.056565285 -0.33065966 0
0.299016 0.0664711 -0.36587924 0
0.40140438 0.027918816 -0.35723257 0
0.49816036 0.024101257 -0.34693134 0
0.58797359 0.03024292 -0.33916336 0
0.67812157 0.065189362 -0.32924676 0
0.32072353 0.13943386 -0.3628034 0
0.43131638 0.14315414 -0.35354808 0
0.49269199 0.14822102 -0.34963286 0
0.59482193 0.12246895 -0.33781159 0
0.71081352 0.15455914 -0.32326519 0
0.33709621 0.28125095 -0.35720479 0
0.42646027 0.25457954 -0.35195234 0
0.49873924 0.26211452 -0.34610191 0
0.59189987 0.21877861 -0.33642557 0
0.72098255 0.24329472 -0.31840569 0
0.34951019 0.38432789 -0.34734797 0
0.39964676 0.39742374 -0.34597933 0
0.5089035 0.33676052 -0.33589852 0
0.62895107 0.32637024 -0.32494974 0
0.70351315 0.34094238 -0.31706667 0
0.40611076 0.45492935 -0.34054685 0
0.5136137 0.43240261 -0.33234343 0
0.6153841 0.45044231 -0.31988025 0
0.70302963 0.44106388 -0.31124073 0
0.39166451 -0.4891386 -0.31902847 0
0.48190594 -0.45089626 -0.32311258 0
0.60557365 -0.47182751 -0.31637108 0
0.66907215 -0.45206356 -0.32259583 0
0.76625156 -0.43596649 -0.31780732 0
0.88589764 -0.47466755 -0.30294096 0
0.5753727 -0.40480518 -0.32937878 0
0.68263912 -0.36424446 -0.32676983 0
0.79598999 -0.3767662 -0.31438816 0
0.89249516 -0.37813854 -0.30302149 0
0.61320114 -0.2594986 -0.33398625 0
0.68813515 -0.27116871 -0.32751593 0
0.81738758 -0.27809334 -0.31300455 0
0.90854073 -0.28268528 -0.3024236 0
0.69358635 -0.13613319 -0.32717288 0
0.84004116 -0.15905571 -0.31166285 0
0.91793633 -0.18522453 -0.30286729 0
0.75827026 -0.057751656 -0.32028639 0
0.88487339 -0.069584846 -0.3062833 0
0.98953629 -0.092318535 -0.29367292 0
0.80046177 0.029248238 -0.31520408 0
0.8944416 0.029200554 -0.3054789 0
0.81047344 0.1224165 -0.31229848 0
0.90655327 0.12327957 -0.30101705 0
0.98110104 0.13729191 -0.29195344 0
0.81809139 0.21586227 -0.30771729 0
0.93757439 0.21600342 -0.29261971 0
0.83592033 0.34558105 -0.29980344 0
0.93754196 0.31592369 -0.28906319 0
0.8312788 0.4397068 -0.29547232 0
0.92838097 0.41706753 -0.28643838 0
0.9963274 -0.49304581 -0.29222369 0
0.99852562 -0.39790154 -0.29189825 0
-0.99339581 0.4181385 -0.38024724 0
-0.99123764 -0.32877064 -0.35064471 0
-0.9044199 -0.30160618 -0.35852188 0
-0.960742 -0.21160698 -0.36783576 0
-0.87515163 -0.21472836 -0.37135196 0
-0.78298759 -0.21317673 -0.37456858 0
-0.69920921 -0.18394852 -0.38398284 0
-0.99224281 -0.10067654 -0.3830092 0
-0.90170097 -0.10839558 -0.38566595 0
-0.78547382 -0.11726189 -0.38421637 0
-0.70024109 -0.11114311 -0.386812 0
-0.58499622 -0.096784592 -0.39169753 0
-0.51925182 -0.098844528 -0.39450854 0
-0.97480679 -0.010150909 -0.39389485 0
-0.87016296 -0.023726463 -0.39554697 0
-0.77513218 -0.0055952072 -0.39875433 0
-0.67342472 -0.02562809 -0.40172017 0
-0.57286263 -0.007692337 -0.40038359 0
-0.51190281 -0.0089130402 -0.40379348 0
-0.38606358 0.00644207 -0.40434149 0
-0.9854784 0.097360611 -0.39196539 0
-0.88370705 0.087638855 -0.40247977 0
-0.7702179 0.086413383 -0.41048875 0
-0.66461277 0.068455696 -0.41273862 0
-0.56628513 0.10148239 -0.41577214 0
-0.4560585 0.076239586 -0.41262817 0
-0.35568905 0.08425808 -0.40639928 0
-0.97653294 0.19923973 -0.3901124 0
-0.85534096 0.17966366 -0.40122163 0
-0.76934719 0.2118969 -0.40366453 0
-0.66317368 0.17658997 -0.4121131 0
-0.58659458 0.20238018 -0.41338295 0
-0.47833729 0.17552185 -0.40987474 0
-0.35825443 0.1504488 -0.40401137 0
-0.30277157 0.15892887 -0.40238422 0
-0.95943642 0.29176044 -0.38438728 0
-0.86945343 0.28522968 -0.39601862 0
-0.76312256 0.30235195 -0.39555472 0
-0.66398621 0.28062916 -0.40403128 0
-0.57397747 0.28846169 -0.41061658 0
-0.44155693 0.279562 -0.4006694 0
-0.35239315 0.26882935 -0.39958572 0
-0.98012638 0.39565086 -0.37305966 0
-0.8815918 0.38425922 -0.38373217 0
-0.77123451 0.39570236 -0.38918158 0
-0.66979313 0.37861824 -0.39703286 0
-0.56555653 0.40154457 -0.39773256 0
-0.46779442 0.40240002 -0.39848536 0
-0.37924862 0.372159 -0.39726987 0
-0.2679739 0.36952877 -0.39056754 0
-0.8730793 0.47810268 -0.37610623 0
-0.78675365 0.49464607 -0.38084352 0
-0.67151451 0.49508381 -0.38304728 0
-0.55450821 0.47826576 -0.38955712 0
-0.46028233 0.49357986 -0.39206085 0
-0.35593414 0.46218109 -0.38994664 0
-0.98718739 -0.42636395 -0.32956707 0
-0.87845039 -0.40453148 -0.33563221 0
-0.78327465 -0.43688774 -0.3272604 0
-0.6733427 -0.42697525 -0.33311784 0
-0.58212852 -0.42917442 -0.33560604 0
-0.47633266 -0.42043877 -0.33617151 0
-0.89827538 -0.34580326 -0.34734821 0
-0.796422 -0.32074451 -0.35696292 0
-0.67819405 -0.32061577 -0.35679126 0
-0.59571648 -0.3290844 -0.35522607 0
-0.47498512 -0.32391167 -0.35204822 0
-0.40730858 -0.33808136 -0.35337916 0
-0.29155254 -0.32843208 -0.35381481 0
-0.22340107 -0.32698059 -0.35743433 0
-0.67188931 -0.23706722 -0.36862636 0
-0.58315754 -0.23207188 -0.37270433 0
-0.50421333 -0.23557854 -0.37277609 0
-0.40431595 -0.23532867 -0.37172067 0
-0.27705288 -0.26024342 -0.36324844 0
-0.17675877 -0.24022675 -0.37279919 0
-0.099687576 -0.23583126 -0.37360308 0
-0.57903957 -0.16174889 -0.38119656 0
-0.46389675 -0.1487093 -0.38761675 0
-0.37218475 -0.13493252 -0.39014551 0
-0.26184464 -0.156147 -0.3874419 0
-0.19362831 -0.11382484 -0.39314711 0
-0.082178116 -0.1314888 -0.39111707 0
0.050164223 -0.15892601 -0.38244107 0
-0.36075211 -0.053607941 -0.39859453 0
-0.29406071 -0.0029764175 -0.40517971 0
-0.19542408 -0.012461662 -0.40121675 0
-0.10115719 -0.015685081 -0.39415026 0
0.016160011 -0.046469688 -0.3857317 0
0.12714481 -0.071566582 -0.3786931 0
-0.2487669 0.063512802 -0.39938956 0
-0.17435074 0.090218544 -0.39571902 0
