# .PCD v0.7 - Point Cloud Data file format
VERSION 0.7
FIELDS x y z intensity
SIZE 4 4 4 4
TYPE F F F F
COUNT 1 1 1 1
WIDTH 1293
HEIGHT 1
VIEWPOINT 0 0 0 1 0 0 0
POINTS 1293
DATA ascii
-0.08286953 0.336586 -0.3656925 0
0.013451576 0.30860519 -0.37332666 0
0.08412075 0.28639603 -0.37887609 0
0.1807003 0.25542831 -0.38548195 0
0.29422855 0.1992569 -0.39627028 0
0.49063683 0.15606117 -0.41053951 0
0.56459618 0.085683823 -0.41608429 0
-0.14931393 0.45557213 -0.3617059 0
-0.043029785 0.43930435 -0.3672843 0
0.043168068 0.38905716 -0.3750608 0
0.11033916 0.37288475 -0.38226998 0
0.22187233 0.35049629 -0.39705014 0
0.32507896 0.30218697 -0.40838408 0
0.43922138 0.27201462 -0.40257478 0
0.48541451 0.19824791 -0.40331459 0
0.051815987 0.48794174 -0.38350928 0
0.18018627 0.45770836 -0.4005779 0
0.27366638 0.43726921 -0.41535747 0
0.37938213 0.39519691 -0.39006698 0
0.40457916 0.34373283 -0.37055707 0
0.35134983 0.47078514 -0.38043082 0
0.59779453 0.029462814 -0.36519182 0
0.62639046 0.012252808 -0.35237277 0
0.52258968 0.16136551 -0.34485722 0
0.55706978 0.10338593 -0.34259248 0
0.46816063 0.26669884 -0.32327592 0
0.51217842 0.20210457 -0.30736816 0
0.41328716 0.38858223 -0.31470275 0
0.44400406 0.35721779 -0.2976737 0
0.40522671 0.4802494 -0.28519022 0
0.55655575 0.14963913 -0.24474943 0
0.59887791 0.091897964 -0.23820949 0
0.49620152 0.27828979 -0.21890497 0
0.52170849 0.21715164 -0.23108208 0
0.48057175 0.36051369 -0.21252811 0
0.44698429 0.4840641 -0.20930672 0
0.4953413 0.43531227 -0.18243515 0
0.6026535 0.11534119 -0.15081954 0
0.56401539 0.23594856 -0.13025272 0
0.60635948 0.16014099 -0.14258862 0
0.52482605 0.36823082 -0.12852824 0
0.55862045 0.31070137 -0.11829412 0
0.47046089 0.48875618 -0.11194563 0
0.49489212 0.44987488 -0.12039757 0
0.58383369 0.24962234 -0.040777564 0
0.61488724 0.19257927 -0.075442195 0
0.75216579 0.12994003 -0.083159208 0
0.51436043 0.3662281 -0.019057274 0
0.56070805 0.30212021 -0.037375808 0
0.48865604 0.47128677 -0.028783917 0
0.52549458 0.45941353 0.0043040514 0
0.52966976 0.35581779 0.057651758 0
0.59180164 0.3357563 0.10282564 0
0.56009007 0.44372368 0.087325096 0
0.57504272 0.3852253 0.14818048 0
0.60339928 0.44874763 0.17028439 0
0.65157604 0.48662758 0.12584388 0
-0.94887733 -0.4289875 -0.32863092 0
-0.92222691 -0.33995819 -0.32996178 0
-0.97177124 -0.21197128 -0.33377576 0
-0.88738251 -0.23597717 -0.33421469 0
-0.8259716 -0.24464798 -0.33451092 0
-0.98896694 -0.070045471 -0.33860934 0
-0.94949532 -0.12638855 -0.33803046 0
-0.85576057 -0.15449524 -0.33866787 0
-0.78924179 -0.12104607 -0.34015083 0
-0.9063282 -0.030385971 -0.34231281 0
-0.82344151 -0.059074402 -0.34234631 0
-0.73591137 -0.082139969 -0.34285295 0
-0.87729263 0.069171906 -0.3451426 0
-0.78792763 0.03587532 -0.34595144 0
-0.68947601 0.02104187 -0.34717524 0
-0.82830048 0.14891815 -0.34748244 0
-0.74507809 0.12811089 -0.34907353 0
-0.66202927 0.10859108 -0.34971976 0
-0.80312824 0.22880745 -0.34886658 0
-0.72977829 0.24694824 -0.35081363 0
-0.64544296 0.19586372 -0.35135341 0
-0.74203777 0.36956406 -0.35230863 0
-0.69382 0.31953621 -0.35245955 0
-0.60638237 0.28281593 -0.35299897 0
-0.53832722 0.29063797 -0.35470581 0
-0.73192787 0.4334507 -0.35368884 0
-0.66048717 0.41640663 -0.3549639 0
-0.55543327 0.36746597 -0.35625899 0
-0.47778225 0.38212395 -0.35866952 0
-0.54427052 0.48160362 -0.3598541 0
-0.47272968 0.44395447 -0.36060679 0
-0.89664173 -0.42630386 -0.32960176 0
-0.84175587 -0.48262215 -0.33157957 0
-0.86401463 -0.33273125 -0.33044398 0
-0.83314037 -0.36177444 -0.33168697 0
-0.74434948 -0.41745758 -0.33525348 0
-0.63677025 -0.42652512 -0.34074819 0
-0.54609394 -0.46495438 -0.34587526 0
-0.46422386 -0.49386215 -0.3505652 0
-0.78715611 -0.27713013 -0.33434951 0
-0.70471859 -0.3220005 -0.33595955 0
-0.60290337 -0.34693527 -0.34163094 0
-0.5075798 -0.37561798 -0.34718275 0
-0.39630795 -0.42116928 -0.35365283 0
-0.31184483 -0.45919037 -0.35930586 0
-0.19924831 -0.45451355 -0.36689341 0
-0.74899769 -0.19497681 -0.33879292 0
-0.68039513 -0.215271 -0.33839917 0
-0.58402538 -0.24924088 -0.34244835 0
-0.47730064 -0.29024124 -0.34862208 0
-0.38144112 -0.32250404 -0.3545984 0
-0.2827816 -0.34457588 -0.36072111 0
-0.22210598 -0.39325523 -0.36438203 0
-0.13253784 -0.40275383 -0.37045956 0
-0.01379776 -0.45158005 -0.3873049 0
0.11413765 -0.47325516 -0.4052546 0
-0.6893816 -0.098516464 -0.34252739 0
-0.62739182 -0.12249374 -0.34275174 0
-0.53415012 -0.16193199 -0.34523058 0
-0.44017982 -0.18492317 -0.35087693 0
-0.3427515 -0.23140335 -0.35684896 0
-0.23634911 -0.27064705 -0.36351025 0
-0.16914272 -0.26749992 -0.36744046 0
-0.08600235 -0.31456375 -0.37240803 0
0.017417908 -0.34490967 -0.38663864 0
-0.64892769 -0.0050773621 -0.3462038 0
-0.59384918 -0.029901505 -0.34642291 0
-0.51660347 -0.078445435 -0.34643471 0
-0.40855026 -0.08615303 -0.35249829 0
-0.31815147 -0.12935066 -0.35819244 0
-0.22267914 -0.16823006 -0.36380243 0
-0.11539078 -0.18735886 -0.36995637 0
-0.038546562 -0.22252464 -0.37501717 0
0.07082653 -0.25229073 -0.38730073 0
-0.57581615 0.060878754 -0.34948277 0
-0.47367859 0.017337799 -0.3497299 0
-0.37866497 0.010480881 -0.35417318 0
-0.28277302 -0.020746231 -0.36023617 0
-0.17800331 -0.062923431 -0.36667204 0
-0.096616745 -0.1028595 -0.3719964 0
-0.01597023 -0.12772942 -0.3767724 0
0.094844818 -0.16597557 -0.38893282 0
0.21079445 -0.23811531 -0.4092499 0
-0.53627205 0.15466881 -0.35251725 0
-0.44206905 0.13915634 -0.35374594 0
-0.34518433 0.096319199 -0.35609436 0
-0.25231552 0.063373566 -0.3622092 0
-0.14476871 0.030477524 -0.36905944 0
-0.074036598 -0.0015773773 -0.37411582 0
0.040921211 -0.031728745 -0.38207304 0
0.13201523 -0.069992065 -0.3893826 0
-0.46779919 0.25172424 -0.35591483 0
-0.39828682 0.23292923 -0.35657299 0
-0.30944347 0.18909645 -0.3589052 0
-0.20591831 0.13516808 -0.36581314 0
-0.12816525 0.11722565 -0.37130368 0
-0.031506538 0.0905056 -0.37844121 0
0.096306801 0.062170029 -0.38669038 0
0.18841934 0.021318436 -0.39257228 0
0.28277016 -0.021482468 -0.41195655 0
-0.44977283 0.33233643 -0.35829318 0
-0.37287331 0.32717705 -0.35974765 0
-0.26130581 0.27795982 -0.36165404 0
-0.17146969 0.23819542 -0.36730814 0
-0.093820572 0.21846962 -0.37355793 0
0.0074892044 0.18013954 -0.38092589 0
0.10549736 0.12306023 -0.38822937 0
0.20128632 0.11862946 -0.39438462 0
-0.40692234 0.42764091 -0.36201692 0
-0.35007763 0.42119217 -0.36304057 0
-0.24770451 0.38152504 -0.36434257 0
-0.12764168 0.33626938 -0.36892796 0
-0.063876152 0.32266235 -0.37398052 0
0.046331406 0.27812576 -0.38236785 0
0.15225601 0.23983002 -0.39101493 0
0.25379848 0.18698883 -0.39848006 0
0.39822006 0.1718502 -0.41821146 0
-0.22511005 0.45841599 -0.36717272 0
-0.1440258 0.440382 -0.3689965 0
-0.023290634 0.40691948 -0.3762306 0
0.081855774 0.37677193 -0.38631213 0
0.20773315 0.31127548 -0.39884925 0
0.26716423 0.30133629 -0.40844774 0
0.35343361 0.27948952 -0.41971612 0
0.43581581 0.2441082 -0.4264524 0
0.015440941 0.47633553 -0.38341522 0
0.1196928 0.46029472 -0.39978325 0
0.18927765 0.42094231 -0.40778124 0
0.32327652 0.40933418 -0.42212617 0
0.38994598 0.33356857 -0.42111754 0
0.33511734 0.49341011 -0.41465294 0
0.16287518 -0.42158508 -0.40608299 0
0.18573093 -0.38087082 -0.40610754 0
0.30182648 -0.45599365 -0.42475748 0
0.48272419 -0.49358749 -0.45472002 0
0.21198177 -0.29164505 -0.40821314 0
0.20431995 -0.34062576 -0.40672398 0
0.32378578 -0.36242104 -0.42727482 0
0.53572083 -0.40550232 -0.4587028 0
0.26758385 -0.1931057 -0.41303515 0
0.37813282 -0.2804451 -0.43200958 0
0.56874561 -0.30640411 -0.46137738 0
0.84794521 -0.42843246 -0.5105747 0
0.30649376 -0.11305046 -0.41412807 0
0.4354744 -0.20270157 -0.43659079 0
0.490242 -0.14467621 -0.43930733 0
0.63432884 -0.22472 -0.46552312 0
0.85730839 -0.33652115 -0.51177514 0
0.33909512 -0.0036964417 -0.41373742 0
0.47171879 -0.058616638 -0.43731487 0
0.67982292 -0.15954208 -0.46903753 0
0.92434597 -0.26349258 -0.51776183 0
0.34081841 0.071210861 -0.41248059 0
0.49943447 0.033985138 -0.43858516 0
0.59902191 0.003780365 -0.41436946 0
0.69449425 -0.10736656 -0.47046876 0
0.43571949 0.16105461 -0.40373135 0
0.53112316 0.12007332 -0.39624023 0
0.57224178 0.064933777 -0.37919819 0
0.40786743 0.28242683 -0.35137975 0
0.45903015 0.23615837 -0.37904239 0
0.54132938 0.17338562 -0.34438193 0
0.33588123 0.42165184 -0.38830411 0
0.39169598 0.36861229 -0.35668194 0
0.44616699 0.29801178 -0.32202101 0
0.38955307 0.45142174 -0.32195473 0
0.60187435 0.025274277 -0.3174473 0
0.49502563 0.16661263 -0.32875454 0
0.54563522 0.11867905 -0.29537034 0
0.58257008 0.077224731 -0.29404151 0
0.48902798 0.22802925 -0.27858186 0
0.44866753 0.36625099 -0.26764965 0
0.47498322 0.29907417 -0.25629175 0
0.42634392 0.4560051 -0.25237584 0
0.58530045 0.10412216 -0.20387006 0
0.51599407 0.23558426 -0.19814813 0
0.55616951 0.19211006 -0.17961609 0
0.46956253 0.35346222 -0.20700526 0
0.51368809 0.31814384 -0.17363656 0
0.47025967 0.45075607 -0.16882288 0
0.51785564 0.39853477 -0.13377714 0
0.57224941 0.14311028 -0.12906063 0
0.63436699 0.062257767 -0.14953399 0
0.53284359 0.25197411 -0.089795709 0
0.59949589 0.1919632 -0.092482209 0
0.67642784 0.11292267 -0.10470283 0
0.49416828 0.36826134 -0.042152643 0
0.5262022 0.32161522 -0.080022097 0
0.49063396 0.44280624 -0.061685205 0
0.57532883 0.23233414 -0.010449409 0
0.50870514 0.3408165 0.042392373 0
0.53176308 0.308815 0.012175083 0
0.53963566 0.43165588 0.037110806 0
0.56025791 0.40243912 0.045404196 0
0.58895969 0.49561501 0.054098129 0
0.51562691 0.34804344 0.096210122 0
0.54179287 0.43517685 0.12267148 0
0.5810585 0.40695572 0.12036085 0
0.6084547 0.48832512 0.14644611 0
0.56854916 0.47681618 0.19450676 0
0.64937592 0.43914032 0.21571112 0
-0.97484016 -0.31284523 -0.32794833 0
-0.93061829 -0.23511505 -0.33272851 0
-0.99236584 -0.10628128 -0.33772242 0
-0.89857006 -0.14133835 -0.33751762 0
-0.95363808 -0.012054443 -0.34224844 0
-0.85041332 -0.041700363 -0.34222388 0
-0.99942017 0.11058807 -0.34369648 0
-0.91522026 0.076999664 -0.34494817 0
-0.81481266 0.043264389 -0.34547234 0
-0.75573921 0.032770157 -0.34611332 0
-0.96927929 0.20366096 -0.34450603 0
-0.86769581 0.1783886 -0.34684837 0
-0.78709698 0.12379456 -0.34737813 0
-0.7181015 0.12583351 -0.34799731 0
-0.93130589 0.29946518 -0.34549737 0
-0.85922527 0.26765823 -0.34788501 0
-0.76055241 0.23436356 -0.34929967 0
-0.67554474 0.20610428 -0.35013783 0
-0.91958714 0.39116096 -0.34613109 0
-0.81832695 0.36977196 -0.34967768 0
-0.73112297 0.33349037 -0.35090172 0
-0.6451931 0.30904198 -0.35189664 0
-0.8700037 0.49352837 -0.35120118 0
-0.78249741 0.46024895 -0.35256696 0
-0.70746231 0.4346981 -0.35314131 0
-0.61175156 0.40306473 -0.35508251 0
-0.57313156 0.49662018 -0.35834253 0
-0.97271061 -0.42671394 -0.32635272 0
-0.89339638 -0.45534134 -0.3282361 0
-0.7845974 -0.49333572 -0.33146107 0
-0.94115543 -0.36110687 -0.32763219 0
-0.85339546 -0.36088181 -0.3299017 0
-0.7661581 -0.39175606 -0.33182323 0
-0.65969181 -0.44247437 -0.33667004 0
-0.56090546 -0.4529171 -0.34177387 0
-0.89649868 -0.26075935 -0.33222926 0
-0.82435036 -0.25857544 -0.33367908 0
-0.74064732 -0.31703758 -0.33328652 0
-0.64370251 -0.31719208 -0.33635843 0
-0.5266695 -0.36461639 -0.34241831 0
-0.46893978 -0.39464378 -0.3461107 0
-0.35067844 -0.4312706 -0.3531642 0
-0.80299473 -0.17074776 -0.3376056 0
-0.68370342 -0.20878601 -0.33802783 0
-0.59176731 -0.24896049 -0.33890247 0
-0.50114632 -0.26499557 -0.34410942 0
-0.41157341 -0.31379509 -0.34867954 0
-0.34178066 -0.33583069 -0.35344827 0
-0.25601673 -0.36288261 -0.3584764 0
-0.74676991 -0.099683762 -0.3417716 0
-0.6709547 -0.10865784 -0.34149492 0
-0.57322979 -0.1370163 -0.3422879 0
-0.4650507 -0.18002892 -0.34594858 0
-0.36796474 -0.22567558 -0.35161209 0
-0.28503513 -0.25667763 -0.3568604 0
-0.18465996 -0.25527954 -0.36225879 0
-0.72113991 0.00032997131 -0.34535956 0
-0.64982414 -0.0028152466 -0.34554791 0
-0.53903103 -0.04942894 -0.34578812 0
-0.44021606 -0.085264206 -0.34754539 0
-0.32250023 -0.10476875 -0.35401976 0
-0.23141193 -0.16222191 -0.35931885 0
-0.18434906 -0.13494301 -0.362854 0
-0.65387058 0.093379974 -0.34859383 0
-0.59027863 0.086791992 -0.34916663 0
-0.48354721 0.040353775 -0.34949684 0
-0.40371609 0.0031871796 -0.34933925 0
-0.30622673 -0.016283035 -0.35491407 0
-0.19311619 -0.062978745 -0.3615092 0
-0.13727379 -0.066272736 -0.36554348 0
-0.64482975 0.2151947 -0.35003173 0
-0.56542778 0.18175697 -0.35125911 0
-0.46189022 0.13837624 -0.35210395 0
-0.37280846 0.11915398 -0.35285735 0
-0.28381729 0.070756912 -0.35658181 0
-0.15114117 0.029306412 -0.36503255 0
-0.065999031 -0.001663208 -0.37047207 0
-0.59782124 0.28687096 -0.35247278 0
-0.53145504 0.27867699 -0.35361052 0
-0.44775772 0.24229622 -0.35418987 0
-0.35906124 0.20248795 -0.3548547 0
-0.24351215 0.15203667 -0.35919976 0
-0.18519974 0.17240906 -0.36272097 0
-0.060833931 0.10935783 -0.37178981 0
-0.54182816 0.38849449 -0.3560071 0
-0.51370144 0.35846519 -0.35568154 0
-0.39962387 0.31620979 -0.35747302 0
-0.31443691 0.30096054 -0.3587327 0
-0.21231461 0.26210976 -0.3608104 0
-0.11897278 0.19316673 -0.36683595 0
-0.029269218 0.19149208 -0.37335372 0
0.035527229 0.19021988 -0.37749612 0
-0.52046204 0.45363235 -0.35816598 0
-0.48195076 0.46414566 -0.35938859 0
-0.36620712 0.41121483 -0.36150146 0
-0.26831532 0.39269638 -0.36239743 0
-0.16770649 0.36162949 -0.36429071 0
-0.084378242 0.28905106 -0.36861372 0
0.013463974 0.30887032 -0.37498367 0
0.050855637 0.22831726 -0.37809348 0
-0.24607849 0.48892403 -0.36544085 0
-0.17002583 0.45430756 -0.36588144 0
-0.052129745 0.41485977 -0.36990893 0
0.042945862 0.35583687 -0.37755573 0
0.1306591 0.35601997 -0.38669467 0
0.18992424 0.45249748 -0.40415001 0
0.25720501 0.36862755 -0.40605712 0
0.32071495 0.40027237 -0.41963315 0
0.34361649 0.45653915 -0.43207896 0
-0.22178936 -0.48628044 -0.36071813 0
-0.18364716 -0.37866211 -0.36302483 0
-0.12578773 -0.43370628 -0.36785221 0
-0.063170433 -0.41311073 -0.37176311 0
0.064632416 -0.48463249 -0.39181709 0
-0.12107277 -0.28639412 -0.36632681 0
-0.017922401 -0.33174515 -0.37232506 0
0.11656952 -0.40293884 -0.39214182 0
0.28847694 -0.43310547 -0.41487944 0
-0.13111973 -0.20939445 -0.36490035 0
-0.052495956 -0.21300888 -0.37021005 0
0.024647713 -0.27866936 -0.37424779 0
0.12362957 -0.29744339 -0.39083457 0
0.32270718 -0.33707809 -0.41804278 0
0.53998184 -0.43893051 -0.44803333 0
-0.098766327 -0.13122177 -0.36672044 0
-0.045091629 -0.13314629 -0.37079918 0
0.065554619 -0.16637993 -0.37751806 0
0.21848679 -0.23926735 -0.39647341 0
0.37422943 -0.24925423 -0.42276144 0
0.56223583 -0.35973549 -0.45091975 0
0.61004543 -0.31461716 -0.45450068 0
0.82398987 -0.45509338 -0.49823809 0
0.87680244 -0.40983391 -0.5014044 0
0.0097122192 -0.034492493 -0.37547505 0
0.082411766 -0.073171616 -0.38015079 0
0.22016239 -0.10083961 -0.39590585 0
0.40919971 -0.11950874 -0.42540729 0
0.44833565 -0.19887352 -0.42772138 0
0.61344337 -0.25657845 -0.45589828 0
0.66886902 -0.21989632 -0.45957148 0
0.8553648 -0.33137131 -0.50120831 0
0.061855316 0.06955719 -0.38010752 0
0.15131092 0.021551132 -0.38549852 0
0.25785637 0.010860443 -0.39597297 0
0.45941925 -0.081308365 -0.42678046 0
0.67466354 -0.15474892 -0.46107304 0
0.94838428 -0.27261353 -0.5082587 0
0.10076237 0.14916992 -0.38317585 0
0.18366432 0.13753319 -0.38921332 0
0.25821304 0.092987061 -0.3948319 0
0.3257122 0.11208153 -0.39820194 0
0.46393776 -0.0020580292 -0.42584944 0
0.5460968 0.045621872 -0.43050468 0
0.6449976 -0.031269073 -0.42792761 0
0.68299961 -0.10366821 -0.46070635 0
0.98447895 -0.18572235 -0.51759386 0
0.13406563 0.23368454 -0.3845675 0
0.20355606 0.23021507 -0.39038336 0
0.32297516 0.17284966 -0.39901984 0
0.41149521 0.19660759 -0.4122535 0
0.54032516 0.12341881 -0.38354504 0
0.59807205 0.062231064 -0.41930354 0
0.27288818 0.2843647 -0.40069628 0
0.35660267 0.31095695 -0.41622782 0
0.47153091 0.25952911 -0.3871628 0
0.5071907 0.19553375 -0.39631867 0
0.40053558 0.40134811 -0.38568795 0
0.43194866 0.33338356 -0.39983308 0
0.37575245 0.47425652 -0.37003839 0
0.63145256 -0.019870758 -0.38558269 0
0.58583641 0.084186554 -0.32686424 0
0.63475513 0.029333115 -0.34497225 0
0.49303436 0.27234077 -0.32290232 0
0.52297974 0.20216751 -0.31648993 0
0.58713818 0.14228821 -0.29407465 0
0.43665504 0.40113831 -0.33042121 0
0.47747421 0.33268738 -0.29747319 0
0.42054367 0.47842979 -0.28830409 0
0.47167873 0.43054771 -0.26567864 0
0.56899643 0.11387253 -0.25144827 0
0.61886501 0.062389374 -0.23207247 0
0.64633274 0.033687592 -0.29119861 0
0.55524921 0.19201469 -0.22943902 0
0.60078621 0.14750099 -0.19023657 0
0.51363087 0.31458092 -0.2172085 0
0.55704975 0.28434753 -0.1737622 0
0.50224876 0.43267059 -0.19592965 0
0.63281059 0.087917328 -0.14806175 0
0.59812832 0.19210434 -0.14264631 0
0.6432209 0.14577675 -0.10921776 0
0.56055164 0.33469582 -0.079331517 0
0.58977222 0.27512169 -0.11505568 0
0.49348164 0.47889519 -0.093549967 0
0.52539349 0.40357971 -0.10290647 0
0.64520836 0.19124031 -0.047700524 0
0.74187183 0.12108994 -0.079065919 0
0.55613804 0.32165909 0.01194489 0
0.57944298 0.27198601 -0.028287411 0
0.54793358 0.40077591 0.0034128428 0
0.57872868 0.49497795 0.012103558 0
0.5563612 0.3246994 0.062030315 0
0.59090042 0.28024673 0.072298646 0
0.59501648 0.39463043 0.093960762 0
0.62966537 0.33893967 0.11318791 0
0.62255573 0.48465729 0.11100864 0
0.64412403 0.4414444 0.063923717 0
0.63333225 0.40722084 0.19300175 0
0.64169979 0.36544991 0.15247941 0
0.63910294 0.47084045 0.18833733 0
-0.98567867 0.028530121 -0.34414101 0
-0.96175766 0.11321449 -0.34624541 0
-0.99673557 0.21785545 -0.3450793 0
-0.91665745 0.21783447 -0.34803247 0
-0.96427059 0.32578087 -0.34583688 0
-0.87684059 0.29253197 -0.3492986 0
-0.93342113 0.43260765 -0.34808731 0
-0.84212685 0.38157082 -0.35053563 0
-0.79839516 0.48227882 -0.3542124 0
-0.97950172 -0.42338753 -0.32835138 0
-0.89660263 -0.44001198 -0.3300432 0
-0.80451584 -0.48006821 -0.33261967 0
-0.73934078 -0.48592949 -0.33615601 0
-0.97275925 -0.30142021 -0.32982564 0
-0.87402916 -0.35401917 -0.33117759 0
-0.76180649 -0.37891769 -0.33419764 0
-0.68984127 -0.39658737 -0.33732522 0
-0.94654083 -0.22673988 -0.33415473 0
-0.84783459 -0.2399807 -0.3354826 0
-0.73538971 -0.27800941 -0.33585382 0
-0.64921856 -0.30334663 -0.33823025 0
-0.99192333 -0.0990448 -0.33901656 0
-0.90243721 -0.1178093 -0.33953595 0
-0.79181767 -0.14720917 -0.34009123 0
-0.72162819 -0.19916344 -0.33936489 0
-0.60373306 -0.21095657 -0.34121323 0
-0.94602489 -0.018899918 -0.34199584 0
-0.88044071 -0.016210556 -0.34390271 0
-0.77134991 -0.06193924 -0.34354115 0
-0.66156864 -0.093095779 -0.34357691 0
-0.57913685 -0.091737747 -0.34452629 0
-0.90593815 0.086833954 -0.34658301 0
-0.83375645 0.076244354 -0.34702075 0
-0.74744034 0.036705017 -0.34737468 0
-0.64763927 0.0031681061 -0.34733117 0
-0.53135204 -0.032632828 -0.34763086 0
-0.88063622 0.17441559 -0.34857023 0
-0.80767632 0.16217804 -0.34901345 0
-0.70744038 0.14077759 -0.35017335 0
-0.61155701 0.09283638 -0.34991801 0
-0.52089119 0.057138443 -0.35200536 0
-0.44959831 0.044118881 -0.35199678 0
-0.82920837 0.28240776 -0.35003555 0
-0.76589584 0.25839043 -0.35064697 0
-0.6596365 0.22838783 -0.35226011 0
-0.57722569 0.19245529 -0.35233188 0
-0.47663879 0.15796661 -0.3534286 0
-0.74444866 0.36923027 -0.3527683 0
-0.65977001 0.31699181 -0.35326731 0
-0.55296612 0.28236008 -0.35525322 0
-0.44690228 0.23699188 -0.35601735 0
-0.3402462 0.24343109 -0.35974765 0
-0.7588253 0.46492577 -0.35425603 0
-0.70155621 0.43554115 -0.35477734 0
-0.60886383 0.4093895 -0.35614336 0
-0.50898838 0.3777523 -0.35764623 0
-0.42364216 0.33753586 -0.35934043 0
-0.35557175 0.31720543 -0.36002398 0
-0.47881985 0.48485184 -0.36157393 0
-0.38895416 0.43623352 -0.36251581 0
-0.30133438 0.40246201 -0.36413026 0
-0.24909782 0.49348831 -0.36826921 0
-0.63418198 -0.44400787 -0.34089327 0
-0.56401539 -0.44102097 -0.34437275 0
-0.44486332 -0.47751427 -0.35065424 0
-0.58603668 -0.34656334 -0.34209645 0
-0.46668053 -0.37638092 -0.34904003 0
-0.35486698 -0.42234421 -0.35577464 0
-0.23625088 -0.45046806 -0.36315668 0
-0.12489033 -0.47204018 -0.37457085 0
-0.50737762 -0.2616291 -0.34654903 0
-0.39143372 -0.30662918 -0.35364211 0
-0.32232094 -0.32380104 -0.35819459 0
-0.22768497 -0.35757065 -0.36346257 0
-0.060535431 -0.38526726 -0.3750912 0
0.063128471 -0.43861198 -0.39441741 0
-0.53642273 -0.15788841 -0.34435761 0
-0.48903656 -0.16043854 -0.34736693 0
-0.39015388 -0.1978817 -0.35348284 0
-0.28973675 -0.20243835 -0.35976207 0
-0.15217304 -0.25409126 -0.36790586 0
-0.13489437 -0.32605171 -0.36842012 0
-0.017112732 -0.29856491 -0.37560272 0
0.11184311 -0.3488884 -0.39409304 0
-0.4324646 -0.072376251 -0.35036528 0
-0.36668777 -0.086080551 -0.35456705 0
-0.27265358 -0.12205315 -0.35994995 0
-0.16969109 -0.1785202 -0.36640453 0
-0.084231377 -0.18704414 -0.3713367 0
0.018052101 -0.20580482 -0.37768888 0
0.12200165 -0.24357796 -0.39345837 0
-0.42303467 0.035499573 -0.35121918 0
-0.33743858 -0.0016212463 -0.35625386 0
-0.2258482 -0.045398712 -0.36241865 0
-0.16219234 -0.068664551 -0.36675489 0
-0.050211906 -0.12246323 -0.37342298 0
0.045570374 -0.11253548 -0.38056755 0
0.18274117 -0.18439484 -0.39742529 0
-0.36595249 0.10119057 -0.35435927 0
-0.2787056 0.086904526 -0.35980046 0
-0.19583893 0.063417435 -0.3652848 0
-0.12191105 0.03411293 -0.37043953 0
-0.018587112 -0.0041007996 -0.37712383 0
0.090161324 -0.019649506 -0.3846308 0
0.20645905 -0.081380844 -0.39714861 0
-0.33821964 0.18155861 -0.35690343 0
-0.26045036 0.2015419 -0.36119485 0
-0.16078854 0.1704216 -0.368029 0
-0.071645737 0.13807106 -0.37470198 0
0.044534683 0.095848083 -0.38228512 0
0.14228249 0.069044113 -0.3890065 0
0.21032429 0.033046722 -0.39579046 0
-0.28109837 0.29322815 -0.36147153 0
-0.21665382 0.27138329 -0.36294293 0
-0.13640499 0.25693893 -0.36897397 0
-0.026587486 0.21992302 -0.3768748 0
0.077996254 0.18787575 -0.38475347 0
0.18335724 0.15851784 -0.39256465 0
0.249053 0.098474503 -0.39715648 0
-0.24470043 0.3915081 -0.36482453 0
-0.16254044 0.36621857 -0.36655307 0
-0.092207909 0.33405876 -0.37075412 0
0.0042295456 0.30478477 -0.37807453 0
0.10429001 0.28289223 -0.38574696 0
0.20300484 0.25559998 -0.39361751 0
0.29863548 0.18749237 -0.40115929 0
-0.16029263 0.47947502 -0.36948431 0
-0.083737373 0.40449524 -0.37096894 0
0.043327332 0.39201927 -0.37958086 0
0.13508606 0.38170052 -0.39226663 0
0.29220772 0.31153297 -0.40897071 0
0.41771984 0.27230072 -0.42490888 0
0.10314274 0.4550705 -0.39216769 0
0.24893856 0.42823601 -0.41471243 0
0.38147736 0.38443375 -0.41919589 0
0.41227627 0.34802628 -0.41744781 0
0.35719204 0.47721291 -0.40623748 0
0.27501678 -0.43152428 -0.41921926 0
0.55159569 -0.46753693 -0.457605 0
0.31098557 -0.32673264 -0.42208719 0
0.58769703 -0.42185783 -0.45990896 0
0.38745689 -0.23667336 -0.4280628 0
0.60571861 -0.32618141 -0.46167338 0
0.92009735 -0.41827202 -0.52333391 0
0.43600559 -0.11066055 -0.43097937 0
0.44330597 -0.17431068 -0.43208599 0
0.59837341 -0.23322868 -0.46232092 0
0.66414547 -0.1928196 -0.46664679 0
0.94353294 -0.3564167 -0.52499962 0
0.45394135 -0.054428101 -0.43088329 0
0.67773056 -0.13555717 -0.46841466 0
0.45238304 0.032207489 -0.42951918 0
0.62551022 0.0037345886 -0.4090867 0
0.72324562 -0.086511612 -0.47374523 0
0.53591251 0.1548233 -0.3863312 0
0.57208538 0.090019226 -0.40537214 0
0.46065903 0.2834549 -0.36787665 0
0.50526237 0.22396278 -0.3719945 0
0.38660336 0.41023445 -0.37910521 0
0.45012856 0.35655594 -0.34355068 0
0.39044571 0.47312355 -0.3327105 0
0.6283865 0.009267807 -0.35051751 0
0.55322075 0.14728546 -0.2795974 0
0.58377266 0.099971771 -0.32195628 0
0.65502453 0.042524338 -0.28188753 0
0.4715414 0.2857914 -0.26996374 0
0.52643108 0.22304535 -0.2786113 0
0.48881054 0.3561573 -0.26472151 0
0.52305031 0.30527306 -0.23924363 0
0.43422699 0.49280357 -0.24713969 0
0.47065639 0.43525124 -0.2628243 0
0.60767555 0.10554504 -0.20841169 0
0.56981087 0.2287693 -0.18654871 0
0.61230755 0.17523575 -0.17697108 0
0.52767181 0.36353302 -0.17143846 0
0.54387474 0.31206703 -0.18754411 0
0.47333241 0.49585915 -0.18102312 0
0.51435661 0.44460487 -0.15018356 0
0.62060165 0.13349915 -0.1170305 0
0.58877182 0.25630951 -0.088916421 0
0.63660145 0.18123245 -0.097919703 0
0.53687191 0.35785103 -0.044858932 0
0.58881187 0.31023598 -0.10777807 0
0.4926405 0.46527672 -0.090327024 0
0.52332115 0.45540237 -0.050514936 0
0.60321808 0.24369812 -0.017424226 0
0.55906391 0.33667183 0.035716534 0
0.57502651 0.30200005 -0.021211624 0
0.5575037 0.44841385 0.027356744 0
0.60099316 0.34645844 0.103634 0
0.60054684 0.43416786 0.12066329 0
0.65381527 0.44823456 0.11863661 0
0.63691235 0.44901276 0.18995655 0
-0.98515129 -0.42039299 -0.31872189 0
-0.94233322 -0.30587196 -0.32162404 0
-0.93392563 -0.21757507 -0.32573032 0
-0.8564024 -0.25606155 -0.3261795 0
-0.99601364 -0.087528229 -0.33105767 0
-0.90947056 -0.11703873 -0.33116186 0
-0.81895924 -0.18326569 -0.33149767 0
-0.98404408 0.002576828 -0.33450282 0
-0.87674236 -0.022878647 -0.33446717 0
-0.76294804 -0.065540314 -0.33554065 0
-0.94900703 0.10115051 -0.337134 0
-0.84927082 0.065002441 -0.33845377 0
-0.73707104 0.022424698 -0.33887947 0
-0.89484978 0.19042397 -0.33961344 0
-0.80955791 0.14361191 -0.34001291 0
-0.70963573 0.12912941 -0.34171796 0
-0.66052532 0.094667435 -0.34192932 0
-0.96712208 0.32383347 -0.33691239 0
-0.85828495 0.29869461 -0.34103596 0
-0.76227474 0.25516891 -0.34277916 0
-0.66916752 0.22421074 -0.34340668 0
-0.63598728 0.16739655 -0.34316564 0
-0.98841 0.4288044 -0.33758414 0
-0.93048191 0.42619896 -0.33952987 0
-0.85698414 0.38408089 -0.34132171 0
-0.74986649 0.34986496 -0.34375906 0
-0.64592552 0.32112694 -0.34513724 0
-0.58343601 0.32131958 -0.34654474 0
-0.82381916 0.4828167 -0.34459078 0
-0.71847343 0.42866325 -0.34591734 0
-0.60743523 0.39988708 -0.34828162 0
-0.53145409 0.38370323 -0.35019732 0
-0.5638504 0.49666595 -0.35137868 0
-0.53872013 0.43713188 -0.35063314 0
-0.88346767 -0.46250534 -0.32170069 0
-0.78767586 -0.47902679 -0.32472241 0
-0.68894005 -0.49892426 -0.32995415 0
-0.84906864 -0.36868286 -0.32315576 0
-0.76460838 -0.3917141 -0.32513058 0
-0.6298933 -0.42426872 -0.33161354 0
-0.55510998 -0.45473671 -0.33592093 0
-0.46990967 -0.4854126 -0.34075022 0
-0.81008911 -0.26527786 -0.3260287 0
-0.71975327 -0.28397369 -0.327492 0
-0.68747711 -0.33225822 -0.32747781 0
-0.55619526 -0.35534668 -0.33471835 0
-0.45094109 -0.37832069 -0.34111261 0
-0.37840748 -0.38754082 -0.34516978 0
-0.77155781 -0.16061974 -0.3330009 0
-0.69915962 -0.19994164 -0.33232462 0
-0.61521626 -0.22696686 -0.33193612 0
-0.53558254 -0.26626587 -0.3360616 0
-0.40942574 -0.28659248 -0.34369493 0
-0.67953205 -0.10305595 -0.33451736 0
-0.57265568 -0.13772964 -0.33535433 0
-0.47659016 -0.14553833 -0.33934152 0
-0.37581539 -0.2139492 -0.34557498 0
-0.62821579 -0.0059051514 -0.3392942 0
-0.50625038 -0.039340973 -0.340536 0
-0.43336487 -0.075569153 -0.34119821 0
-0.35698128 -0.12055206 -0.34636748 0
-0.26668644 -0.10383797 -0.35158026 0
-0.58854485 0.083475113 -0.3419199 0
-0.49668217 0.058576584 -0.34262741 0
-0.42504311 0.01763916 -0.34255981 0
-0.32702827 -0.011758804 -0.34819758 0
-0.20201206 -0.046861649 -0.35565555 0
-0.56742096 0.18766022 -0.34369957 0
-0.48068714 0.14548683 -0.34495139 0
-0.39282227 0.12784386 -0.34572732 0
-0.29315376 0.089111328 -0.35007 0
-0.20230007 0.046251297 -0.3561914 0
-0.13785839 0.046037674 -0.36129904 0
-0.51175976 0.27210617 -0.34763002 0
-0.45697784 0.25647545 -0.34762263 0
-0.35999775 0.22212219 -0.34977782 0
-0.24090004 0.21799278 -0.35264564 0
-0.17481422 0.14444351 -0.3578769 0
-0.092526436 0.13122749 -0.36523592 0
-0.50742722 0.36364555 -0.34920788 0
-0.39999104 0.33325958 -0.35139501 0
-0.32202339 0.3163929 -0.35198283 0
-0.20817184 0.27952766 -0.35498154 0
-0.11682034 0.25339699 -0.36111617 0
-0.071408272 0.20453262 -0.36610067 0
-0.47679901 0.44257164 -0.35200071 0
-0.40127373 0.45098686 -0.35456455 0
-0.29216862 0.39967537 -0.35591304 0
-0.17033195 0.36305237 -0.35817611 0
-0.11577797 0.35615921 -0.3610301 0
-0.26926231 0.48320007 -0.35837841 0
-0.18766117 0.47826195 -0.35980189 0
-0.088121414 0.42277908 -0.36213303 0
-0.0043306351 0.39041519 -0.36880839 0
0.062382698 0.49703407 -0.38619471 0
0.13235092 0.49303436 -0.39696705 0
-0.3407011 -0.4381752 -0.34805965 0
-0.22334957 -0.44879723 -0.35514319 0
-0.29868507 -0.33998871 -0.35045028 0
-0.23589039 -0.35357285 -0.35497081 0
-0.10706806 -0.36261177 -0.36356509 0
-0.038743019 -0.46071815 -0.37072897 0
0.11108017 -0.4811554 -0.39402127 0
-0.25149918 -0.23088837 -0.35311091 0
-0.19991112 -0.28574753 -0.35610831 0
-0.024795532 -0.3147068 -0.36794114 0
0.15443707 -0.40207481 -0.39359224 0
0.3527832 -0.46254921 -0.41971326 0
-0.22445679 -0.1994648 -0.35450089 0
-0.17183971 -0.18848801 -0.35782087 0
-0.097893715 -0.17086411 -0.36215472 0
0.035518646 -0.22894859 -0.37004447 0
0.21451378 -0.30949783 -0.39542317 0
0.3728857 -0.36642265 -0.42279732 0
-0.12018013 -0.076986313 -0.36002612 0
-0.016561508 -0.093229294 -0.36731458 0
0.071428299 -0.12626457 -0.37359262 0
0.25104713 -0.20431137 -0.39904296 0
0.42872238 -0.25987625 -0.42799187 0
-0.15841484 -0.010025024 -0.35918176 0
-0.0043725967 -0.012842178 -0.36942613 0
0.1142292 -0.032018661 -0.37761748 0
0.26974773 -0.11526108 -0.39920294 0
0.49034023 -0.18768501 -0.43274999 0
-0.10544205 0.076730728 -0.36359763 0
0.026535988 0.062419891 -0.37245011 0
0.16463089 0.034114838 -0.38153172 0
0.23723793 -0.03883934 -0.39701712 0
0.27678776 0.012184143 -0.39785433 0
0.51555634 -0.095033646 -0.43304324 0
0.79458332 -0.14888763 -0.48399127 0
-0.0013065338 0.24824715 -0.3691361 0
0.052707672 0.16493416 -0.37517726 0
0.20400429 0.13493156 -0.3854655 0
0.19568729 0.08055687 -0.3840313 0
0.32711697 0.070888519 -0.39893889 0
0.5407896 -0.0093078613 -0.43284094 0
0.59613228 0.031671524 -0.43897927 0
-0.0068883896 0.30984306 -0.36881018 0
0.096129417 0.2584095 -0.37701535 0
0.18484402 0.20923615 -0.38484263 0
0.25868034 0.23744011 -0.38806605 0
0.40595245 0.15860367 -0.40623999 0
0.54059505 0.1118145 -0.42179418 0
0.15919971 0.34466934 -0.38472104 0
0.34697342 0.29809761 -0.41014493 0
0.45083046 0.27746773 -0.39674044 0
0.46054363 0.22561646 -0.4106282 0
0.2751112 0.43379021 -0.41463053 0
0.37992954 0.41727829 -0.38732076 0
0.42292881 0.35281944 -0.37615108 0
0.67609501 -0.46510696 -0.4721992 0
0.70770645 -0.37202644 -0.47462654 0
0.75043488 -0.27628326 -0.47752595 0
0.79404068 -0.22945404 -0.4800061 0
0.60544395 0.022865295 -0.36310315 0
0.61975288 -0.010225296 -0.41726887 0
0.52030468 0.17268753 -0.3467561 0
0.56286907 0.10093498 -0.36186135 0
0.46269894 0.2844944 -0.32465231 0
0.50330162 0.23127556 -0.31814909 0
0.40943813 0.38295937 -0.33715701 0
0.43031406 0.35282326 -0.31376994 0
0.40721607 0.46680641 -0.29062903 0
0.62445068 0.01921463 -0.27287376 0
0.63360596 0.014724731 -0.31973886 0
0.53886032 0.17008591 -0.25942945 0
0.58349514 0.094894409 -0.25834906 0
0.50452614 0.27060318 -0.22938907 0
0.5329361 0.2256279 -0.22091055 0
0.4841032 0.33034515 -0.23561108 0
0.45836735 0.46575928 -0.20800614 0
0.48501968 0.41230583 -0.2065382 0
0.59083843 0.15143013 -0.15920222 0
0.62457752 0.095737457 -0.15313876 0
0.56478024 0.20820236 -0.14688337 0
0.53112221 0.33293724 -0.15235019 0
0.56811047 0.29353142 -0.10953975 0
0.47706127 0.4713459 -0.091870546 0
0.51766109 0.42096138 -0.12098706 0
0.60502815 0.20945168 -0.053581595 0
0.6609211 0.14161301 -0.081754684 0
0.53627491 0.3301754 -0.027029037 0
0.57413578 0.27577591 -0.056945682 0
0.49889946 0.42061424 -0.02582562 0
0.52983284 0.43437004 -0.025308967 0
0.55685902 0.31275749 0.061165571 0
0.57426071 0.42048454 0.071416378 0
0.6175642 0.42373657 0.16482127 0
0.62857342 0.4894371 0.16053176 0
-0.99244976 -0.28853798 -0.32303119 0
-0.96766949 -0.20885849 -0.32660806 0
-0.91704655 -0.069021225 -0.33434629 0
-0.97064114 0.015907288 -0.33686745 0
-0.87002277 -0.013277054 -0.3368032 0
-0.95194435 0.12142944 -0.33928168 0
-0.86472511 0.080636978 -0.339643 0
-0.77712154 0.095457077 -0.34108138 0
-0.9003849 0.20088959 -0.34082127 0
-0.80175686 0.17944527 -0.34225047 0
-0.98368931 0.34822655 -0.33810532 0
-0.87829399 0.30298424 -0.34205413 0
-0.78313351 0.25951767 -0.34329772 0
-0.72334766 0.26169777 -0.34394526 0
-0.96918678 0.44255829 -0.34048009 0
-0.85395145 0.39903641 -0.34323597 0
-0.76405525 0.36035728 -0.34526908 0
-0.82209969 0.49991417 -0.34677851 0
-0.73280239 0.45002556 -0.34761918 0
-0.98096752 -0.40659714 -0.32104063 0
-0.92931747 -0.43206215 -0.32190704 0
-0.8304348 -0.43966103 -0.32493687 0
-0.71997929 -0.47320747 -0.33011162 0
-0.94214439 -0.30034828 -0.32310963 0
-0.88735867 -0.31664848 -0.32418096 0
-0.79475784 -0.37383461 -0.32621491 0
-0.69124413 -0.37598228 -0.33029664 0
-0.5947361 -0.43789291 -0.33583641 0
-0.51697063 -0.42678261 -0.34002018 0
-0.88419628 -0.18393517 -0.33086383 0
-0.84193611 -0.23348427 -0.32800603 0
-0.73827934 -0.26762581 -0.32891774 0
-0.64189911 -0.29630661 -0.33176208 0
-0.57024384 -0.33866119 -0.3363148 0
-0.49210644 -0.34683228 -0.34126055 0
-0.8616581 -0.099737167 -0.33399892 0
-0.83615494 -0.14688873 -0.33265078 0
-0.72074604 -0.17065239 -0.33313215 0
-0.60720444 -0.2089653 -0.33378804 0
-0.5375824 -0.25253296 -0.33816755 0
-0.77861023 -0.053146362 -0.3367883 0
-0.67341805 -0.073778152 -0.33775175 0
-0.59865189 -0.096130371 -0.33697486 0
-0.48872375 -0.13685036 -0.34086084 0
-0.43119621 -0.21431351 -0.34458816 0
-0.75047016 0.050113678 -0.34044945 0
-0.65417671 0.014194489 -0.34024608 0
-0.5593462 -0.01644516 -0.34040463 0
-0.42158413 -0.061275482 -0.34424472 0
-0.72369671 0.13306236 -0.34287798 0
-0.6177845 0.10281944 -0.34395862 0
-0.52102757 0.084068298 -0.34439826 0
-0.42866802 0.045513153 -0.34539282 0
-0.35805702 0.026088715 -0.34851313 0
-0.67332649 0.23455811 -0.34486592 0
-0.59985352 0.19439697 -0.34520411 0
-0.49130535 0.19418716 -0.34782815 0
-0.40322495 0.15673828 -0.3485198 0
-0.32648182 0.15216446 -0.35077465 0
-0.64268684 0.33905411 -0.34709895 0
-0.54624176 0.29185867 -0.34850442 0
-0.46370888 0.2803688 -0.3495748 0
-0.36399841 0.28103828 -0.35197031 0
-0.28556061 0.20283508 -0.35339212 0
-0.61452961 0.4137764 -0.3506906 0
-0.54007053 0.40033913 -0.35141599 0
-0.45481205 0.38301849 -0.35238957 0
-0.32208252 0.33679771 -0.35501027 0
-0.23977375 0.2477169 -0.35523331 0
-0.46247673 0.47496605 -0.35571015 0
-0.40568161 0.46538162 -0.35624754 0
-0.31712914 0.43928528 -0.35809481 0
-0.22196388 0.39582253 -0.35872495 0
-0.18605995 0.49435043 -0.36172783 0
-0.40726948 -0.49191284 -0.34641278 0
-0.42116642 -0.32676125 -0.34462941 0
-0.3870163 -0.37714195 -0.34766483 0
-0.28677654 -0.44245529 -0.35381746 0
-0.10386753 -0.48390007 -0.36799848 0
-0.40703011 -0.28097153 -0.34546018 0
-0.34553432 -0.28607368 -0.34993231 0
-0.21601868 -0.35624123 -0.35741675 0
-0.12078762 -0.37189293 -0.36444402 0
0.058662415 -0.41960526 -0.38787961 0
-0.37876225 -0.15347099 -0.34723604 0
-0.28648758 -0.20424652 -0.35296035 0
-0.1762619 -0.25688553 -0.35961258 0
-0.070809364 -0.30536842 -0.36620367 0
0.086256981 -0.33537102 -0.38625264 0
-0.35562897 -0.083711624 -0.34855545 0
-0.23819828 -0.11127281 -0.3555181 0
-0.16695213 -0.13977623 -0.36044681 0
-0.051718712 -0.19109344 -0.36747777 0
0.12749004 -0.26210022 -0.38655937 0
-0.19307137 -0.014728546 -0.35828531 0
-0.10634995 -0.049823761 -0.36430681 0
-0.012731552 -0.091087341 -0.37088144 0
0.16833496 -0.1547184 -0.38827229 0
-0.26797771 0.095561981 -0.35380387 0
-0.18276405 0.062192917 -0.36006653 0
-0.072678566 0.025571823 -0.36742544 0
0.0037279129 0.054710388 -0.37317228 0
0.073104858 -0.036140442 -0.37644589 0
0.20477581 -0.068780899 -0.38793898 0
-0.14872169 0.13496971 -0.36276972 0
-0.023857117 0.11999512 -0.37168407 0
0.10948277 0.09973526 -0.38076484 0
0.19724464 0.029413223 -0.38674152 0
-0.21294689 0.28838158 -0.35637891 0
-0.11979008 0.23704338 -0.36398697 0
0.014829636 0.18920898 -0.37370396 0
0.17454338 0.16332054 -0.3848089 0
0.26257038 0.1258049 -0.39161682 0
-0.079672813 0.33246231 -0.36553299 0
0.017884254 0.28030777 -0.37364972 0
0.090613365 0.29007912 -0.37884462 0
0.18230915 0.28545761 -0.38489485 0
0.28239918 0.22075653 -0.393489 0
-0.091108322 0.42303467 -0.36482418 0
0.040982246 0.38943291 -0.37441027 0
0.10853767 0.42386246 -0.38633668 0
0.23442078 0.33798599 -0.39813936 0
0.36719036 0.29541588 -0.41553879 0
0.21110249 0.45389938 -0.40506065 0
0.31365585 0.41863251 -0.4176054 0
0.3856802 0.39757729 -0.40254045 0
0.34019184 0.49668694 -0.39661717 0
0.30597687 -0.4066124 -0.417485 0
0.38494015 -0.34476089 -0.42226696 0
0.62574577 -0.44125366 -0.46831286 0
0.68498611 -0.39575577 -0.47081053 0
0.36274815 -0.2520752 -0.42239881 0
0.39271832 -0.20559692 -0.42457592 0
0.67603016 -0.31655693 -0.47019148 0
0.42959309 -0.085817337 -0.42533004 0
0.4339447 -0.1539669 -0.42682981 0
0.70554352 -0.26205826 -0.47130811 0
0.43149567 -0.018323898 -0.42401648 0
0.71594524 -0.14597321 -0.47224736 0
0.46717548 0.028188705 -0.42428577 0
0.5411377 0.079086304 -0.40501964 0
0.61254692 0.0070114136 -0.41260171 0
0.513237 0.15198135 -0.3941561 0
0.52387142 0.14896965 -0.39411426 0
0.4249239 0.30513 -0.36169147 0
0.49374771 0.21891212 -0.37822902 0
0.37787247 0.41958809 -0.34192324 0
0.42290401 0.37724876 -0.34792483 0
0.3708334 0.49950218 -0.33228934 0
0.57553577 0.071352005 -0.31581759 0
0.64320183 -0.020689011 -0.36567557 0
0.5195837 0.16076088 -0.29899514 0
0.56267357 0.10912323 -0.30827701 0
0.468256 0.29233551 -0.29013908 0
0.50107384 0.23313141 -0.27670109 0
0.45628071 0.38337708 -0.26317 0
0.62259674 0.05711174 -0.22117174 0
0.65261078 0.031375885 -0.25383234 0
0.5531702 0.14517975 -0.20586753 0
0.58291149 0.13151741 -0.20821536 0
0.53730583 0.24023628 -0.19282615 0
0.48953915 0.38263702 -0.16784573 0
0.48510361 0.46072388 -0.16712904 0
0.62250996 0.11632538 -0.13111615 0
0.57131195 0.25085068 -0.095193624 0
0.6224575 0.18356514 -0.094761729 0
0.51005554 0.38229942 -0.047131062 0
0.55247307 0.32613373 -0.10692537 0
0.49580479 0.48309708 -0.052057981 0
0.56954002 0.25940323 0.013167739 0
0.6423893 0.18090439 -0.051758289 0
0.53048897 0.36821747 0.038604259 0
0.55761814 0.46597672 0.041300416 0
0.58286667 0.35841751 0.10759962 0
0.60433388 0.43766212 0.13056171 0
0.58503819 0.46268082 0.19227862 0
-0.94429016 -0.069467545 -0.33475006 0
-0.96955967 0.032096863 -0.33676779 0
-0.92847443 0.12122726 -0.33890712 0
-0.91073799 0.20959282 -0.33991194 0
-0.98641872 0.34733009 -0.33740604 0
-0.89747143 0.31673431 -0.34096217 0
-0.82777214 0.29156876 -0.34301531 0
-0.94857883 0.44511032 -0.34061074 0
-0.83904266 0.41085052 -0.34321821 0
-0.7957859 0.33426285 -0.34243751 0
-0.73917294 0.43612289 -0.34808385 0
-0.99330997 -0.40110588 -0.3201071 0
-0.91730499 -0.40115929 -0.32196057 0
-0.82332993 -0.45932388 -0.32470882 0
-0.70296383 -0.47416878 -0.33048654 0
-0.97062492 -0.30626678 -0.32146585 0
-0.88960266 -0.30606079 -0.32335019 0
-0.79019642 -0.36007881 -0.32563424 0
-0.6579628 -0.35633469 -0.3308636 0
-0.62562752 -0.43043709 -0.33342242 0
-0.97273636 -0.15898132 -0.3279109 0
-0.86918449 -0.23320198 -0.32779264 0
-0.76535511 -0.26809883 -0.32817304 0
-0.63893414 -0.28216553 -0.33157134 0
-0.58816338 -0.3350563 -0.33422101 0
-0.90623283 -0.10883904 -0.33180618 0
-0.82130909 -0.12011147 -0.33268774 0
-0.70488167 -0.20302773 -0.33177948 0
-0.65087223 -0.16867638 -0.33289623 0
-0.55823708 -0.209095 -0.3360244 0
-0.86623287 -0.013870239 -0.33614635 0
-0.79278469 -0.036687851 -0.3362174 0
-0.69544601 -0.078273773 -0.33679688 0
-0.58149147 -0.076683044 -0.33714843 0
-0.53557205 -0.12782288 -0.33733284 0
-0.83981133 0.093095779 -0.33892405 0
-0.76144314 0.053569794 -0.33951676 0
-0.68845463 -0.012639999 -0.33891416 0
-0.56785774 0.0055503845 -0.3416611 0
-0.48625565 -0.042736053 -0.3406496 0
-0.81113815 0.16614342 -0.34115565 0
-0.72689152 0.14596748 -0.34206665 0
-0.62955761 0.11061287 -0.34279346 0
-0.51299572 0.075643539 -0.34335327 0
-0.44205475 0.078725815 -0.3451705 0
-0.78112411 0.24704552 -0.34280896 0
-0.69729328 0.225811 -0.34328902 0
-0.59108734 0.24310112 -0.34530139 0
-0.4980669 0.20367622 -0.34608912 0
-0.41472816 0.154562 -0.34722412 0
-0.72337341 0.36756325 -0.34600759 0
-0.69237614 0.34503365 -0.34538877 0
-0.57157135 0.32926178 -0.3477571 0
-0.44767952 0.28905487 -0.34993517 0
-0.38745689 0.22512436 -0.34974945 0
-0.70313263 0.45982552 -0.34832656 0
-0.63382912 0.44305611 -0.34901738 0
-0.52610683 0.42736244 -0.35132039 0
-0.40369511 0.37826347 -0.35366952 0
-0.36506367 0.32184219 -0.35243928 0
-0.51041603 0.4999218 -0.35412729 0
-0.38916969 0.48580551 -0.35701108 0
-0.30458641 0.41403008 -0.35709107 0
-0.56487274 -0.47089386 -0.33751488 0
-0.5374794 -0.42912865 -0.33814681 0
-0.43083668 -0.46396446 -0.34448075 0
-0.50577831 -0.3218441 -0.33970058 0
-0.50653172 -0.38299561 -0.33946061 0
-0.41564369 -0.3811245 -0.34539402 0
-0.28138161 -0.41461182 -0.35335052 0
-0.1554594 -0.4757328 -0.36303389 0
-0.4963913 -0.24110031 -0.34039831 0
-0.35783672 -0.31173706 -0.34828091 0
-0.22930431 -0.31755066 -0.35604465 0
-0.13028812 -0.35525322 -0.3622613 0
-0.43433666 -0.15166283 -0.34354413 0
-0.31032562 -0.21341133 -0.35078144 0
-0.21003628 -0.2344532 -0.35718584 0
-0.078059196 -0.27950859 -0.36489022 0
-0.42047119 -0.014621735 -0.34460092 0
-0.39721394 -0.078966141 -0.34547544 0
-0.28940678 -0.10547256 -0.35206711 0
-0.18751335 -0.14528084 -0.35849345 0
-0.052402496 -0.19741249 -0.36631453 0
-0.35906982 0.041164398 -0.3475877 0
-0.24617767 -0.0012149811 -0.35456109 0
-0.14680481 -0.041893005 -0.36117065 0
-0.034765244 -0.10190392 -0.36826444 0
0.017194748 -0.06259346 -0.3717041 0
-0.31907845 0.14357948 -0.34991539 0
-0.21021175 0.10466957 -0.35793018 0
-0.097907066 0.06126976 -0.36552119 0
0.043628693 -0.016113281 -0.37390244 0
-0.27288437 0.23272705 -0.35304213 0
-0.16947937 0.17567635 -0.35996807 0
-0.08744812 0.15817451 -0.367558 0
0.052448273 0.085660934 -0.37608731 0
-0.24356174 0.30876923 -0.35577929 0
-0.14703178 0.25325203 -0.3607167 0
-0.023115158 0.21880722 -0.37015903 0
0.058624268 0.17912483 -0.37762451 0
0.11435699 0.21563339 -0.37991703 0
-0.21791172 0.38706589 -0.35836995 0
-0.125597 0.36422539 -0.3613112 0
-0.010654449 0.33744812 -0.37035108 0
0.10414219 0.28692055 -0.37927234 0
0.1534586 0.32790565 -0.38136733 0
-0.16826153 0.48211288 -0.36250627 0
-0.080889702 0.46722031 -0.36385775 0
0.011861801 0.41987228 -0.37105608 0
0.10688019 0.44412804 -0.38589823 0
0.20128632 0.37973595 -0.39662588 0
0.26935291 0.43948364 -0.41592109 0
0.33450031 0.47329521 -0.42636335 0
0.075122833 -0.49565506 -0.39036596 0
0.092859268 -0.42863464 -0.38853502 0
0.32148838 -0.46865082 -0.41888475 0
0.072897911 -0.31664848 -0.38412428 0
0.33267212 -0.4052124 -0.4190942 0
0.13713074 -0.2435379 -0.38543248 0
0.36449623 -0.30533028 -0.42145562 0
0.6669054 -0.43191719 -0.47322619 0
0.12638569 -0.13409805 -0.38359261 0
0.41090107 -0.21081543 -0.42444754 0
0.68290615 -0.31729889 -0.4722116 0
0.18936443 -0.062393188 -0.38373113 0
0.45185089 -0.12717819 -0.42501497 0
0.72964287 -0.22774315 -0.47270846 0
0.18333244 0.042703629 -0.3849535 0
0.42541218 -0.0059127808 -0.42090225 0
0.74005604 -0.11532593 -0.47385824 0
0.24218273 0.14701462 -0.38976145 0
0.43257141 0.05639267 -0.41939974 0
0.57924175 0.079698563 -0.40751898 0
0.58194733 0.012775421 -0.4244771 0
0.27099133 0.22988892 -0.3913132 0
0.48733521 0.15156555 -0.40271282 0
0.3218956 0.29317856 -0.40912628 0
0.40970612 0.31843948 -0.39363599 0
0.44854069 0.25723076 -0.37334096 0
0.35605717 0.4475174 -0.3743794 0
0.41535759 0.39287949 -0.34890521 0
0.57320786 0.08537674 -0.32479918 0
0.60595989 0.014879227 -0.35610902 0
0.52598667 0.17231178 -0.32482374 0
0.542099 0.1580658 -0.32731867 0
0.44803143 0.329319 -0.29820228 0
0.4941082 0.24088669 -0.31108558 0
0.43969059 0.38702965 -0.29107773 0
0.38737011 0.48902512 -0.28683937 0
0.4637022 0.4418602 -0.25330484 0
0.5606041 0.090934753 -0.27271783 0
0.54892921 0.1717186 -0.2096529 0
0.59677792 0.10027885 -0.23648536 0
0.48687267 0.32170677 -0.20760763 0
0.5182724 0.2675209 -0.21260273 0
0.46556568 0.38687134 -0.19956803 0
0.4637413 0.45360756 -0.19240975 0
0.55745697 0.16801453 -0.16157186 0
0.59863472 0.12835121 -0.13455153 0
0.51598263 0.30989647 -0.12919116 0
0.56583405 0.23098183 -0.12274969 0
0.51905918 0.36645889 -0.1396637 0
0.55456257 0.33886147 -0.088518858 0
0.46991634 0.49434662 -0.081819654 0
0.49411011 0.46279144 -0.088991642 0
0.77056694 0.1007843 -0.089906931 0
0.53507423 0.30524635 -0.011940479 0
0.61101341 0.22000504 -0.043563008 0
0.52844143 0.36715126 -0.0056172609 0
0.53943348 0.46613312 0.0039651394 0
0.52047729 0.31627274 0.055932641 0
0.55868816 0.36385536 0.088701606 0
0.58308697 0.4587574 0.09022212 0
0.6142168 0.44470215 0.17085516 0
-0.97602558 0.053228378 -0.34687221 0
-0.9926815 0.14841843 -0.34641004 0
-0.98758698 0.25037193 -0.3462379 0
-0.94376278 0.34673882 -0.34738684 0
-0.90384102 0.45186806 -0.35090733 0
-0.98964691 -0.47434616 -0.32843721 0
-0.93968201 -0.38199234 -0.33048332 0
-0.88387299 -0.42617226 -0.33136272 0
-0.80197334 -0.43122864 -0.33342969 0
-0.93042183 -0.27213097 -0.33368647 0
-0.86439228 -0.31369591 -0.33210337 0
-0.7566576 -0.35830116 -0.33534062 0
-0.96474361 -0.1618042 -0.33818007 0
-0.87160683 -0.18878555 -0.33806443 0
-0.80604458 -0.22430992 -0.33746779 0
-0.73749828 -0.25241089 -0.33745611 0
-0.97052956 -0.081045151 -0.34080386 0
-0.87066746 -0.10123444 -0.34225619 0
-0.77598572 -0.11405563 -0.34296823 0
-0.67685509 -0.16189003 -0.34279811 0
-0.94973373 0.030124664 -0.34550357 0
-0.84415722 -0.0012340546 -0.34560716 0
-0.72463799 -0.0027484894 -0.34669852 0
-0.67076588 -0.062292099 -0.34619761 0
-0.88779354 0.11253166 -0.34819186 0
-0.81517696 0.067577362 -0.34837091 0
-0.71800232 0.087368011 -0.34959245 0
-0.60260201 0.034517288 -0.35068178 0
-0.88194084 0.19971657 -0.34926629 0
-0.77722263 0.20065498 -0.35113168 0
-0.65411186 0.16013908 -0.35217655 0
-0.57197571 0.14029121 -0.35333073 0
-0.84363174 0.31960869 -0.35093451 0
-0.73328018 0.2756176 -0.35263968 0
-0.66381359 0.27801132 -0.35363758 0
-0.55467129 0.23066521 -0.35546577 0
-0.85826588 0.42934608 -0.35023487 0
-0.83256817 0.41471672 -0.35223567 0
-0.71152496 0.38820648 -0.35516191 0
-0.60823727 0.3750782 -0.35692775 0
-0.51915264 0.31641197 -0.35744119 0
-0.66811466 0.4817028 -0.35804904 0
-0.5774889 0.44009399 -0.35881257 0
-0.48667431 0.38993454 -0.36039293 0
-0.46730328 0.49576759 -0.3632133 0
-0.69262505 -0.47424889 -0.33921492 0
-0.62320042 -0.35398674 -0.34124005 0
-0.55842209 -0.45706177 -0.34559178 0
-0.43907452 -0.45203018 -0.35171962 0
-0.33523655 -0.47257233 -0.35818708 0
-0.62918663 -0.28031158 -0.33983541 0
-0.54287434 -0.30333519 -0.34545505 0
-0.41406441 -0.36920357 -0.35304105 0
-0.29371738 -0.38599396 -0.3602519 0
-0.61170864 -0.19627953 -0.34156334 0
-0.46000671 -0.21741104 -0.34941566 0
-0.38524151 -0.25333595 -0.35459781 0
-0.26996517 -0.29634094 -0.36152148 0
-0.54645061 -0.10691643 -0.3468647 0
-0.49010181 -0.10653114 -0.34828866 0
-0.32568264 -0.15188026 -0.35751677 0
-0.2475605 -0.20108032 -0.36273241 0
-0.52532196 0.0042610168 -0.3502115 0
-0.43481064 -0.038368225 -0.35094118 0
-0.3169241 -0.054815292 -0.35810828 0
-0.21834373 -0.12291908 -0.36420155 0
-0.49232006 0.10828209 -0.35374069 0
-0.40759373 0.074609756 -0.35377765 0
-0.30434132 0.028873444 -0.35883975 0
-0.17148781 -0.013181686 -0.36690223 0
-0.45138073 0.17594337 -0.35601854 0
-0.35926819 0.17544365 -0.35770488 0
-0.24035263 0.12881279 -0.36267555 0
-0.1932888 0.098043442 -0.3673737 0
-0.43680763 0.26233864 -0.35803473 0
-0.30963326 0.23843956 -0.36137688 0
-0.24678898 0.23087883 -0.36200356 0
-0.13834572 0.17406464 -0.37059569 0
-0.39528751 0.35944939 -0.36185503 0
-0.3164959 0.33525467 -0.36262381 0
-0.20179558 0.30247116 -0.36495161 0
-0.085342407 0.28018951 -0.37233043 0
-0.37176323 0.46977234 -0.36496627 0
-0.2829752 0.44861031 -0.36630666 0
-0.1775465 0.41893005 -0.36818993 0
-0.067727089 0.37450409 -0.37261331 0
-0.050636292 0.45690727 -0.37306464 0
-0.15559864 -0.39364433 -0.36867011 0
-0.15503216 -0.45623589 -0.36857653 0
-0.11043739 -0.34181786 -0.37081695 0
0.04123497 -0.41308784 -0.39176059 0
0.29299927 -0.46405029 -0.42394805 0
