# .PCD v0.7 - Point Cloud Data file format
VERSION 0.7
FIELDS x y z intensity
SIZE 4 4 4 4
TYPE F F F F
COUNT 1 1 1 1
WIDTH 1299
HEIGHT 1
VIEWPOINT 0 0 0 1 0 0 0
POINTS 1299
DATA ascii
-0.54352534 -0.35738015 -0.35345393 0
-0.45773548 -0.36124396 -0.35430661 0
-0.37910798 -0.34955144 -0.35655388 0
-0.64844495 -0.24563861 -0.34859496 0
-0.53755343 -0.24836564 -0.35157388 0
-0.46827918 -0.26122642 -0.35268742 0
-0.6348424 -0.14709234 -0.34726024 0
-0.55512655 -0.14906788 -0.3489252 0
-0.45126566 -0.14896321 -0.35138816 0
-0.3522422 -0.16107273 -0.35483199 0
-0.62857914 -0.061252356 -0.34728271 0
-0.54808974 -0.053882122 -0.34810507 0
-0.44490489 -0.041680813 -0.35100925 0
-0.34912348 -0.047973633 -0.35672766 0
-0.26050583 -0.05940032 -0.35888195 0
-0.63588637 0.035837412 -0.34541556 0
-0.53876287 0.030183554 -0.35182279 0
-0.43571216 0.040654898 -0.35182601 0
-0.32708907 0.035234451 -0.35664105 0
-0.25813961 0.059815168 -0.35709381 0
-0.17813033 0.037072659 -0.36039948 0
-0.085259318 0.071920872 -0.36704975 0
-0.63106203 0.13900399 -0.34517691 0
-0.54971564 0.14567709 -0.34932047 0
-0.44371143 0.12905979 -0.35008311 0
-0.36566672 0.15133214 -0.35365883 0
-0.25308934 0.14843154 -0.35736489 0
-0.17509678 0.12834501 -0.3598752 0
-0.63300574 0.25507402 -0.34616151 0
-0.54759729 0.2460103 -0.34877437 0
-0.44420192 0.24171162 -0.34975594 0
-0.34331593 0.24199009 -0.35022262 0
-0.26213762 0.2320838 -0.35432726 0
-0.15921602 0.25015879 -0.35736018 0
-0.62714386 0.34764647 -0.34456259 0
-0.55901051 0.35206866 -0.34706557 0
-0.44497922 0.33275962 -0.34882575 0
-0.34477538 0.3508358 -0.35079926 0
-0.25940123 0.34532928 -0.35159987 0
-0.14409518 0.33611083 -0.35564649 0
-0.64396644 0.45117331 -0.3442623 0
-0.55490375 0.4541831 -0.34418961 0
-0.46868619 0.43631363 -0.34695566 0
-0.36193025 0.44520521 -0.34735921 0
-0.24004433 0.44267035 -0.35058922 0
-0.15091777 0.43569613 -0.35517359 0
-0.033147156 0.47708774 -0.35834149 0
-0.42079484 -0.48620343 -0.35593304 0
-0.32479885 -0.46770597 -0.3560034 0
-0.24869636 -0.43604422 -0.35675952 0
-0.11551744 -0.47132611 -0.35891643 0
-0.059876531 -0.45258904 -0.36049575 0
0.047321528 -0.48145413 -0.36309618 0
0.13254561 -0.47403598 -0.35549563 0
0.25250578 -0.47664618 -0.34570682 0
0.36170319 -0.46437025 -0.33967096 0
0.45712668 -0.4655757 -0.33592969 0
0.61689448 -0.44073606 -0.33110422 0
-0.35323283 -0.36000872 -0.35208955 0
-0.22349405 -0.39138079 -0.3560923 0
-0.16430554 -0.35611415 -0.35544017 0
-0.037608653 -0.35263777 -0.35722899 0
0.059144855 -0.35916686 -0.35989767 0
0.14338341 -0.3458693 -0.356812 0
0.26614058 -0.36429977 -0.35631174 0
0.36045349 -0.3434732 -0.35127437 0
0.48019043 -0.38347697 -0.34101656 0
0.56179428 -0.35444427 -0.34531766 0
0.63108647 -0.34746432 -0.32970989 0
-0.33962297 -0.2658658 -0.35128909 0
-0.2437574 -0.26365948 -0.35584185 0
-0.16071877 -0.23431206 -0.355831 0
-0.075887889 -0.24659991 -0.35713857 0
0.033803374 -0.26144028 -0.36354387 0
0.13565859 -0.27352643 -0.36020291 0
0.26139122 -0.23692083 -0.35797822 0
0.3960456 -0.2401073 -0.3551181 0
0.47922319 -0.28292394 -0.34875029 0
0.56917143 -0.24928904 -0.35088885 0
0.68394351 -0.26843572 -0.33802289 0
-0.39259607 -0.18089271 -0.34545699 0
-0.24883649 -0.16858959 -0.35614735 0
-0.14371514 -0.13181877 -0.3564879 0
-0.05747208 -0.13556194 -0.35767463 0
0.030905843 -0.15139794 -0.35871559 0
0.11081865 -0.15679669 -0.35668969 0
0.23189048 -0.15371037 -0.35847411 0
0.41473854 -0.14402127 -0.35600629 0
0.56054229 -0.14704084 -0.34947091 0
0.68671638 -0.14466739 -0.33395302 0
-0.25007465 -0.067116737 -0.35285586 0
-0.13415912 -0.040646791 -0.36063617 0
-0.031086177 -0.052672625 -0.36189908 0
0.042543262 -0.048380852 -0.35837546 0
0.13642353 -0.069075108 -0.36023796 0
0.25475502 -0.063159943 -0.35458505 0
0.32056955 -0.03242445 -0.35682657 0
0.42308944 -0.060838223 -0.35522163 0
0.5442093 -0.040676832 -0.34653693 0
0.658328 -0.029719591 -0.33448562 0
-0.28363806 0.018180132 -0.35096836 0
-0.11652032 0.067009211 -0.3585816 0
-0.0097860694 0.033152103 -0.36548132 0
0.054071635 0.066352606 -0.35856605 0
0.13738087 0.069785833 -0.35690239 0
0.22958803 0.040191889 -0.35894626 0
0.33012128 0.043636322 -0.35714868 0
0.43377596 0.050186872 -0.35467529 0
0.53191745 0.052484989 -0.35027143 0
0.63537204 0.055912733 -0.33197743 0
-0.13397044 0.16106629 -0.35849717 0
-0.02824825 0.15907979 -0.35840359 0
0.05934909 0.16567993 -0.35837883 0
0.14561978 0.1590786 -0.35745645 0
0.25465491 0.1389637 -0.36364016 0
0.34506488 0.14161372 -0.35887176 0
0.44902545 0.16021824 -0.35632864 0
0.56813413 0.14751673 -0.33872312 0
0.68912005 0.11027431 -0.3270281 0
0.7198 0.1584115 -0.33275628 0
-0.11866465 0.25657964 -0.35595536 0
-0.030799001 0.23010659 -0.35715544 0
0.070133448 0.24191165 -0.36099458 0
0.15644187 0.22069407 -0.35994369 0
0.23778608 0.25154901 -0.3576878 0
0.35132691 0.26773024 -0.35850954 0
0.47650373 0.24290872 -0.3621788 0
0.5552398 0.24632955 -0.35159945 0
0.65590799 0.21736288 -0.34947813 0
0.74999499 0.24947309 -0.33710939 0
0.87427634 0.19728851 -0.33361048 0
-0.045466542 0.35022354 -0.35283422 0
0.043028533 0.34306169 -0.3528586 0
0.15256214 0.3357172 -0.3584255 0
0.25640607 0.32925653 -0.36237717 0
0.3778317 0.3365314 -0.3652873 0
0.47163439 0.33516121 -0.35969901 0
0.66840458 0.35071731 -0.34954751 0
0.79095548 0.35689425 -0.34426966 0
0.88903451 0.31321263 -0.33311731 0
-0.050230503 0.40622115 -0.35200694 0
0.047367811 0.42944479 -0.35460544 0
0.1587123 0.46110654 -0.36015931 0
0.26127702 0.4441309 -0.36320174 0
0.37148383 0.4564333 -0.36307514 0
0.46318278 0.4317615 -0.35654956 0
0.56788778 0.41589284 -0.35246986 0
0.68884796 0.44249868 -0.35427541 0
0.8239817 0.46325874 -0.35100937 0
0.93092489 0.41759419 -0.34110445 0
-0.15193406 0.494555 -0.34834817 0
0.069667816 0.49787951 -0.36215177 0
0.55545259 -0.48984432 -0.32055479 0
0.67017817 -0.45942307 -0.31281844 0
0.74189365 -0.43299413 -0.29558414 0
0.85697448 -0.44862986 -0.28028938 0
0.69473338 -0.34529257 -0.31264707 0
0.77781665 -0.37181377 -0.30043206 0
0.89189541 -0.35781646 -0.28302258 0
0.94273913 -0.34901786 -0.26982778 0
0.74482143 -0.25260854 -0.31925267 0
0.82726103 -0.27395415 -0.30621177 0
0.94693589 -0.27456737 -0.28426793 0
0.77985704 -0.15687227 -0.32316995 0
0.86953539 -0.15610528 -0.30995703 0
0.95296407 -0.19773126 -0.29946673 0
0.79246825 -0.06388402 -0.32350457 0
0.87386632 -0.073375463 -0.30816162 0
0.96953213 -0.061614513 -0.29726368 0
0.78105319 0.058367014 -0.31680676 0
0.8689841 -0.0038411617 -0.30490708 0
0.95745182 0.054317713 -0.3060737 0
0.79875875 0.12422299 -0.31830388 0
0.82702595 0.16814423 -0.3233147 0
0.93087661 0.14952636 -0.3124949 0
0.97394252 0.2106874 -0.32073888 0
0.97856492 0.32331705 -0.3185519 0
-0.91333914 0.13243794 -0.34764034 0
-0.94064462 0.30938888 -0.34160531 0
-0.86972159 0.28577709 -0.34837744 0
-0.94798136 0.39226699 -0.34209847 0
-0.89518189 0.42483068 -0.34442416 0
-0.81778133 0.37143469 -0.3521654 0
-0.69767141 -0.48231959 -0.3523089 0
-0.60374284 -0.47491336 -0.35788363 0
-0.53662348 -0.4908998 -0.35816449 0
-0.39480072 -0.47633958 -0.36226586 0
-0.31535211 -0.47225904 -0.36280602 0
-0.23759642 -0.46119595 -0.3614288 0
-0.11145303 -0.45032001 -0.36444747 0
-0.019066006 -0.43496108 -0.36301044 0
0.091580898 -0.43859243 -0.36538559 0
0.18375522 -0.4219408 -0.36356214 0
-0.99273753 -0.44198322 -0.34275293 0
-0.91423595 -0.41295743 -0.34455484 0
-0.80629015 -0.39939451 -0.34951133 0
-0.71742225 -0.38696408 -0.35307068 0
-0.61543512 -0.39872122 -0.35453787 0
-0.5231111 -0.3809185 -0.35851252 0
-0.43823487 -0.39593649 -0.35945854 0
-0.32876942 -0.37091517 -0.36028165 0
-0.21667862 -0.35856652 -0.36103135 0
-0.12819871 -0.34263992 -0.35562372 0
-0.0011022687 -0.31260061 -0.36200613 0
0.093057483 -0.32506514 -0.36091194 0
0.19302584 -0.3380065 -0.36224455 0
-0.99005508 -0.34962845 -0.34046471 0
-0.93852901 -0.31881428 -0.34357515 0
-0.8381682 -0.30778646 -0.34781706 0
-0.72741407 -0.2966342 -0.34959102 0
-0.6425308 -0.29208255 -0.35308111 0
-0.5297662 -0.27064824 -0.35391575 0
-0.422824 -0.2676034 -0.35684666 0
-0.322521 -0.26138544 -0.35566044 0
-0.22020209 -0.25927567 -0.36049396 0
-0.1255832 -0.25369072 -0.35808471 0
0.015211999 -0.24591184 -0.36343336 0
0.073667943 -0.24156761 -0.36521524 0
0.19011652 -0.21850133 -0.36482057 0
-0.93822002 -0.19490242 -0.33953506 0
-0.82403511 -0.21612167 -0.34630394 0
-0.75560236 -0.19880652 -0.34821171 0
-0.64431 -0.18148851 -0.35068199 0
-0.54398251 -0.19146061 -0.35195816 0
-0.43767267 -0.16430593 -0.35805029 0
-0.32642937 -0.16778111 -0.35886618 0
-0.24703637 -0.14582872 -0.35935852 0
-0.128438 -0.18176436 -0.36039537 0
-0.057637155 -0.13810706 -0.36551577 0
0.026960433 -0.13031936 -0.36243314 0
0.15258846 -0.12722158 -0.36046183 0
-0.93558872 -0.12727189 -0.34166342 0
-0.84721303 -0.10815763 -0.34491909 0
-0.7474218 -0.093310118 -0.34811872 0
-0.65638041 -0.083463192 -0.34929597 0
-0.54811335 -0.085561752 -0.35107899 0
-0.45311436 -0.057605982 -0.35429817 0
-0.32695857 -0.085901499 -0.3612842 0
-0.24778423 -0.089155197 -0.35758409 0
-0.16102192 -0.063247442 -0.3602441 0
-0.042033255 -0.048765659 -0.36710152 0
0.061208367 -0.034620047 -0.35980222 0
0.15556546 -0.046623945 -0.36709324 0
0.22651564 -0.0025029182 -0.35935652 0
-0.93945217 -0.023607254 -0.34129214 0
-0.85211992 -0.012594938 -0.34481037 0
-0.75105715 0.015549183 -0.34796512 0
-0.64201117 0.011820316 -0.34992439 0
-0.55607533 0.017705679 -0.35302848 0
-0.45106816 0.017641783 -0.35482872 0
-0.34634045 0.037706375 -0.35834983 0
-0.22361282 0.04344368 -0.36094034 0
-0.13476893 0.066050291 -0.36432427 0
-0.035161048 0.012882233 -0.36745793 0
0.066162586 0.051182985 -0.3680082 0
0.14640574 0.085945845 -0.36153406 0
0.24575323 0.092112303 -0.3619985 0
-0.92889875 0.069504976 -0.34304172 0
-0.86119223 0.10308671 -0.34282503 0
-0.74560416 0.1083169 -0.34754044 0
-0.64927953 0.123281 -0.3519606 0
-0.56625009 0.11241722 -0.35056487 0
-0.4656018 0.11919856 -0.3542614 0
-0.36222672 0.12868857 -0.35785255 0
-0.27402827 0.15334749 -0.35940135 0
-0.16938952 0.15693998 -0.36384356 0
-0.050124437 0.1510942 -0.36099565 0
0.059793442 0.17717004 -0.36429453 0
0.14604577 0.2100873 -0.35932261 0
0.26198569 0.14907217 -0.36525583 0
0.39821056 0.16540909 -0.36861357 0
-0.94750059 0.18873119 -0.33737245 0
-0.85404545 0.19644833 -0.34402588 0
-0.75704384 0.20971489 -0.34402904 0
-0.65239525 0.19514179 -0.35095686 0
-0.5668723 0.20328617 -0.34991685 0
-0.466802 0.21808672 -0.35335463 0
-0.38686007 0.23448896 -0.35543638 0
-0.26538947 0.24408174 -0.35757345 0
-0.17030552 0.25191021 -0.35937452 0
-0.053489387 0.27933097 -0.35893387 0
0.048597574 0.27849197 -0.36035424 0
0.15379256 0.28359461 -0.36106026 0
0.26010603 0.28001738 -0.36313698 0
0.40248388 0.27642751 -0.36788517 0
-0.94292718 0.2493279 -0.33943549 0
-0.85786843 0.29125571 -0.34248829 0
-0.75668013 0.30000043 -0.34507233 0
-0.66957176 0.29180932 -0.35107374 0
-0.5630672 0.31428576 -0.35030258 0
-0.47239056 0.32449245 -0.35204732 0
-0.38696921 0.30268335 -0.35560685 0
-0.29242161 0.35526562 -0.35358915 0
-0.17539439 0.34234691 -0.35593045 0
-0.046930432 0.33986664 -0.36107147 0
0.042999059 0.34578991 -0.3586247 0
0.16881725 0.34001184 -0.36502457 0
0.22223444 0.3911531 -0.365318 0
0.40037733 0.39721084 -0.36601138 0
-0.8843621 0.39681721 -0.33969119 0
-0.77690244 0.39814353 -0.3433069 0
-0.69619161 0.41609144 -0.34476739 0
-0.58957446 0.42459846 -0.34710369 0
-0.47286588 0.4175787 -0.35363317 0
-0.38715965 0.41073656 -0.34855705 0
-0.26416475 0.43361855 -0.35534114 0
-0.1575743 0.42902184 -0.35641241 0
-0.062908232 0.45272374 -0.3567349 0
0.048047602 0.44934344 -0.35997796 0
0.1820488 0.47286105 -0.36798483 0
0.2806952 0.48201299 -0.36660215 0
-0.85541916 0.46979785 -0.34245175 0
0.64038074 -0.45932126 -0.3200081 0
0.67679095 -0.43919992 -0.32739037 0
0.18813595 -0.44634342 -0.35170197 0
0.27471226 -0.44572163 -0.35769558 0
0.39739874 -0.42870522 -0.34624344 0
0.50681043 -0.40171671 -0.34029737 0
0.57438594 -0.40066886 -0.33631182 0
0.67721319 -0.36021304 -0.32402158 0
0.29892832 -0.32205319 -0.35814846 0
0.4134562 -0.31167674 -0.35484207 0
0.44322458 -0.25712919 -0.35984209 0
0.57903796 -0.30301189 -0.34731406 0
0.69841743 -0.27377725 -0.32505774 0
0.18735832 -0.24628615 -0.35732198 0
0.32716587 -0.21365023 -0.36090416 0
0.44440496 -0.18946815 -0.35771814 0
0.56832254 -0.1811285 -0.35504943 0
0.64385986 -0.19357419 -0.34370503 0
0.74254596 -0.20370078 -0.33186853 0
0.3375544 -0.10118866 -0.35975617 0
0.45661306 -0.10819936 -0.35792637 0
0.57945645 -0.10954571 -0.35584015 0
0.64255708 -0.068095922 -0.33968261 0
0.73941541 -0.1028645 -0.3281506 0
0.85018289 -0.059820175 -0.3162927 0
0.35337827 0.0037786961 -0.3606582 0
0.4751482 0.0025112629 -0.35922331 0
0.56262147 -0.00032091141 -0.34868315 0
0.64231873 0.013037682 -0.33762759 0
0.74326229 0.0075740814 -0.32635799 0
0.37034124 0.075001955 -0.36318094 0
0.47796223 0.10555506 -0.35770896 0
0.56443369 0.11022592 -0.3467631 0
0.65482873 0.12742686 -0.33783448 0
0.77269804 0.12723875 -0.32939062 0
0.88269067 0.09438777 -0.31826037 0
0.90375328 0.16422915 -0.32016921 0
0.37089369 0.14603114 -0.36166322 0
0.43999159 0.2048986 -0.36231387 0
0.56957972 0.21615124 -0.34495795 0
0.65270877 0.23937559 -0.34915355 0
0.82266283 0.24518967 -0.3368718 0
0.95137441 0.24838829 -0.3283065 0
0.50088 0.3063643 -0.3594299 0
0.63730812 0.28422856 -0.36032367 0
0.72060418 0.31383204 -0.34769514 0
0.85667121 0.35675764 -0.34105772 0
0.97685492 0.32555103 -0.33264995 0
0.52249324 0.4220252 -0.36410427 0
0.63147449 0.38881373 -0.35706872 0
0.74305785 0.43028378 -0.35113788 0
0.88670862 0.43518329 -0.34666491 0
0.99667442 0.45201564 -0.33290771 0
0.72805357 -0.45114207 -0.30494872 0
0.81496304 -0.48040843 -0.29016441 0
0.88915014 -0.43805814 -0.2715975 0
0.98206592 -0.49799538 -0.25572205 0
0.79556644 -0.38624525 -0.2994054 0
0.92207444 -0.35432029 -0.27457166 0
0.78250176 -0.2870245 -0.30966538 0
0.88069212 -0.26754403 -0.29432631 0
0.97636759 -0.27843285 -0.28217566 0
0.82122791 -0.19933772 -0.3140716 0
0.83450663 -0.12601781 -0.31396341 0
0.95750606 -0.14288211 -0.29395711 0
0.83978838 0.062162161 -0.3097415 0
0.95831633 0.034255505 -0.29863542 0
-0.75198531 -0.46627712 -0.34905738 0
-0.67108774 -0.44522619 -0.3543815 0
-0.74449182 -0.39577007 -0.34647924 0
-0.65943754 -0.32343316 -0.35040435 0
-0.73720276 -0.28806806 -0.3423149 0
-0.69727325 -0.24636936 -0.34558886 0
-0.57752609 -0.188375 -0.3521114 0
-0.69075918 -0.14796472 -0.34501299 0
-0.59979051 -0.1338563 -0.35108209 0
-0.6833812 -0.050636768 -0.34673578 0
-0.60859263 -0.029057264 -0.34835938 0
-0.56289333 -0.024719238 -0.35153151 0
-0.69059247 0.024148464 -0.34338608 0
-0.63697845 0.072940826 -0.34647253 0
-0.56961793 0.075582504 -0.3482576 0
-0.42560709 0.090288639 -0.35962516 0
-0.66492152 0.15125465 -0.34387457 0
-0.53972673 0.171736 -0.35044301 0
-0.45016178 0.16950321 -0.35205227 0
-0.66451836 0.2443707 -0.34412345 0
-0.56544864 0.28736806 -0.34571519 0
-0.49357519 0.318326 -0.34772268 0
-0.67193282 0.34854627 -0.34390631 0
-0.60927564 0.38460374 -0.34372896 0
-0.51569158 0.39281034 -0.34501225 0
-0.40686491 0.43138123 -0.34912762 0
-0.69128728 0.47013497 -0.34045643 0
-0.60918486 0.46963453 -0.34364897 0
-0.52675498 0.48982191 -0.34343633 0
0.082604915 -0.49891233 -0.35569131 0
0.26956955 -0.47476053 -0.34036383 0
0.38042298 -0.44496202 -0.3397429 0
-0.41826975 -0.48854017 -0.35673487 0
-0.33693513 -0.47068453 -0.35545868 0
-0.2256498 -0.47040606 -0.35719639 0
-0.097470343 -0.46309495 -0.35827273 0
-0.05026716 -0.40558052 -0.3563076 0
0.095213681 -0.42543936 -0.36234364 0
0.16982922 -0.42699575 -0.35634577 0
0.25833943 -0.37619567 -0.34996042 0
0.3747659 -0.36195016 -0.35041955 0
0.44827956 -0.35563135 -0.34280211 0
0.5075205 -0.31390333 -0.35437974 0
-0.73531902 -0.46839452 -0.34525153 0
-0.63891339 -0.44049597 -0.34912163 0
-0.55295932 -0.4206953 -0.35203058 0
-0.4549526 -0.40360141 -0.35389942 0
-0.34592655 -0.4032557 -0.35647422 0
-0.25785628 -0.37626696 -0.35340607 0
-0.16791642 -0.36534214 -0.3554371 0
-0.056989104 -0.34801888 -0.35515979 0
0.037068754 -0.31222534 -0.35637832 0
0.13651156 -0.30754519 -0.35872889 0
0.22865438 -0.30334401 -0.35612297 0
0.33133286 -0.2654016 -0.35338968 0
0.41175383 -0.22731185 -0.35334158 0
0.51676595 -0.26583934 -0.35458136 0
0.60627383 -0.25411272 -0.3441841 0
-0.65661317 -0.32660222 -0.3459329 0
-0.54449618 -0.33966398 -0.35218379 0
-0.46332222 -0.30292296 -0.35182518 0
-0.36516151 -0.30655646 -0.35072923 0
-0.27155301 -0.26908088 -0.35201338 0
-0.16920677 -0.24434543 -0.35584596 0
-0.049632818 -0.25031614 -0.35939735 0
0.038039118 -0.21424794 -0.35907674 0
0.10935241 -0.19923139 -0.35580814 0
0.21130903 -0.19679976 -0.35607466 0
0.29832301 -0.13637424 -0.34938866 0
0.42795986 -0.12260246 -0.35337383 0
0.52120161 -0.13912702 -0.35084093 0
-0.76029134 -0.31055045 -0.33850729 0
-0.6550346 -0.23867774 -0.34382147 0
-0.58180529 -0.22775912 -0.34804994 0
-0.47981966 -0.20867014 -0.34919465 0
-0.378326 -0.18851662 -0.35113156 0
-0.28640327 -0.17062497 -0.35759115 0
-0.18576074 -0.16839051 -0.3554242 0
-0.089224339 -0.14001632 -0.355636 0
0.013277739 -0.12733531 -0.36019611 0
0.10854989 -0.11329389 -0.35762936 0
0.22396201 -0.10619569 -0.35601494 0
0.32534915 -0.057486773 -0.35340002 0
0.45614898 -0.076858521 -0.35879502 0
0.51988089 -0.033155918 -0.34712744 0
0.62570834 -0.019916058 -0.34150016 0
-0.6826998 -0.12141728 -0.34033203 0
-0.55370283 -0.15824556 -0.34469765 0
-0.49195167 -0.11011624 -0.35083002 0
-0.41139236 -0.095874786 -0.35425907 0
-0.29420099 -0.074517012 -0.35283551 0
-0.19808841 -0.054277182 -0.35879561 0
-0.11122409 -0.069638729 -0.35823512 0
-0.025514871 -0.027206898 -0.35811552 0
0.089999706 -0.029062033 -0.35910308 0
0.19875884 0.0078105927 -0.35474408 0
0.34256983 0.0049948692 -0.35588256 0
0.38713658 0.051083803 -0.3565737 0
0.50130117 0.061545849 -0.35061818 0
0.62053001 0.047171831 -0.3384881 0
-0.61460853 -0.049836159 -0.34285736 0
-0.51882327 -0.023950815 -0.34965819 0
-0.41362694 -0.00037789345 -0.35382104 0
-0.33252659 0.013271332 -0.35206598 0
-0.23046502 0.03288579 -0.35591558 0
-0.10340551 0.065409422 -0.357086 0
-0.022365272 0.082001925 -0.36198908 0
0.087668866 0.088320017 -0.36325413 0
0.15354338 0.081274033 -0.35874119 0
0.25751138 0.10126758 -0.35909256 0
0.35615712 0.16823626 -0.35543171 0
0.4589926 0.18216228 -0.35305831 0
0.54573596 0.15002823 -0.34938776 0
0.65031278 0.19895148 -0.34126252 0
-0.51934749 0.088096857 -0.34759939 0
-0.42469001 0.095214605 -0.35095102 0
-0.32820457 0.12731957 -0.35497153 0
-0.2340219 0.12359309 -0.35578674 0
-0.15538305 0.1605792 -0.35570663 0
-0.040994525 0.19629478 -0.35714918 0
0.083433986 0.23305225 -0.36039671 0
0.15080848 0.19992352 -0.35606417 0
0.26489475 0.23199272 -0.35913968 0
0.36502394 0.2397635 -0.35655388 0
0.47240454 0.29312587 -0.35444099 0
0.56553376 0.2793231 -0.35118866 0
0.68421751 0.31037688 -0.34664038 0
-0.52084064 0.14803767 -0.34665325 0
-0.46308452 0.22384334 -0.34812564 0
-0.36794177 0.20860624 -0.35309458 0
-0.26815963 0.23606324 -0.35521466 0
-0.19033027 0.25385356 -0.35269266 0
-0.072895736 0.25909901 -0.35559365 0
0.063322455 0.291049 -0.3543708 0
0.15887496 0.31317425 -0.3576999 0
0.27665469 0.32429099 -0.36145157 0
0.38196468 0.32603741 -0.3601808 0
0.48262057 0.35746431 -0.356547 0
0.53071296 0.39713812 -0.35465699 0
0.70461899 0.40395045 -0.35069793 0
0.83787203 0.42304754 -0.34762022 0
-0.54487121 0.28047657 -0.33939657 0
-0.47523677 0.28832912 -0.34462491 0
-0.34143049 0.30802226 -0.35187238 0
-0.25239533 0.32457042 -0.3537305 0
-0.1900084 0.35242629 -0.353365 0
-0.082348973 0.35647273 -0.35139388 0
0.019944519 0.38398099 -0.35430261 0
0.15741944 0.43551278 -0.35673633 0
0.27142656 0.40052366 -0.35923281 0
0.28827101 0.42495108 -0.36402601 0
0.38498351 0.45212078 -0.36041802 0
0.50162733 0.4353745 -0.3615731 0
0.57562029 0.47149277 -0.35153043 0
-0.48540154 0.40069032 -0.34315413 0
-0.41407225 0.37536168 -0.34505686 0
-0.29322153 0.42358279 -0.35117409 0
-0.21479294 0.46710396 -0.34728506 0
-0.11540097 0.48643255 -0.35343811 0
0.0022194982 0.4433682 -0.35362583 0
0.78394914 -0.48388791 -0.28760719 0
0.48064849 -0.45347738 -0.32571131 0
0.57212353 -0.43245411 -0.32969338 0
0.66407788 -0.39336085 -0.32276756 0
0.7892381 -0.40922976 -0.29069531 0
0.86868298 -0.36586642 -0.28310418 0
0.57020468 -0.3173244 -0.33875754 0
0.66904157 -0.29331374 -0.32959276 0
0.7607314 -0.30404592 -0.30971944 0
0.86244977 -0.26203966 -0.29323763 0
0.94731408 -0.2396574 -0.29325211 0
0.63924265 -0.18380976 -0.33342832 0
0.73652565 -0.19356465 -0.32481584 0
0.83799314 -0.18016624 -0.31107479 0
0.9735871 -0.18547297 -0.29619485 0
0.59773999 -0.10311151 -0.33678794 0
0.69909847 -0.10054111 -0.32912654 0
0.83099675 -0.1025269 -0.31171849 0
0.93611658 -0.087547779 -0.30188534 0
0.60111433 -0.024412394 -0.33524311 0
0.69637775 -0.015349388 -0.32596987 0
0.78350222 -0.0096826553 -0.31336176 0
0.89887029 0.052628756 -0.30637622 0
0.6137594 0.12168622 -0.33472663 0
0.71084183 0.087581158 -0.3265669 0
0.77310455 0.12330937 -0.32312924 0
0.85295069 0.12819791 -0.3246389 0
0.94374955 0.1369276 -0.31301153 0
0.78490281 0.20400119 -0.34035695 0
0.87793601 0.24572659 -0.32603872 0
0.97672176 0.24678016 -0.31743598 0
0.78833044 0.28778005 -0.33835492 0
0.84983456 0.33628631 -0.33390176 0
0.92678928 0.34612823 -0.33508378 0
0.93698895 0.44662762 -0.33491537 0
0.91562051 -0.45612407 -0.26305252 0
0.96864915 -0.3500185 -0.26835185 0
-0.47821522 -0.47838283 -0.35829121 0
-0.37570134 -0.457829 -0.35779032 0
-0.29065272 -0.41086483 -0.35834557 0
-0.51139951 -0.39142227 -0.35376599 0
-0.41602561 -0.36327338 -0.3555246 0
-0.33410448 -0.32685471 -0.35353509 0
-0.24464759 -0.30898929 -0.36047953 0
-0.50148904 -0.30949354 -0.35173255 0
-0.44987506 -0.26934004 -0.35326326 0
-0.35662556 -0.24842453 -0.35313118 0
-0.46679738 -0.18308473 -0.35212708 0
-0.379518 -0.14201689 -0.35535967 0
-0.30032116 -0.1208024 -0.35465562 0
-0.20968714 -0.047745466 -0.36353528 0
-0.14446825 -0.060693264 -0.36398125 0
-0.46613711 -0.072102785 -0.35176921 0
-0.41737708 -0.035090923 -0.35372207 0
-0.32331493 -0.013270855 -0.35493648 0
-0.21650285 0.054728985 -0.36065802 0
-0.14461285 0.048437357 -0.36285493 0
-0.44502836 0.051880836 -0.35015106 0
-0.36954239 0.092439413 -0.35245743 0
-0.26252154 0.11638522 -0.35761505 0
-0.14061856 0.15273929 -0.36413068 0
-0.45637867 0.12976432 -0.35322624 0
-0.38153845 0.1820426 -0.35292777 0
-0.2950635 0.22703791 -0.35396108 0
-0.21419218 0.25984001 -0.35599589 0
-0.47438914 0.25327039 -0.34917727 0
-0.44522437 0.30940199 -0.34829435 0
-0.33983219 0.31324816 -0.35170308 0
-0.24353164 0.33902693 -0.35584712 0
-0.18137667 0.37770271 -0.35597354 0
-0.46014565 0.37254786 -0.34683317 0
-0.35763195 0.40062118 -0.34949309 0
-0.26868713 0.43724298 -0.35115126 0
-0.19958791 0.49694872 -0.3557564 0
-0.47792354 0.44407773 -0.34638995 0
-0.37730068 0.49298501 -0.34757259 0
0.38271493 -0.48792744 -0.34090209 0
0.46737945 -0.46691942 -0.33174026 0
0.57495427 -0.43563676 -0.32924473 0
0.64810145 -0.42249298 -0.32897753 0
0.16250812 -0.49133706 -0.35490453 0
0.24807726 -0.42726445 -0.35150516 0
0.32834822 -0.43867159 -0.35730061 0
0.42790452 -0.35518718 -0.34405234 0
0.54034472 -0.33479619 -0.34349525 0
0.63791168 -0.31606364 -0.33528972 0
0.7019695 -0.25997806 -0.33606553 0
-0.16569117 -0.47743464 -0.35981324 0
-0.069922775 -0.46188092 -0.35845977 0
0.020629138 -0.42176294 -0.3593232 0
0.12556644 -0.39870882 -0.35980773 0
0.23370521 -0.34966516 -0.3591907 0
0.31494531 -0.30492353 -0.35447228 0
0.42435813 -0.26014423 -0.34865466 0
0.4968611 -0.23177075 -0.35219237 0
0.63279784 -0.20146036 -0.34334755 0
0.70049512 -0.16188622 -0.33296505 0
-0.3176977 -0.46975088 -0.35326776 0
-0.21101645 -0.39173198 -0.357445 0
-0.10215095 -0.36469841 -0.35787454 0
-0.014597863 -0.32246017 -0.35861462 0
0.098788768 -0.2865634 -0.35950571 0
0.18904676 -0.27551913 -0.3601034 0
0.26560938 -0.22408462 -0.35558215 0
0.37129679 -0.20216417 -0.35116297 0
0.47034535 -0.14557147 -0.35726687 0
0.55025387 -0.13127685 -0.34932756 0
0.67288208 -0.096562147 -0.33358377 0
-0.26577404 -0.3468442 -0.35746095 0
-0.2245129 -0.27117491 -0.35261011 0
-0.12760916 -0.24934316 -0.35575601 0
-0.032541931 -0.23599386 -0.35801256 0
0.049327493 -0.19947171 -0.359909 0
0.1678727 -0.16566467 -0.35872874 0
0.27981946 -0.15086961 -0.3573142 0
0.35911918 -0.09114933 -0.35431039 0
0.48028195 -0.074967146 -0.35833347 0
0.52854669 -0.0053119659 -0.35103151 0
0.62160349 -0.033930779 -0.33725488 0
0.69729054 0.034226656 -0.32935786 0
0.83386791 0.022200584 -0.33181664 0
-0.32271788 -0.18472481 -0.35042587 0
-0.25415605 -0.19984531 -0.35476011 0
-0.16015956 -0.16956758 -0.35761601 0
-0.061732739 -0.14224458 -0.36092213 0
0.028875172 -0.088363171 -0.36152759 0
0.12008089 -0.067453146 -0.35903198 0
0.19492924 -0.038059473 -0.35559288 0
0.29572606 -0.021409512 -0.35901201 0
0.37965831 0.008450985 -0.35804629 0
0.47780472 0.073167086 -0.35573944 0
0.58708447 0.075729132 -0.34179103 0
0.71938658 0.1373167 -0.33330354 0
0.78049254 0.16026735 -0.33149973 0
-0.27441967 -0.11265373 -0.35190666 0
-0.19931254 -0.078456163 -0.35512894 0
-0.08381319 -0.032003641 -0.36226872 0
-0.014171988 -0.015030861 -0.36209404 0
0.072704554 0.028793812 -0.35964006 0
0.20500827 0.06584692 -0.35692066 0
0.27766523 0.092380047 -0.36079508 0
0.39112371 0.1225729 -0.36010087 0
0.48183072 0.18771601 -0.35638833 0
0.57704669 0.17838359 -0.33773938 0
0.66148353 0.22718287 -0.34459305 0
0.7577011 0.27104378 -0.34079725 0
0.87537867 0.26521158 -0.33652446 0
0.89689219 0.35828829 -0.34048513 0
-0.31839585 -0.030077696 -0.34800175 0
-0.13556147 0.054718494 -0.35902518 0
-0.035054058 0.10631084 -0.36000425 0
0.049189121 0.11826849 -0.36024815 0
0.12539107 0.13010025 -0.35826766 0
0.20418434 0.20295477 -0.35612923 0
0.32885498 0.21482158 -0.3607302 0
0.39422601 0.26789165 -0.36077622 0
0.50901306 0.29024005 -0.35624003 0
0.58498061 0.32595205 -0.35436767 0
0.70137823 0.30631852 -0.35488051 0
0.78147817 0.35195446 -0.34602726 0
0.90730071 0.43991733 -0.34334365 0
-0.16931316 0.15586948 -0.3551254 0
-0.091744989 0.19060707 -0.35891172 0
0.026212037 0.21557283 -0.35877877 0
0.12429759 0.23429847 -0.35854754 0
0.20766158 0.28174305 -0.3582567 0
0.29260141 0.30704951 -0.35684046 0
0.39493209 0.35298872 -0.36186826 0
0.5881654 0.43998384 -0.35663986 0
0.68521154 0.43594384 -0.35073334 0
0.78644824 0.46458197 -0.34777537 0
-0.16578513 0.26621032 -0.35763103 0
-0.089676827 0.29054666 -0.35354614 0
-0.013527781 0.30949044 -0.3550151 0
0.10966361 0.35787082 -0.356076 0
0.20853868 0.39000821 -0.35999078 0
0.31553996 0.39657617 -0.36490965 0
0.37195531 0.45803475 -0.3656919 0
0.48827034 0.45555544 -0.36005691 0
-0.18662873 0.35572433 -0.35297656 0
-0.11675093 0.36854219 -0.35456225 0
-0.034394503 0.39432812 -0.35395035 0
0.01938805 0.44299054 -0.3564752 0
0.11776403 0.4479177 -0.36084998 0
0.21258113 0.47589374 -0.36304808 0
-0.16626549 0.47211123 -0.35100153 0
0.99169207 -0.47669864 -0.25398725 0
0.68509746 -0.48823071 -0.30999964 0
0.80897707 -0.47781968 -0.29191357 0
0.88958049 -0.43686104 -0.27852696 0
0.71405619 -0.43796849 -0.31476128 0
0.75470424 -0.38928819 -0.30181062 0
0.86144781 -0.34997201 -0.28374654 0
0.9803592 -0.32759237 -0.26765686 0
0.73100752 -0.27911305 -0.31268591 0
0.83493125 -0.26003909 -0.30486009 0
0.91258943 -0.21523881 -0.29988545 0
0.78235948 -0.13787794 -0.32042173 0
0.86966455 -0.12010741 -0.30833712 0
0.95652115 -0.094315767 -0.29499015 0
0.79301137 -0.059101343 -0.3222484 0
0.87878668 -0.055042267 -0.31006998 0
0.96742988 -0.022582531 -0.29622987 0
0.79146981 0.018282413 -0.32104123 0
0.91259551 0.080875635 -0.31502223 0
0.97284627 0.22887039 -0.31460321 0
0.82276762 0.22728682 -0.32341707 0
0.97410697 0.29408789 -0.32649913 0
-0.2457293 -0.49932957 -0.36139598 0
-0.14248526 -0.486691 -0.36320865 0
-0.063915938 -0.44726181 -0.36416107 0
-0.34666973 -0.43690395 -0.35729253 0
-0.28146666 -0.39926338 -0.35844275 0
-0.18218845 -0.37984753 -0.35800043 0
-0.1146661 -0.31742072 -0.3615067 0
-0.30262625 -0.31563234 -0.3569898 0
-0.22199383 -0.27814484 -0.3561812 0
-0.1239078 -0.23884535 -0.36147207 0
-0.060393602 -0.21892333 -0.36342055 0
0.034013897 -0.17158151 -0.37038633 0
-0.31037012 -0.21934509 -0.35426277 0
-0.25425082 -0.17964864 -0.35676447 0
-0.15860447 -0.15692258 -0.3611643 0
-0.074299216 -0.10783863 -0.36496231 0
-0.2952199 -0.0893507 -0.35538077 0
-0.19492367 -0.065124989 -0.36078271 0
-0.1242989 -0.0030019283 -0.36257941 0
-0.28973052 0.0018980503 -0.35575533 0
-0.24231493 0.049977064 -0.35909513 0
-0.13792387 0.06596303 -0.36275807 0
-0.033367544 0.080593348 -0.3682878 0
-0.24734518 0.12262321 -0.3605383 0
-0.16164818 0.15571833 -0.362914 0
-0.094033688 0.13609552 -0.36691278 0
-0.27784747 0.2222743 -0.35503104 0
-0.21676108 0.24137425 -0.35818082 0
-0.31028265 0.32785153 -0.35356101 0
-0.25445241 0.35000253 -0.35564315 0
-0.32813957 0.420187 -0.35244346 0
-0.26728463 0.41010213 -0.3543632 0
0.39428449 -0.48712182 -0.34204888 0
0.47930494 -0.47433257 -0.33921295 0
0.56311083 -0.43351769 -0.33254841 0
0.6584177 -0.40006757 -0.3256079 0
0.70739901 -0.33617663 -0.32576212 0
0.16272131 -0.45282674 -0.35377023 0
0.25422651 -0.43417311 -0.34886235 0
0.35584658 -0.43297434 -0.35231626 0
0.43890983 -0.36558604 -0.34941751 0
0.54475713 -0.31831336 -0.34662968 0
0.65530276 -0.30683279 -0.339091 0
0.70975786 -0.26791382 -0.32446739 0
-0.066322356 -0.43458581 -0.3541497 0
0.041212618 -0.39725423 -0.36151105 0
0.13885942 -0.37789655 -0.36171314 0
0.22696549 -0.3462646 -0.36094329 0
0.31744343 -0.2967236 -0.35883278 0
0.42556584 -0.25207448 -0.35417059 0
0.51890445 -0.24954844 -0.3563894 0
0.60652864 -0.20543623 -0.34219414 0
0.71423256 -0.17408538 -0.33089292 0
0.78527975 -0.13641572 -0.32473677 0
-0.075519115 -0.34489369 -0.35524595 0
-0.001593411 -0.31411648 -0.35891855 0
0.093062997 -0.25676012 -0.35914853 0
0.19385605 -0.25301647 -0.36058944 0
0.25070441 -0.17310643 -0.35193416 0
0.3707242 -0.18589139 -0.35381854 0
0.47780669 -0.14921546 -0.35514802 0
0.55657744 -0.10918832 -0.34630442 0
0.65709603 -0.075355291 -0.33671167 0
0.73289907 -0.019425869 -0.3288781 0
-0.10966426 -0.28733444 -0.35277563 0
-0.012193292 -0.19965982 -0.35871369 0
0.067677289 -0.1788466 -0.3615877 0
0.15958881 -0.16316533 -0.36014324 0
0.25775823 -0.12495875 -0.35882655 0
0.34816179 -0.077124357 -0.3590892 0
0.44463491 -0.050292253 -0.35693806 0
0.55055666 -0.039901495 -0.34929919 0
0.63034379 0.028994322 -0.33926457 0
0.73431754 0.039432049 -0.33006862 0
0.81908768 0.068952322 -0.32534769 0
-0.063964874 -0.10614204 -0.36030751 0
0.033498138 -0.068361759 -0.36133403 0
0.12179986 -0.037427187 -0.36017716 0
0.1892823 -0.020330667 -0.36055636 0
0.28416601 0.014928341 -0.35959968 0
0.40846053 0.04892087 -0.35434771 0
0.49350321 0.082274199 -0.35350418 0
0.6072517 0.10030365 -0.34303799 0
0.70795739 0.14650369 -0.33717042 0
0.75292826 0.18156958 -0.3342531 0
0.83538443 0.23611808 -0.32819292 0
-0.13571927 -0.088818312 -0.35506874 0
-0.081389487 -0.036535263 -0.35957122 0
0.009375006 0.017552614 -0.3663094 0
0.075115263 0.042931318 -0.36137277 0
0.17381537 0.086865187 -0.35738397 0
0.29564315 0.082486629 -0.36333215 0
0.36216214 0.14534616 -0.35831594 0
0.47158381 0.17926145 -0.35414305 0
0.56352806 0.21718669 -0.34756875 0
0.65447009 0.23805237 -0.33658525 0
0.7776897 0.28348851 -0.34112263 0
0.85792834 0.30613446 -0.33441493 0
-0.11100146 0.11306024 -0.36114186 0
-0.035203069 0.094172955 -0.36107534 0
0.052763671 0.14635324 -0.36341438 0
0.15995319 0.16359496 -0.3606748 0
0.25703758 0.19518161 -0.36299461 0
0.37697423 0.24227285 -0.36481225 0
0.45556217 0.26749253 -0.36331534 0
0.51607609 0.3191824 -0.35719669 0
0.61781693 0.3028698 -0.35748786 0
0.70366585 0.33825231 -0.35229933 0
0.79095536 0.39178586 -0.34572816 0
0.89005989 0.4161706 -0.345038 0
-0.11422279 0.14547253 -0.36040831 0
-0.078838199 0.1994431 -0.3612082 0
0.04290539 0.2375555 -0.3607437 0
0.11076573 0.26508236 -0.36195597 0
0.21495862 0.29006529 -0.35890019 0
0.27335337 0.31501174 -0.36069933 0
0.40460384 0.360497 -0.36307266 0
0.51397544 0.38285327 -0.35854566 0
0.60140622 0.43407917 -0.35616001 0
0.68705916 0.476403 -0.35071984 0
-0.19744775 0.27211094 -0.35351294 0
-0.1134367 0.30205321 -0.35738936 0
-0.011276156 0.31520486 -0.35387599 0
0.10170588 0.3536675 -0.36038208 0
0.17983088 0.39302158 -0.35979259 0
0.2777335 0.41057682 -0.36549443 0
0.34845889 0.44430757 -0.36122382 0
0.46854958 0.4857316 -0.35821527 0
-0.23101842 0.36195993 -0.35273272 0
-0.12381768 0.39159727 -0.35393035 0
-0.042191833 0.41855145 -0.35376084 0
0.052178413 0.43224835 -0.35854095 0
0.15675843 0.48059249 -0.36352384 0
-0.24830067 0.45429659 -0.3504191 0
-0.15889907 0.48208594 -0.35201821 0
0.94140702 -0.4964354 -0.2545681 0
0.98641205 -0.45333695 -0.24980678 0
0.7215991 -0.48795772 -0.30792397 0
0.80490977 -0.45241809 -0.28681958 0
0.89765549 -0.4152205 -0.26701564 0
0.72788441 -0.40583777 -0.30716327 0
0.76058674 -0.34686327 -0.30377489 0
0.85105383 -0.34030509 -0.28499919 0
0.95115626 -0.27226019 -0.27571547 0
0.76811999 -0.26475143 -0.3137311 0
0.82313609 -0.24286222 -0.30642074 0
0.92431009 -0.19347167 -0.29647344 0
0.89079678 -0.11601114 -0.31093925 0
0.79607368 -0.046373844 -0.31853315 0
0.87889254 0.0039665699 -0.30771086 0
0.96148676 -0.027928114 -0.29569739 0
0.779405 0.041339874 -0.31403634 0
0.91403079 0.082539558 -0.31645206 0
0.81461918 0.20180774 -0.32246834 0
0.91610694 0.19981909 -0.31530845 0
0.99326974 0.23709464 -0.3141641 0
0.94933307 0.3346355 -0.32557029 0
0.29277733 -0.49626637 -0.34276497 0
0.15528086 -0.46301627 -0.35137212 0
0.26125684 -0.42046642 -0.35122067 0
0.35060504 -0.4300859 -0.34422195 0
0.43915328 -0.36824298 -0.3543728 0
-0.082843274 -0.49498773 -0.36248893 0
-0.043607116 -0.43545651 -0.36020812 0
0.054232597 -0.41231179 -0.35725808 0
0.15927039 -0.37504983 -0.35212141 0
0.27693215 -0.34911919 -0.35524017 0
0.33556563 -0.32370448 -0.35136181 0
0.40418506 -0.27958989 -0.35207355 0
0.49010426 -0.2342248 -0.3535884 0
-0.064260453 -0.32961893 -0.35662812 0
0.020280361 -0.31185961 -0.35927993 0
0.11160737 -0.28478312 -0.35744786 0
0.1975508 -0.2529645 -0.35615677 0
0.30245724 -0.21273422 -0.35350585 0
0.40987432 -0.19556904 -0.35599697 0
0.49314615 -0.15073156 -0.35892227 0
-0.057355762 -0.27258611 -0.35579479 0
-0.017508775 -0.21601582 -0.36039349 0
0.078667343 -0.18821263 -0.35971797 0
0.18008372 -0.15812397 -0.3584446 0
0.27341527 -0.12650728 -0.35809994 0
0.34581199 -0.094399691 -0.35718155 0
0.4373951 -0.028308868 -0.35511935 0
-0.018885911 -0.11621356 -0.35989583 0
0.04935801 -0.10339284 -0.35913816 0
0.12922621 -0.067637205 -0.35740101 0
0.21637781 -0.0037477016 -0.35531044 0
0.32721111 0.014419079 -0.35776308 0
0.44182983 0.076850414 -0.355654 0
0.51113933 0.049485207 -0.35533106 0
0.017066002 -0.010131836 -0.36056834 0
0.11157289 0.021251678 -0.35729724 0
0.19525206 0.075960398 -0.35909581 0
0.29849905 0.10980296 -0.35752457 0
0.38255024 0.12393355 -0.35630465 0
0.47260159 0.18799949 -0.35490638 0
0.0021114647 0.087927818 -0.36228973 0
0.073968351 0.12345386 -0.36001086 0
0.17079091 0.1739819 -0.35930759 0
0.27439818 0.18182659 -0.35944846 0
0.38042694 0.24035406 -0.36160135 0
0.44080704 0.24957442 -0.35677773 0
0.52327836 0.23146486 -0.36005646 0
-0.015709817 0.19938993 -0.35692856 0
0.024096102 0.22746682 -0.35747278 0
0.12260708 0.25728106 -0.35675311 0
0.23231745 0.29373002 -0.35734951 0
0.31674442 0.32009339 -0.35844696 0
0.42664212 0.35434842 -0.36106229 0
0.51423764 0.36033154 -0.36056709 0
0.0049602985 0.30996203 -0.35501689 0
0.10897011 0.34915924 -0.35632458 0
0.19961822 0.39965749 -0.36160606 0
0.30067945 0.40716624 -0.36441454 0
0.3795377 0.44108891 -0.36100096 0
0.45809919 0.49243402 -0.36327285 0
-0.020304322 0.39986444 -0.35495859 0
0.076998055 0.45386672 -0.35670537 0
0.1722776 0.47665906 -0.36121053 0
0.7176249 -0.49844623 -0.30488291 0
0.83000052 -0.45702505 -0.27774116 0
0.88171208 -0.41136885 -0.27945238 0
0.38378632 -0.4878087 -0.33083898 0
0.49300665 -0.47008872 -0.33142158 0
0.58469409 -0.43427563 -0.3246921 0
0.68571872 -0.40491509 -0.31930208 0
0.78066087 -0.39507031 -0.2959342 0
0.87843859 -0.32146335 -0.29216576 0
0.40032703 -0.39101839 -0.33638853 0
0.46672988 -0.38107014 -0.34070814 0
0.56028235 -0.34446597 -0.33900523 0
0.64659101 -0.29982853 -0.33272415 0
0.73562169 -0.2763958 -0.31539887 0
0.80995226 -0.2510643 -0.31212643 0
0.94640106 -0.21337771 -0.28811908 0
0.45254248 -0.27147841 -0.34515566 0
0.55623245 -0.25701833 -0.34725001 0
0.60655665 -0.19248176 -0.34226906 0
0.72614884 -0.18470168 -0.3244724 0
0.82490969 -0.15615559 -0.31351471 0
0.88303947 -0.097727299 -0.30610836 0
0.57431483 -0.1092205 -0.34249526 0
0.67616487 -0.097295761 -0.33622938 0
0.75118899 -0.06572175 -0.32175022 0
0.86394215 -0.012512445 -0.30807716 0
0.96120793 0.030549288 -0.29681951 0
0.47443229 -0.018286228 -0.3447544 0
0.54441386 -0.021645308 -0.34795582 0
0.67218471 -0.00090360641 -0.33280295 0
0.7307961 0.060991764 -0.32179603 0
0.86018467 0.057536125 -0.32159376 0
0.94213653 0.099082708 -0.31196415 0
0.53330803 0.061727524 -0.3444382 0
0.62603581 0.10597181 -0.33682424 0
0.70335174 0.15011907 -0.33233756 0
0.79247856 0.16509056 -0.33210701 0
0.8814342 0.19508362 -0.32587847 0
0.97985721 0.22531056 -0.31410086 0
0.48740739 0.16379166 -0.34849262 0
0.56201893 0.18002915 -0.34459069 0
0.67883658 0.22052956 -0.34306881 0
0.76470137 0.27337289 -0.341187 0
0.86620408 0.28205204 -0.3370856 0
0.95343745 0.32958198 -0.33113754 0
0.55888724 0.28793621 -0.35329631 0
0.64392626 0.32358694 -0.35210687 0
0.74830234 0.37275028 -0.3464092 0
0.83601868 0.37935996 -0.34519619 0
0.93811095 0.3838284 -0.34343898 0
0.4956075 0.39044213 -0.3546741 0
0.59727311 0.42182684 -0.35232949 0
0.6888231 0.44820881 -0.35023972 0
0.80845547 0.47601247 -0.3486883 0
0.48827362 0.48961091 -0.35627049 0
0.93992329 -0.4147656 -0.2675831 0
0.97569108 -0.30867076 -0.26405177 0
0.62795746 -0.49964595 -0.32553566 0
0.44877464 -0.48625898 -0.3378495 0
0.5310781 -0.47325754 -0.33121634 0
0.63165224 -0.43774295 -0.330051 0
0.68455017 -0.37067914 -0.33031052 0
0.20887583 -0.46957421 -0.35368025 0
0.33268631 -0.44190884 -0.35252556 0
0.38748884 -0.38749313 -0.3506043 0
0.49977487 -0.37658906 -0.35080105 0
0.60478002 -0.34141779 -0.34035423 0
0.68657589 -0.29386067 -0.33353445 0
0.73209614 -0.25778461 -0.33607942 0
0.20046446 -0.37905693 -0.35674173 0
0.26835161 -0.33483434 -0.36092168 0
0.36295009 -0.30412316 -0.35843414 0
0.47401404 -0.25193739 -0.35548532 0
0.5663569 -0.24761558 -0.35231224 0
0.65957445 -0.20638013 -0.34154427 0
0.73386264 -0.16282225 -0.33272988 0
0.19088462 -0.29830313 -0.35725904 0
0.25071216 -0.25041389 -0.36332208 0
0.33505535 -0.20208144 -0.35909852 0
0.43144152 -0.18829298 -0.35867992 0
0.52944839 -0.14911461 -0.35725418 0
0.61290956 -0.11401248 -0.34505934 0
0.71177006 -0.06754899 -0.33400226 0
0.24680401 -0.15550971 -0.36146197 0
0.31070113 -0.11176157 -0.36433548 0
0.39897907 -0.081730127 -0.35981321 0
0.49057111 -0.027374983 -0.35566512 0
0.59528267 -0.0044653416 -0.34452087 0
0.67405123 0.029812098 -0.33185771 0
0.75366759 0.087266445 -0.33104086 0
0.27938437 -0.0090558529 -0.36434811 0
0.36952946 0.0080866814 -0.36314654 0
0.46853638 0.051039934 -0.35712412 0
0.56894922 0.094118118 -0.346071 0
0.65281355 0.10140991 -0.33960867 0
0.75051606 0.15216088 -0.33970252 0
0.83512247 0.19723868 -0.33800477 0
0.90230238 0.20178246 -0.34307349 0
0.32709935 0.089632511 -0.36594856 0
0.44230083 0.13104057 -0.36225122 0
0.5172531 0.15987897 -0.35277814 0
0.61593044 0.18694854 -0.35059953 0
0.70887434 0.25763273 -0.34956697 0
0.81915587 0.28122377 -0.34653226 0
0.88083601 0.33068109 -0.33557886 0
0.31040999 0.19736028 -0.363011 0
0.3829672 0.24447608 -0.361588 0
0.50062239 0.24382281 -0.36307338 0
0.59365189 0.29585195 -0.35936967 0
0.69160277 0.32663393 -0.35690212 0
0.74990618 0.37411618 -0.34935036 0
0.86773819 0.37065482 -0.35124236 0
0.96398413 0.42474604 -0.34107772 0
0.3020134 0.30724573 -0.36735654 0
0.38458914 0.31879234 -0.3659479 0
0.45351958 0.37927032 -0.36421633 0
0.54403341 0.3750968 -0.36114997 0
0.64224684 0.42420793 -0.35810107 0
0.7424069 0.47100377 -0.35760576 0
0.82922316 0.49671412 -0.35072398 0
0.32657135 0.42018652 -0.36898065 0
0.43961501 0.46360946 -0.3654744 0
0.52196729 0.47395802 -0.36176795 0
0.761527 -0.49331594 -0.3000792 0
0.8610608 -0.4277606 -0.27398282 0
0.95993721 -0.43094754 -0.2624315 0
0.72208893 -0.3970263 -0.31119385 0
0.81243056 -0.38256645 -0.28961992 0
0.90850335 -0.33446431 -0.28527278 0
0.98143423 -0.28831339 -0.28009975 0
0.73190856 -0.31831551 -0.31517184 0
0.78444612 -0.27351046 -0.31328583 0
0.87874842 -0.23291731 -0.30688152 0
0.99694645 -0.19594336 -0.29083443 0
0.78892004 -0.15618944 -0.32145786 0
0.84773648 -0.10854316 -0.31568396 0
0.93841994 -0.14801216 -0.30783954 0
0.80137479 -0.050558329 -0.3214004 0
0.91193718 -0.022670507 -0.31040561 0
0.72263026 0.026235819 -0.32415089 0
0.78743112 0.060839176 -0.32338575 0
0.91314161 0.047146082 -0.32178646 0
0.96916628 0.1138494 -0.31718385 0
0.83515048 0.15972853 -0.32519427 0
0.94008017 0.19744301 -0.32586735 0
0.94180101 0.29701829 -0.3254467 0
0.9663468 0.38044262 -0.33193919 0
0.65164828 -0.48678708 -0.32997882 0
0.45365953 -0.48911786 -0.33138582 0
0.54644561 -0.43406487 -0.33196265 0
0.64421594 -0.41401196 -0.330181 0
0.24394855 -0.49706531 -0.3429144 0
0.31766242 -0.4403367 -0.34672004 0
0.41235965 -0.37598872 -0.34650177 0
0.49792525 -0.34323931 -0.34406573 0
0.60240555 -0.31371021 -0.3407132 0
0.6773988 -0.3022027 -0.3288686 0
0.79993981 -0.21321344 -0.32745668 0
0.32404566 -0.35437059 -0.35076299 0
0.36691862 -0.2836163 -0.35196263 0
0.47090375 -0.25529838 -0.35165125 0
0.55957556 -0.22211695 -0.3478334 0
0.65979373 -0.19476247 -0.33894628 0
0.73469806 -0.16432858 -0.32995981 0
0.39151347 -0.2119596 -0.35522321 0
0.45310709 -0.16858459 -0.35174122 0
0.53041804 -0.11873937 -0.34818822 0
0.63715672 -0.096158504 -0.33683923 0
0.72383624 -0.064492226 -0.32762092 0
0.41327345 -0.090687513 -0.35416552 0
0.50697035 -0.043316126 -0.35050303 0
0.60429466 -0.0091362 -0.33887827 0
0.67183471 0.012050867 -0.33310825 0
0.74354136 0.05169034 -0.32330954 0
0.85415471 0.12937522 -0.3293308 0
0.43452239 0.0022428036 -0.35540363 0
0.48403081 0.050379992 -0.35205293 0
0.55088794 0.087712526 -0.34467965 0
0.66226149 0.11519551 -0.33304927 0
0.76098716 0.1446631 -0.33268243 0
0.82539785 0.19351292 -0.33125037 0
0.94242179 0.2452538 -0.3305108 0
0.45083901 0.14894891 -0.35509899 0
0.53835428 0.17758918 -0.34735125 0
0.62436235 0.21108437 -0.34448668 0
0.72284311 0.2431066 -0.34362683 0
0.81569767 0.2960062 -0.33273661 0
0.91341424 0.3216908 -0.33590695 0
0.95785272 0.33797383 -0.33434856 0
0.45735121 0.23386312 -0.35554481 0
0.49351832 0.28945994 -0.35622686 0
0.60487509 0.30310106 -0.35273689 0
0.67546582 0.34374285 -0.34907302 0
0.77984929 0.35810304 -0.34493649 0
0.87086141 0.41304421 -0.3425999 0
0.95131314 0.44701552 -0.33790466 0
0.49185818 0.35164022 -0.35907179 0
0.5610894 0.40498137 -0.35577559 0
0.66133565 0.42273927 -0.35076982 0
0.74224234 0.47084451 -0.34843424 0
0.46404356 0.46739531 -0.35883397 0
0.75603187 -0.48187089 -0.29837966 0
0.85803139 -0.43157744 -0.28021616 0
0.9406417 -0.42165184 -0.26288533 0
0.68382466 -0.42770958 -0.31404486 0
0.75146079 -0.38370061 -0.30317748 0
0.80728281 -0.3575623 -0.28853196 0
0.92186159 -0.33354044 -0.27870864 0
0.70381868 -0.31206799 -0.31115332 0
0.79875147 -0.26120257 -0.30987105 0
0.89394569 -0.22377324 -0.30249348 0
0.97458053 -0.19643426 -0.28857213 0
0.78110087 -0.13541317 -0.31949103 0
0.84609067 -0.1266129 -0.30996722 0
0.95285165 -0.11649776 -0.30176973 0
0.7762084 -0.086166382 -0.316149 0
0.81412256 -0.039873123 -0.31587076 0
0.91495085 0.00054502487 -0.30429748 0
0.7330364 0.030498505 -0.32132113 0
0.81547427 0.053707123 -0.31448433 0
0.87814748 0.1086638 -0.31475812 0
0.97815764 0.13726068 -0.30806938 0
0.64925444 0.13441896 -0.31685624 0
0.74355543 0.1036737 -0.32194185 0
0.9033165 0.1559639 -0.32143867 0
0.95415711 0.22431278 -0.31684583 0
0.84751552 0.25905538 -0.32505465 0
0.4536908 -0.48612165 -0.33819252 0
0.55114508 -0.4466815 -0.33621883 0
0.62167633 -0.40280104 -0.33373353 0
0.36814785 -0.44010758 -0.34115928 0
0.42643178 -0.38774824 -0.34609184 0
0.51111078 -0.34224057 -0.34853238 0
0.61410332 -0.32012105 -0.34284931 0
0.68555313 -0.28642058 -0.3382287 0
0.50306416 -0.28662443 -0.35837606 0
0.5795635 -0.23011446 -0.35192579 0
0.66529 -0.17230797 -0.3387717 0
0.73216057 -0.12054396 -0.33423445 0
0.5012182 -0.18040204 -0.35118842 0
0.55333388 -0.13948298 -0.35376632 0
0.6451993 -0.092889071 -0.34437734 0
0.69517815 -0.070523977 -0.3384409 0
0.5450294 -0.046646833 -0.34603322 0
0.60005713 0.0003247261 -0.34677187 0
0.69286859 0.031624079 -0.33536762 0
0.84904242 0.067597389 -0.33508444 0
0.58470047 0.11126041 -0.34728128 0
0.66934079 0.12446427 -0.3398959 0
0.76283407 0.1671958 -0.33811373 0
0.87589335 0.21396017 -0.33873022 0
0.64283586 0.22161841 -0.35303235 0
0.71300876 0.265908 -0.34909141 0
0.81205827 0.27155995 -0.34453362 0
0.89725071 0.31294918 -0.34322262 0
0.96260476 0.3764863 -0.33977282 0
0.6204623 0.32002044 -0.35851508 0
0.69433063 0.36219978 -0.35384378 0
0.78863239 0.37168193 -0.35159439 0
0.8738786 0.44337511 -0.34669271 0
0.97078228 0.43989706 -0.34203351 0
0.61775112 0.38999557 -0.35728997 0
0.65011781 0.44509459 -0.35771695 0
0.75796986 0.47489452 -0.35557503 0
0.68612778 -0.49559999 -0.3173511 0
0.76719499 -0.47573209 -0.30340916 0
0.86122531 -0.43015838 -0.28449631 0
0.95070714 -0.40208507 -0.26694351 0
0.57082987 -0.47463608 -0.32525223 0
0.65510136 -0.42635798 -0.3208881 0
0.72910297 -0.37244725 -0.3130452 0
0.81861317 -0.34570646 -0.29863945 0
0.93072122 -0.31061029 -0.28267109 0
0.73449969 -0.30791306 -0.32322824 0
0.79840827 -0.26717925 -0.31165677 0
0.88276994 -0.20916939 -0.30746496 0
0.99299538 -0.1834445 -0.2869899 0
0.77517408 -0.15978193 -0.32515815 0
0.85523868 -0.10906506 -0.3155961 0
0.96011382 -0.10877252 -0.30496636 0
0.72330791 -0.053803444 -0.32874292 0
0.8305397 -0.034723282 -0.31848162 0
0.91492093 -0.0014395714 -0.31211495 0
0.77131927 0.065255642 -0.32327184 0
0.88343287 0.11700249 -0.31787658 0
0.97230685 0.14118099 -0.32118988 0
0.83063042 0.18432713 -0.32718754 0
0.94780719 0.22242761 -0.32679546 0
0.93209153 0.32926393 -0.33147794 0
0.52583814 -0.48286295 -0.32947457 0
0.60168874 -0.43374443 -0.32794845 0
0.60912061 -0.3573525 -0.33255053 0
0.65262407 -0.31258821 -0.33086616 0
0.7753197 -0.23786736 -0.3287884 0
0.66333973 -0.21970558 -0.33221659 0
0.71522164 -0.18583298 -0.33372146 0
0.7127434 -0.087848186 -0.32928008 0
0.75940359 -0.068352938 -0.32708248 0
0.72995657 0.04991293 -0.32825425 0
0.84657031 0.097257376 -0.33068857 0
0.74297994 0.12743878 -0.32790047 0
0.80453396 0.17757249 -0.33106643 0
0.90276432 0.18735933 -0.3285872 0
0.79693282 0.24194336 -0.33286011 0
0.87602496 0.30776858 -0.33700037 0
0.95807135 0.34343505 -0.33251807 0
0.85247791 0.38442683 -0.34804642 0
0.92498314 0.43259788 -0.34483719 0
0.84889883 0.48642302 -0.35019118 0
0.72413003 -0.47371602 -0.30634546 0
0.82156873 -0.44069338 -0.28987831 0
0.9062916 -0.42115474 -0.27364844 0
0.6982041 -0.39865184 -0.31639296 0
0.78325361 -0.34650159 -0.30293038 0
0.87435156 -0.32946157 -0.2885986 0
0.96947801 -0.29186773 -0.28001612 0
0.70766044 -0.31393719 -0.31613606 0
0.76022863 -0.26998663 -0.31798732 0
0.8535322 -0.23702884 -0.30308688 0
0.94927061 -0.19282484 -0.29318994 0
0.75035936 -0.14328647 -0.31775722 0
0.82543159 -0.14093161 -0.3171539 0
0.91449893 -0.11510396 -0.30446267 0
0.78475732 -0.036182404 -0.31874022 0
0.87524474 -0.017707109 -0.3088696 0
0.98988414 0.01743412 -0.29943925 0
0.76766592 0.051615477 -0.32126015 0
0.85604477 0.068236351 -0.31295711 0
0.94178975 0.11140943 -0.31827149 0
0.83833015 0.13619685 -0.31938511 0
0.944031 0.22384953 -0.31894654 0
0.86998713 0.28682828 -0.32295185 0
