# .PCD v0.7 - Point Cloud Data file format
VERSION 0.7
FIELDS x y z intensity
SIZE 4 4 4 4
TYPE F F F F
COUNT 1 1 1 1
WIDTH 1288
HEIGHT 1
VIEWPOINT 0 0 0 1 0 0 0
POINTS 1288
DATA ascii
0.5039978 -0.18302155 -0.3576138 0
0.59817314 -0.1221962 -0.36346626 0
0.78687477 -0.054184914 -0.35530496 0
0.88280869 0.013553619 -0.36041689 0
0.27454185 -0.17678165 -0.36048341 0
0.35722351 -0.11809921 -0.36689043 0
0.52278137 -0.064434052 -0.36247063 0
0.58865738 0.037875175 -0.36257315 0
0.67717361 -0.0075263977 -0.36040235 0
0.77951241 0.069104195 -0.36139417 0
0.95575142 0.13827038 -0.36111522 0
0.47383118 -0.0067777634 -0.35744882 0
0.69386292 0.12082386 -0.36139464 0
0.77682686 0.22869587 -0.36492848 0
0.87011528 0.18179417 -0.36301684 0
0.93595123 0.29868793 -0.36851883 0
0.19745445 -0.10231781 -0.35853624 0
0.27206039 -0.037139893 -0.36341715 0
0.39644241 0.040060043 -0.35847783 0
0.51040268 0.092125893 -0.36180925 0
0.64132118 0.1753397 -0.35718751 0
0.084749222 -0.040837288 -0.36376381 0
0.22273254 0.039433479 -0.35513067 0
0.32621384 0.087014198 -0.35822773 0
0.43153954 0.1300745 -0.36326504 0
0.54170036 0.21108913 -0.36243916 0
0.66560936 0.28050518 -0.36779618 0
0.83629608 0.35090637 -0.36758161 0
-0.042509079 0.065742493 -0.36174488 0
0.044973373 0.073378563 -0.36026073 0
0.17607307 0.11869144 -0.36303616 0
0.32677841 0.20187855 -0.36058426 0
0.47933006 0.26460457 -0.35469484 0
0.5899334 0.32714081 -0.36451387 0
0.75701714 0.40693855 -0.36355901 0
0.90869141 0.48455906 -0.36556435 0
-0.056362152 0.1182127 -0.35375595 0
0.035255432 0.16560364 -0.35534692 0
0.11633873 0.20300007 -0.36144304 0
0.23683167 0.27341461 -0.35557389 0
0.27554703 0.33369541 -0.36259937 0
0.38911438 0.35320377 -0.3595047 0
0.4873867 0.36124229 -0.36527133 0
0.55410194 0.47649956 -0.36261249 0
0.66213799 0.44676495 -0.36158705 0
0.029842377 0.23418331 -0.3660233 0
-0.00012588501 0.20700169 -0.35133624 0
-0.11964607 0.19447613 -0.35625458 0
0.00071716309 0.28487492 -0.35819006 0
0.097698212 0.33788013 -0.35802245 0
0.16598892 0.31162071 -0.35559702 0
0.21241951 0.37555504 -0.35983181 0
0.31657219 0.44563389 -0.36018252 0
-0.2475338 0.23400402 -0.36109233 0
-0.1575985 0.28324032 -0.3583231 0
-0.073606491 0.35932159 -0.35852504 0
0.014497757 0.37283039 -0.36001062 0
0.12093544 0.43747425 -0.35503364 0
0.2067318 0.49339676 -0.35997844 0
-0.37053299 0.31273937 -0.36385059 0
-0.26047325 0.35030174 -0.35949492 0
-0.20535851 0.40230942 -0.36007142 0
-0.11583519 0.45652485 -0.35584283 0
-0.016963959 0.49777985 -0.35607219 0
-0.43813133 0.39915562 -0.36219645 0
-0.32553673 0.43515301 -0.36364365 0
-0.41457558 0.45986557 -0.35843658 0
-0.56453133 0.45429325 -0.36697221 0
-0.48318291 0.4935503 -0.36556435 0
-0.27538109 0.33165646 -0.14370346 0
-0.18524933 0.4010067 -0.13117671 0
-0.2497673 0.37864113 -0.14399838 0
0.88885117 -0.44719887 -0.36217785 0
0.66714859 -0.42871571 -0.37229323 0
0.8708477 -0.34873676 -0.37274432 0
0.8710041 -0.21953678 -0.38021135 0
0.29139709 -0.47167873 -0.37577367 0
0.45759392 -0.46935654 -0.37581038 0
0.5732708 -0.33546066 -0.37635589 0
0.77385521 -0.27427387 -0.37014461 0
0.25749016 -0.40590572 -0.37087584 0
0.41532898 -0.36936092 -0.37278128 0
0.49330521 -0.27923203 -0.37615442 0
0.65584373 -0.23337173 -0.37743521 0
0.76074219 -0.16037369 -0.38104939 0
0.98804665 -0.099081039 -0.379493 0
0.13778114 -0.36294556 -0.38115096 0
0.31871223 -0.28609467 -0.3707211 0
0.39230728 -0.23295689 -0.38075137 0
0.55034447 -0.17477226 -0.37884831 0
0.67156982 -0.090586662 -0.37629724 0
0.84071922 -0.036804199 -0.38164902 0
0.051084518 -0.2551775 -0.37403703 0
0.12115288 -0.30500984 -0.37295985 0
0.21141624 -0.20098782 -0.36934352 0
0.29570961 -0.14635277 -0.37583327 0
0.49161339 -0.11715698 -0.37387538 0
0.57718468 -0.037407875 -0.37587357 0
0.74308014 0.017094612 -0.38011646 0
0.95381165 0.1020422 -0.37307811 0
0.37704277 -0.067343712 -0.37790704 0
0.46343231 0.0039358139 -0.38054943 0
0.67058372 0.078267097 -0.37332678 0
0.80753326 0.15107346 -0.37835145 0
0.8871994 0.27527618 -0.37970638 0
0.97353745 0.36802292 -0.38857961 0
-0.042863846 -0.20743847 -0.37878776 0
0.082860947 -0.1102705 -0.36913252 0
0.12558174 -0.16291523 -0.37391996 0
0.20337296 -0.065083504 -0.37094045 0
0.29702377 -0.015883446 -0.37665725 0
0.56567764 0.12897873 -0.37465382 0
0.71342278 0.19680309 -0.37860537 0
-0.13681221 -0.1197176 -0.37798953 0
-0.041957855 -0.14637852 -0.36814046 0
-0.027477264 -0.080069542 -0.37838769 0
0.074203491 -0.025083542 -0.37970901 0
0.28551292 0.069553375 -0.37238431 0
0.38759232 0.060762405 -0.37629366 0
0.42366219 0.15824795 -0.38304424 0
0.6090889 0.24567318 -0.37905955 0
0.781744 0.32426167 -0.37876749 0
-0.20192719 -0.018194199 -0.36965656 0
-0.12077332 -0.029147148 -0.37422562 0
-0.023387909 0.036050797 -0.37904048 0
0.071474075 0.11543941 -0.37495184 0
0.16835022 0.081137657 -0.37065411 0
0.22370911 0.15383816 -0.37364721 0
0.36398315 0.20879269 -0.37610626 0
0.49510765 0.28812695 -0.37687469 0
0.65200615 0.36649704 -0.3808043 0
0.87515831 0.41188145 -0.38384509 0
-0.26114273 0.0070228577 -0.37391639 0
-0.17043304 0.057612419 -0.37241101 0
-0.070627213 0.10593414 -0.37014937 0
0.0064964294 0.16269875 -0.3717382 0
0.079971313 0.20442104 -0.37851119 0
0.25012779 0.28397751 -0.36916709 0
0.37350273 0.32485676 -0.37769771 0
0.55485725 0.4117012 -0.37337518 0
0.62804413 0.49577332 -0.37930512 0
0.750597 0.46487999 -0.38114619 0
0.29652214 0.36266232 -0.37529302 0
0.41971779 0.44501019 -0.3732388 0
-0.35323334 0.06245327 -0.37720847 0
-0.27210236 0.10730839 -0.37733388 0
-0.17437363 0.19344425 -0.36657548 0
-0.1477623 0.1858263 -0.37504029 0
-0.047122955 0.23073006 -0.37425065 0
0.10788345 0.3349762 -0.37167192 0
0.23549271 0.4085741 -0.36849833 0
0.33276749 0.47834778 -0.37172103 0
-0.43799973 0.13564205 -0.37554836 0
-0.3467617 0.20436096 -0.37484074 0
-0.25069809 0.26141739 -0.37273479 0
-0.18977737 0.29583073 -0.37758827 0
-0.073057175 0.35375786 -0.37208748 0
0.029018402 0.37036705 -0.37080526 0
0.10531807 0.43234444 -0.37565255 0
0.20454025 0.4998703 -0.37814593 0
-0.55860901 0.21518612 -0.3770287 0
-0.51768684 0.2539959 -0.38190413 0
-0.41885948 0.27015972 -0.37729692 0
-0.29102325 0.36529446 -0.3746407 0
-0.21287537 0.37148857 -0.37319088 0
-0.14314461 0.4339695 -0.37336206 0
-0.041311264 0.47297382 -0.37922525 0
-0.64752579 0.27104378 -0.3781271 0
-0.52866745 0.33215332 -0.37553287 0
-0.41085243 0.37321091 -0.37871265 0
-0.3421402 0.44869995 -0.37105894 0
-0.27217293 0.48890495 -0.37802696 0
-0.70489311 0.29605865 -0.38085818 0
-0.47566223 0.41937447 -0.37613726 0
-0.75128174 0.35352993 -0.38558173 0
-0.65496826 0.37721634 -0.38059402 0
-0.58799171 0.44215393 -0.38119507 0
-0.46955872 0.49603748 -0.38149905 0
-0.8572998 0.39236164 -0.39694166 0
-0.76348495 0.4563694 -0.39315915 0
-0.71061134 0.48503971 -0.39365697 0
-0.90183449 0.48383904 -0.40799356 0
-0.23533249 0.36821365 -0.15416408 0
-0.31607246 0.35265064 -0.17313886 0
-0.23172379 0.41016674 -0.16015172 0
-0.79911232 -0.49699783 -0.3884356 0
-0.94176483 -0.44804668 -0.39141035 0
-0.82296944 -0.43075752 -0.38924003 0
-0.96572495 -0.36493301 -0.38843799 0
-0.11885643 -0.48034668 -0.3738513 0
0.023073196 -0.45822811 -0.37275386 0
-0.35428619 -0.44826889 -0.37918854 0
-0.2566185 -0.47853088 -0.37788701 0
-0.20783234 -0.41305923 -0.38176274 0
-0.08480835 -0.41254902 -0.37893891 0
-0.64685822 -0.49748039 -0.37519073 0
-0.60121727 -0.47590923 -0.38066125 0
-0.48701286 -0.45393372 -0.37901282 0
-0.4123497 -0.38568401 -0.38345242 0
-0.28639984 -0.38331509 -0.37945771 0
-0.69316292 -0.42449951 -0.38238645 0
-0.61208916 -0.39840794 -0.38293433 0
-0.5337677 -0.35041714 -0.38245678 0
-0.43107414 -0.30946827 -0.37879753 0
-0.84303284 -0.37468243 -0.38724375 0
-0.74625969 -0.35052204 -0.38575172 0
-0.64948463 -0.29299164 -0.38195229 0
-0.55718803 -0.25494099 -0.38391542 0
-0.96336937 -0.31889439 -0.39027524 0
-0.87922287 -0.2954073 -0.38993645 0
-0.79089546 -0.2161684 -0.38582683 0
-0.6913166 -0.22722054 -0.38237286 0
-0.92615318 -0.20204544 -0.38375568 0
-0.83761024 -0.1724472 -0.38667631 0
-0.968647 -0.1000967 -0.38367152 0
0.66632462 -0.44266891 -0.36247182 0
0.79793549 -0.43795109 -0.37359738 0
0.47714996 -0.41945934 -0.37235618 0
0.70049477 -0.36515331 -0.38310385 0
0.1798954 -0.46820545 -0.37457347 0
0.24474525 -0.41088295 -0.37522435 0
0.36515617 -0.35341358 -0.36977935 0
0.44389915 -0.37167072 -0.38766503 0
0.09428215 -0.40217686 -0.37036109 0
0.15332031 -0.361413 -0.3749814 0
0.2307663 -0.29862881 -0.37290215 0
0.38255119 -0.28914738 -0.37363458 0
-0.17546654 -0.35352135 -0.37989545 0
0.020177841 -0.32729149 -0.37389278 0
0.12508774 -0.24223709 -0.37192249 0
-0.30124474 -0.30143452 -0.37314296 0
-0.20677567 -0.27578354 -0.37691045 0
-0.094327927 -0.3009634 -0.37497234 0
0.01064682 -0.21473408 -0.36941886 0
0.14513397 -0.18832397 -0.37650132 0
-0.35174751 -0.25991917 -0.37909293 0
-0.25864792 -0.19236851 -0.3836174 0
-0.15029526 -0.20560932 -0.3801713 0
-0.069303513 -0.12467384 -0.37806201 0
-0.47056961 -0.19092274 -0.37590599 0
-0.39611626 -0.18477058 -0.37680221 0
-0.30016518 -0.13148117 -0.37623954 0
-0.24359703 -0.061603546 -0.37885785 0
-0.136549 -0.070487022 -0.37463737 0
-0.59550667 -0.14926243 -0.37818623 0
-0.53979492 -0.11084461 -0.38232112 0
-0.41633606 -0.073055267 -0.37704206 0
-0.3272934 -0.044912338 -0.37777734 0
-0.60021591 -0.045864105 -0.37708497 0
-0.54854584 -0.0025081635 -0.38017058 0
-0.46483421 0.029332161 -0.3798995 0
-0.38297653 0.016097069 -0.38004875 0
-0.62119675 0.051060677 -0.38111591 0
-0.99819756 0.0085039139 -0.38344836 0
-0.68368721 0.10001278 -0.38619614 0
0.8146019 -0.29501915 -0.38105178 0
0.95235634 -0.22951412 -0.37920046 0
0.57395363 -0.29513454 -0.37927556 0
0.68185234 -0.22877693 -0.37776303 0
0.82035446 -0.15576935 -0.37234044 0
0.45251846 -0.24159622 -0.37929058 0
0.56159401 -0.17133904 -0.37552929 0
0.69838524 -0.091688156 -0.36719489 0
0.28262329 -0.22843361 -0.3700757 0
0.38208771 -0.14345264 -0.37465668 0
0.5140667 -0.047120094 -0.37478495 0
0.046583176 -0.13384151 -0.37433028 0
0.20104599 -0.13981724 -0.38170862 0
0.28113747 -0.07065773 -0.37959695 0
0.37511635 -0.0013885498 -0.37691522 0
0.50501251 0.01776123 -0.38386297 0
0.033136368 -0.020560265 -0.36931491 0
0.13396072 -0.047446251 -0.37725115 0
0.28531456 0.045648575 -0.37316084 0
-0.050380707 0.011042595 -0.37226152 0
0.078086853 0.030295372 -0.37458348 0
0.15381813 0.089417458 -0.37501979 0
-0.23455811 0.023670197 -0.37410855 0
-0.13506889 0.081986427 -0.37621236 0
-0.0061187744 0.076537132 -0.37140465 0
0.04970932 0.13087654 -0.3745079 0
-0.38661766 0.069597244 -0.38353109 0
-0.26325989 0.11028004 -0.3759675 0
-0.20200539 0.17479897 -0.37860537 0
-0.06347847 0.1660223 -0.37746501 0
-0.51275635 0.1205349 -0.37853432 0
-0.41954231 0.153409 -0.37984896 0
-0.30965424 0.24631214 -0.37727284 0
-0.17845726 0.25029373 -0.36991119 0
-0.61853027 0.19257164 -0.37603974 0
-0.54245758 0.19895363 -0.38218427 0
-0.43701744 0.26752377 -0.37833858 0
-0.36961937 0.30330944 -0.37988949 0
-0.73913956 0.23401928 -0.38519764 0
-0.6615696 0.25825214 -0.38357592 0
-0.56004143 0.30418491 -0.3788569 0
-0.44708443 0.35871506 -0.37513351 0
-0.80907631 0.360466 -0.3891809 0
-0.70067787 0.35324287 -0.38556361 0
-0.60624886 0.42497921 -0.37982011 0
-0.52480698 0.41118813 -0.37971163 0
-0.89348984 0.3728857 -0.39489746 0
-0.83784676 0.41915989 -0.38997245 0
-0.73240852 0.4491272 -0.38832331 0
-0.67337799 0.48643017 -0.3931303 0
-0.97301483 0.46150875 -0.41113234 0
-0.88027191 0.49597359 -0.40509558 0
0.99259567 -0.14554024 -0.38076234 0
0.81620789 -0.081258774 -0.38029194 0
0.95551682 -0.011608124 -0.3790772 0
0.71459198 -0.0200634 -0.37269092 0
0.79743576 0.048892021 -0.37630248 0
0.89542007 0.12978649 -0.37734556 0
0.63704681 0.09466362 -0.37849665 0
0.74628258 0.17382622 -0.37958789 0
0.40482712 0.073745728 -0.37769675 0
0.48746872 0.13932991 -0.38051462 0
0.61481476 0.22255898 -0.37853527 0
0.1901474 0.15876484 -0.37506795 0
0.2892437 0.11031055 -0.37908792 0
0.38875961 0.19557095 -0.37228489 0
0.44920349 0.2554121 -0.3799932 0
0.066556931 0.19395351 -0.3777523 0
0.24108696 0.23001289 -0.37674379 0
0.34274483 0.29829311 -0.37641764 0
-0.00067710876 0.26687431 -0.37638807 0
0.15760231 0.27847385 -0.37008095 0
0.22172165 0.33658886 -0.37578702 0
0.28434944 0.40475368 -0.3798182 0
-0.18757248 0.30848026 -0.37482047 0
-0.10916328 0.27686501 -0.37377048 0
-0.065975189 0.33350563 -0.37618876 0
0.028280258 0.4099741 -0.37085199 0
0.14632988 0.40911198 -0.37522388 0
-0.24791145 0.36319923 -0.37837124 0
-0.14150429 0.37028122 -0.37492061 0
-0.084079742 0.44193172 -0.37248731 0
0.016853333 0.48766422 -0.37664175 0
-0.37481689 0.38417339 -0.37730837 0
-0.33208847 0.445261 -0.37667799 0
-0.21615601 0.47652435 -0.37845063 0
-0.52182388 0.48174858 -0.38363528 0
-0.42050934 0.49009609 -0.37841582 0
0.86651039 0.26339436 -0.37818265 0
0.72295952 0.30662727 -0.37874198 0
0.92033577 0.3395834 -0.38546538 0
0.58321953 0.34200096 -0.37709737 0
0.79512978 0.40172291 -0.37658119 0
0.87156105 0.47558975 -0.38758612 0
0.41150856 0.37958241 -0.37647915 0
0.65708351 0.42870426 -0.37629128 0
0.49176598 0.46468925 -0.37283278 0
0.34038925 0.48673534 -0.37746072 0
-0.23218155 0.36040878 -0.16126299 0
-0.34460258 0.38144112 -0.16035819 0
-0.16442299 0.45036888 -0.15819216 0
-0.95763206 -0.4189558 -0.40094543 0
-0.58672905 -0.47478199 -0.39622259 0
-0.86124611 -0.44786263 -0.39655972 0
-0.79673195 -0.4592886 -0.40008831 0
-0.69371796 -0.41418171 -0.39845228 0
-0.92242241 -0.39902115 -0.39715505 0
-0.83205986 -0.37155533 -0.4023385 0
-0.77086067 -0.3182497 -0.40371513 0
-0.9787693 -0.29569721 -0.39739561 0
-0.8764267 -0.26889229 -0.39819717 0
-0.99996185 -0.21022224 -0.40042138 0
-0.92257118 -0.18689442 -0.40034509 0
-0.94847488 -0.073622704 -0.39772034 0
-0.32304382 -0.46960258 -0.39271045 0
-0.47027397 -0.40021038 -0.38853383 0
-0.37819862 -0.38165474 -0.38884258 0
-0.59409904 -0.3582077 -0.3968873 0
-0.49101448 -0.28909492 -0.39372778 0
-0.64874649 -0.26876926 -0.39803576 0
-0.57028961 -0.22871113 -0.39570856 0
-0.75022316 -0.21455097 -0.39309335 0
-0.66030312 -0.17933178 -0.3944304 0
-0.5923214 -0.14307213 -0.39611554 0
-0.86850166 -0.13791656 -0.39496493 0
-0.78686523 -0.14130592 -0.39014101 0
-0.68129349 -0.10798931 -0.39395213 0
-0.90782547 -0.060554504 -0.38948774 0
-0.92819977 0.008263588 -0.39575624 0
-0.99414825 0.10349464 -0.40254736 0
-0.17498779 -0.47329521 -0.39016414 0
-0.049716949 -0.49347401 -0.38494778 0
-0.016443253 -0.45055485 -0.3900795 0
-0.20353508 -0.37797928 -0.39294457 0
-0.081634521 -0.40116596 -0.3892107 0
-0.25907707 -0.32404804 -0.39010835 0
-0.18366814 -0.24940205 -0.39145994 0
-0.38489532 -0.2802372 -0.39114881 0
-0.31826591 -0.23102856 -0.38848758 0
-0.24092484 -0.20161629 -0.38963175 0
-0.49286842 -0.16545582 -0.38647318 0
-0.45241356 -0.19575119 -0.39297056 0
-0.35131073 -0.14258289 -0.39316797 0
-0.28081512 -0.096170425 -0.39021516 0
-0.49165154 -0.081004143 -0.38953948 0
-0.40689659 -0.072189331 -0.3866961 0
-0.5189476 0.020797729 -0.39442062 0
-0.61315536 0.028131485 -0.39618993 0
-0.55064392 0.12059689 -0.39251447 0
-0.62042618 0.12911606 -0.39219046 0
-0.59447289 0.19556522 -0.39207196 0
-0.68660355 0.23534203 -0.39720559 0
-0.73946381 0.397995 -0.40251851 0
-0.66994858 0.32506752 -0.39828038 0
-0.79437065 0.45047855 -0.40739155 0
0.15605164 -0.45618725 -0.38919187 0
0.2605648 -0.41274643 -0.38740993 0
0.10298157 -0.35837364 -0.38371563 0
-0.028823853 -0.34610367 -0.38988328 0
0.03250885 -0.26071358 -0.3814137 0
0.17559242 -0.27234364 -0.38838339 0
-0.096326828 -0.29342937 -0.38831329 0
-0.023303986 -0.22232819 -0.3809495 0
0.042909622 -0.19175243 -0.38596177 0
-0.16188431 -0.15992546 -0.38699245 0
-0.054363251 -0.11598206 -0.38239956 0
-0.2161541 -0.040048599 -0.38834643 0
-0.12984848 -0.055003166 -0.3903563 0
-0.34624672 -0.025231361 -0.38462186 0
-0.29130173 0.0022373199 -0.3897357 0
-0.1836319 0.042656898 -0.38693333 0
-0.39280128 0.052531242 -0.39326525 0
-0.3279686 0.1139183 -0.39129019 0
-0.1981411 0.13587856 -0.39073801 0
-0.41584778 0.14677048 -0.38651371 0
-0.30072594 0.2151947 -0.38714242 0
-0.53484535 0.22908211 -0.39562416 0
-0.4524231 0.25282001 -0.38932395 0
-0.38717079 0.29789257 -0.39089847 0
-0.58683777 0.28844261 -0.39064455 0
-0.52950859 0.35029888 -0.38976645 0
-0.44458961 0.38599586 -0.38949704 0
-0.64842224 0.40582561 -0.39516783 0
-0.55456352 0.43402386 -0.39466596 0
-0.44414902 0.45663643 -0.39909339 0
-0.73230934 0.44220161 -0.40388417 0
-0.65444946 0.49380875 -0.40860915 0
0.52682495 -0.44727707 -0.38648176 0
0.4360199 -0.35252094 -0.39022756 0
0.29079628 -0.31913376 -0.3856163 0
0.36976051 -0.26609802 -0.3903017 0
0.26840973 -0.21320724 -0.3890543 0
0.36722755 -0.14510727 -0.38884187 0
0.15490723 -0.12991714 -0.38165283 0
0.26862335 -0.089713097 -0.38599229 0
0.0015907288 -0.056242943 -0.38359189 0
0.11243057 -0.029553413 -0.38912845 0
0.23420334 0.026297569 -0.38618445 0
-0.0055484772 0.039615631 -0.38652706 0
0.13225365 0.071418762 -0.38624573 0
-0.096208572 0.081586838 -0.38917303 0
0.0076732635 0.13641834 -0.38474751 0
0.10895348 0.17840099 -0.38937283 0
-0.14774704 0.18622875 -0.39367175 0
-0.032009125 0.26251793 -0.38459563 0
-0.21573639 0.24784279 -0.38880396 0
-0.0896492 0.30444527 -0.38238215 0
-0.27455139 0.33655262 -0.38822365 0
-0.17296791 0.33969212 -0.38535118 0
-0.37272072 0.43173695 -0.39153123 0
-0.31507492 0.3946867 -0.39196849 0
-0.21001053 0.45377445 -0.38989353 0
0.91424751 -0.45748234 -0.38427663 0
0.73052025 -0.43801975 -0.38137746 0
0.87347794 -0.37520218 -0.39092231 0
0.63210678 -0.37333393 -0.38629174 0
0.76240921 -0.31206799 -0.38675094 0
0.61063194 -0.26023197 -0.39072466 0
0.79245567 -0.23411083 -0.39263082 0
0.50884819 -0.19919014 -0.38634539 0
0.6545887 -0.16950607 -0.39055181 0
0.55731392 -0.11630726 -0.38710856 0
0.30199814 -0.014092445 -0.38910055 0
0.41490364 -0.064202309 -0.38944006 0
0.50621223 -0.0022220612 -0.39360428 0
0.41503334 0.053524971 -0.38830519 0
0.26633453 0.12429523 -0.38580728 0
0.42356491 0.17529869 -0.38716125 0
0.2342701 0.25628853 -0.3855772 0
0.30101585 0.21647739 -0.38926339 0
0.060216904 0.22998524 -0.38106918 0
0.14301491 0.29965591 -0.38391185 0
0.3093586 0.324646 -0.39423609 0
-0.031520844 0.36681938 -0.38630724 0
0.023206711 0.3231926 -0.3913784 0
0.13832283 0.40526104 -0.3901701 0
-0.084510803 0.40811634 -0.38344073 0
0.033269882 0.46526432 -0.38525629 0
0.95323181 -0.28926468 -0.3895967 0
0.89193535 -0.15769863 -0.39450693 0
0.75689697 -0.10814667 -0.39540935 0
0.92122841 -0.022644997 -0.39014125 0
0.64846992 -0.034226418 -0.38643861 0
0.77269363 0.029765129 -0.39083266 0
0.66736031 0.097042084 -0.38291764 0
0.51925659 0.13081169 -0.38934541 0
0.66511345 0.20751381 -0.39434195 0
0.52060127 0.25749588 -0.39171004 0
0.61166954 0.34420967 -0.3967452 0
0.43252373 0.29303074 -0.38988256 0
0.50141716 0.37895203 -0.39425778 0
0.25605583 0.38015175 -0.38401628 0
0.38472939 0.42692375 -0.39107156 0
-0.21424866 0.32406998 -0.17503548 0
0.31011963 0.46818256 -0.38689637 0
-0.29892731 0.39813519 -0.17542744 0
-0.21006584 0.37458038 -0.18226504 0
-0.27275848 0.45615387 -0.19481182 0
0.92845535 0.11095715 -0.39142823 0
0.82060623 0.1684494 -0.38732481 0
0.96995544 0.21648026 -0.39790583 0
0.89092827 0.26939201 -0.39119744 0
0.71520424 0.30449867 -0.40086007 0
0.78747749 0.4548645 -0.39156199 0
0.62949753 0.48618221 -0.39336753 0
-0.10226059 0.45773983 -0.16937065 0
0.92365456 0.41635323 -0.39017081 0
-0.83420372 -0.45388317 -0.4019134 0
-0.98330879 -0.4651041 -0.40232444 0
-0.88900185 -0.38436985 -0.39290595 0
-0.98452187 -0.31253815 -0.39648485 0
-0.55940056 -0.42214775 -0.39465284 0
-0.66664696 -0.43145943 -0.39333391 0
-0.61128044 -0.41562748 -0.38925457 0
-0.78222847 -0.47275734 -0.39074779 0
-0.76904678 -0.38678646 -0.39502645 0
-0.70440865 -0.31732368 -0.39366961 0
-0.86566162 -0.36991405 -0.39877462 0
-0.83556938 -0.30773544 -0.39580798 0
-0.79179001 -0.23530674 -0.39503288 0
-0.90122414 -0.23823166 -0.39447522 0
-0.85816574 -0.18480778 -0.39652848 0
-0.97107506 -0.19075298 -0.39352107 0
-0.90320969 -0.09877491 -0.3913548 0
-0.83783722 -0.039017677 -0.39015818 0
-0.97669983 -0.029652596 -0.39355016 0
-0.22141838 -0.49938869 -0.38449907 0
-0.40731621 -0.46086216 -0.38946247 0
-0.30966949 -0.39606476 -0.38041997 0
-0.49890709 -0.46296501 -0.39063764 0
-0.43835831 -0.36290932 -0.3871944 0
-0.40484238 -0.2577095 -0.38739061 0
-0.5856781 -0.35009956 -0.3886323 0
-0.53402138 -0.28441143 -0.39095426 0
-0.47203255 -0.22445107 -0.39241052 0
-0.67649269 -0.25352764 -0.38736463 0
-0.59859085 -0.22628021 -0.39266253 0
-0.5152607 -0.15939331 -0.38938665 0
-0.67403221 -0.16438961 -0.39130378 0
-0.58735275 -0.074669838 -0.39104152 0
-0.73227882 -0.084872246 -0.39038372 0
-0.68464661 -0.015582085 -0.39114308 0
-0.63755608 0.066126823 -0.38677406 0
-0.7996254 -0.047395706 -0.39275575 0
-0.67752457 0.097679138 -0.38802433 0
-0.85427666 0.43553638 -0.4137814 0
-0.86576462 0.48034859 -0.42195058 0
0.012638092 -0.46953297 -0.3795197 0
-0.15070152 -0.48361778 -0.38056922 0
-0.093265533 -0.43947983 -0.39004159 0
-0.2498436 -0.38327599 -0.38510942 0
-0.16883278 -0.35878181 -0.38695979 0
-0.099628448 -0.26780415 -0.38058448 0
-0.31020355 -0.3469429 -0.38807678 0
-0.2719326 -0.29468822 -0.39125204 0
-0.33674049 -0.29090595 -0.38251758 0
-0.31690788 -0.20398808 -0.38875842 0
-0.2163887 -0.18646717 -0.38353848 0
-0.36892319 -0.13649559 -0.38822293 0
-0.3129921 -0.036231041 -0.38560271 0
-0.45306015 -0.081083298 -0.38859892 0
-0.39012527 0.024598122 -0.39354515 0
-0.51887321 0.00047779083 -0.3880837 0
-0.44454765 0.084516525 -0.39152622 0
-0.37588692 0.13729954 -0.39077306 0
-0.56758499 0.066766739 -0.3892262 0
-0.507658 0.14065552 -0.39174604 0
-0.63755989 0.17439938 -0.38714457 0
-0.56204796 0.19730377 -0.39078164 0
-0.50760841 0.27759075 -0.38726616 0
-0.70666313 0.24851131 -0.38945699 0
-0.62980461 0.29171848 -0.3875916 0
-0.57220078 0.34929466 -0.38656902 0
-0.72602654 0.35168457 -0.39460945 0
-0.64095497 0.44589043 -0.39791036 0
-0.75701523 0.48127365 -0.41309619 0
0.32162666 -0.46522045 -0.3848114 0
0.14825249 -0.46148109 -0.38057327 0
0.25893784 -0.41222954 -0.38182807 0
0.060972214 -0.42348289 -0.38529825 0
0.1729393 -0.36138153 -0.382653 0
-0.016288757 -0.343853 -0.38204813 0
0.075826645 -0.28093243 -0.37946653 0
0.020933151 -0.20096684 -0.38326669 0
0.044296265 -0.13516235 -0.37738323 0
-0.12955475 -0.21730804 -0.37594485 0
-0.091928482 -0.1394453 -0.37780452 0
-0.013338089 -0.089775085 -0.37734222 0
-0.2048912 -0.083990097 -0.38467813 0
-0.12970352 -0.035967827 -0.38468862 0
-0.033039093 0.010947227 -0.38430238 0
-0.20767975 0.0305233 -0.38420296 0
-0.14361382 0.093440056 -0.38534093 0
-0.29836082 0.0887146 -0.38751483 0
-0.22716331 0.15350056 -0.38694429 0
-0.1455307 0.22672367 -0.3855741 0
-0.3608017 0.1973381 -0.37804198 0
-0.29102135 0.21362686 -0.38585854 0
-0.22647858 0.31013775 -0.38268614 0
-0.40533066 0.2358284 -0.37834477 0
-0.35531807 0.29403973 -0.38945699 0
-0.49538803 0.35258579 -0.39348054 0
-0.44164085 0.32145309 -0.39034057 0
-0.370821 0.39379883 -0.39012718 0
-0.49775505 0.41628838 -0.39173412 0
-0.43321419 0.49921036 -0.38908124 0
-0.54757309 0.48142529 -0.39788342 0
0.52636147 -0.42776585 -0.37521148 0
0.35892868 -0.39725971 -0.39095831 0
0.51963997 -0.3088789 -0.37898922 0
0.30058861 -0.33553886 -0.38500261 0
0.3616066 -0.24431324 -0.38528967 0
0.43210602 -0.15364647 -0.38711333 0
0.22937965 -0.28079796 -0.38259625 0
0.23835754 -0.17474461 -0.38612723 0
0.36441803 -0.092710495 -0.38192105 0
0.16941643 -0.17034912 -0.38040733 0
0.24891472 -0.057623863 -0.38930607 0
0.1282711 -0.067966461 -0.37738228 0
0.21200943 -0.0015335083 -0.38154912 0
0.04696846 -0.024254799 -0.37923408 0
0.12923431 0.042043686 -0.38300967 0
0.18000984 0.17338943 -0.38006186 0
-0.034858704 0.07062149 -0.3733592 0
0.027997971 0.10404015 -0.38340187 0
0.097454071 0.19995117 -0.38533163 0
-0.079565048 0.16278076 -0.38760591 0
0.065540314 0.25285149 -0.37803435 0
-0.053613663 0.30221748 -0.38502216 0
-0.12838936 0.36503887 -0.38454485 0
-0.062229156 0.43167782 -0.38822603 0
-0.21494293 0.38917351 -0.39324737 0
-0.23910713 0.4384985 -0.38813233 0
0.8885498 -0.49273396 -0.36845493 0
0.88055229 -0.4357357 -0.37930346 0
0.71229172 -0.49312782 -0.36301732 0
0.81305504 -0.37134933 -0.38947821 0
0.63864517 -0.40429497 -0.3825264 0
0.74540138 -0.29942703 -0.38076544 0
0.65216637 -0.23793411 -0.3781352 0
0.54553223 -0.19512177 -0.38191724 0
0.63454819 -0.13037777 -0.39166212 0
0.57086563 -0.063435555 -0.38365817 0
0.51154137 -0.0063228607 -0.37767196 0
0.53023911 0.061999321 -0.39309239 0
0.41083717 0.028468132 -0.38264084 0
0.45134544 0.12090969 -0.38890505 0
0.30343246 0.10254669 -0.37963748 0
0.39086914 0.16480827 -0.38634896 0
0.29358864 0.24059582 -0.38149691 0
0.18156624 0.30521011 -0.38176322 0
0.29586411 0.39244747 -0.38217354 0
0.10499954 0.34078503 -0.38421726 0
0.23176003 0.43609905 -0.38079047 0
0.076131821 0.39282227 -0.37676072 0
0.11727333 0.48494434 -0.38551474 0
-0.29522133 0.39710426 -0.17718124 0
0.85617447 -0.23201656 -0.38847184 0
0.93895531 -0.13603306 -0.3907907 0
0.75826836 -0.16940308 -0.38539386 0
0.80666733 -0.090935707 -0.39583874 0
0.76370811 -0.0082139969 -0.38043189 0
0.68130493 0.04394722 -0.37796521 0
0.72246552 0.17795086 -0.38123751 0
0.60482216 0.221035 -0.38576388 0
0.67190933 0.3555069 -0.39111161 0
0.53302574 0.26272774 -0.38229609 0
0.59169388 0.40797138 -0.38511896 0
0.39488792 0.32058048 -0.3858912 0
0.52997208 0.44962311 -0.38049579 0
0.3914566 0.47633362 -0.3912344 0
-0.20353317 0.37926197 -0.17760706 0
-0.092626572 0.48869133 -0.16814566 0
-0.24665642 0.49538136 -0.19008756 0
0.86513138 0.097210884 -0.38137364 0
0.96060371 0.21524811 -0.38787603 0
0.85885239 0.25866604 -0.3910749 0
0.76156044 0.30796337 -0.39268303 0
0.84622383 0.46149158 -0.39923429 0
0.98077011 0.42801094 -0.38931918 0
-0.62487984 0.39514637 -0.41654897 0
-0.64465904 0.47562122 -0.42585182 0
-0.99522018 -0.11599255 -0.40075946 0
-0.90095711 -0.053170204 -0.40211964 0
-0.94413185 0.0037736893 -0.40186095 0
-0.62661171 0.23053265 -0.3976655 0
-0.51634598 0.30469322 -0.39179945 0
-0.43961525 0.38898468 -0.39856076 0
-0.39310646 0.35568714 -0.39088202 0
-0.30420494 0.47800446 -0.39842987 0
-0.96638489 0.10370064 -0.40625715 0
-0.57666206 0.34640694 -0.40370679 0
-0.48456573 0.44777489 -0.40493274 0
-0.4424324 0.48762417 -0.4101584 0
-0.92519569 -0.34980202 -0.40214682 0
-0.77490425 -0.23811054 -0.39736938 0
-0.97329712 -0.29863262 -0.39885807 0
-0.90036392 -0.25590992 -0.39907312 0
-0.82363701 -0.18033218 -0.39671326 0
-0.7449398 -0.13424969 -0.39939237 0
-0.66578484 -0.093683243 -0.39767718 0
-0.57107353 -0.013928413 -0.39250135 0
-0.49214554 0.057106972 -0.38971162 0
-0.41760254 0.075244904 -0.39497256 0
-0.34751129 0.15120029 -0.39739823 0
-0.24493408 0.24568367 -0.39527988 0
-0.11730766 0.32116604 -0.39162517 0
0.039299011 0.44584751 -0.38821936 0
-0.95962715 -0.15418339 -0.40130663 0
-0.86803436 -0.11060333 -0.39814329 0
-0.78352928 -0.020393372 -0.39636397 0
-0.69119072 0.009604454 -0.39394236 0
-0.650774 0.035005569 -0.39931369 0
-0.5524807 0.15356255 -0.39184284 0
-0.45722198 0.17884827 -0.39224553 0
-0.38322067 0.25964069 -0.39303875 0
-0.24819183 0.34049797 -0.38737154 0
-0.13731194 0.40843964 -0.39247537 0
-0.5014782 0.25542355 -0.39339137 0
-0.2807827 0.39239788 -0.39351511 0
-0.73156929 -0.46074772 -0.39943767 0
-0.90852356 -0.47670555 -0.40627623 0
-0.77755165 -0.41267681 -0.39580512 0
-0.68028831 -0.3836832 -0.39753342 0
-0.61388397 -0.32757473 -0.39529014 0
-0.53507805 -0.24736309 -0.39734793 0
-0.40104866 -0.19957066 -0.39607644 0
-0.36511803 -0.11314964 -0.39042187 0
-0.23592186 -0.028311729 -0.39455843 0
-0.10022163 0.038524628 -0.3891108 0
-0.011154175 0.1510725 -0.3887279 0
0.12394524 0.25448704 -0.38768268 0
0.26241112 0.30043602 -0.39830518 0
-0.96926498 -0.45688057 -0.40256858 0
-0.93709946 -0.41523647 -0.40497518 0
-0.82075119 -0.34802532 -0.39754748 0
-0.7737236 -0.29799938 -0.39905214 0
-0.6532917 -0.22616386 -0.39727545 0
-0.62982941 -0.15682983 -0.39717293 0
-0.5140419 -0.099887848 -0.39536381 0
-0.46525002 -0.010824203 -0.39292336 0
-0.37143135 -0.024025917 -0.39761996 0
-0.27075768 0.054347038 -0.39264941 0
-0.1578331 0.14455128 -0.3878212 0
-0.076906204 0.19564152 -0.39550614 0
0.096042633 0.31474495 -0.38485169 0
0.23518372 0.39004707 -0.38977432 0
-0.061483383 0.27070999 -0.38593054 0
0.015609741 0.35250187 -0.3913908 0
0.17251587 0.48141098 -0.39568567 0
-0.31295586 0.43771362 -0.19561148 0
-0.47260284 -0.46776581 -0.39669967 0
-0.39935684 -0.41278744 -0.39519024 0
-0.30859566 -0.35003662 -0.39211082 0
-0.20514297 -0.30798054 -0.39310169 0
-0.11498833 -0.24257469 -0.39241886 0
0.0072174072 -0.16230297 -0.38700628 0
0.10794258 -0.083695412 -0.39295411 0
-0.62687111 -0.4679184 -0.40049267 0
-0.54271507 -0.39156818 -0.39633679 0
-0.46419907 -0.31548977 -0.39374495 0
-0.36273003 -0.27187157 -0.3966918 0
-0.23922157 -0.25558949 -0.39422727 0
-0.25412178 -0.19482231 -0.39206076 0
-0.15076447 -0.15405655 -0.39117432 0
-0.025295258 -0.069691658 -0.38439989 0
0.060216904 -0.032011032 -0.39301825 0
0.076032639 0.051462173 -0.38545799 0
0.20756721 0.10705566 -0.38849664 0
0.29828072 0.22935677 -0.39517474 0
0.43306923 0.19912815 -0.37635279 0
0.50743866 0.32371998 -0.39259124 0
0.67806816 0.49681377 -0.40052009 0
0.78178787 0.44322586 -0.3887763 0
-0.28563881 -0.14078903 -0.39402199 0
-0.18514252 -0.06387043 -0.39108706 0
-0.007226944 0.087156296 -0.39274311 0
0.1566143 0.19837093 -0.38655162 0
0.450037 0.42547035 -0.38999271 0
-0.16361809 0.28972054 -0.1770792 0
-0.24910736 0.30539799 -0.18857455 0
-0.25865936 0.36607265 -0.18800569 0
-0.1082592 0.41619873 -0.18671799 0
-0.08559227 0.49849701 -0.19812274 0
-0.042890549 -0.41625023 -0.39375758 0
0.10460091 -0.32772827 -0.39028311 0
0.23161888 -0.25691605 -0.38659286 0
0.35319328 -0.1723938 -0.39747858 0
0.88586998 0.2267189 -0.39514661 0
-0.32649231 -0.49999237 -0.39193273 0
-0.27856445 -0.45529652 -0.39846969 0
-0.16962433 -0.35337639 -0.39123464 0
-0.11184692 -0.39961243 -0.38462996 0
-0.044466019 -0.31002617 -0.38731837 0
0.046571732 -0.28049278 -0.39146018 0
0.1466465 -0.17227077 -0.39528561 0
0.33352852 -0.066525459 -0.38640594 0
0.48590469 0.034627914 -0.39044547 0
0.66151047 0.13918495 -0.39240956 0
0.83362579 0.29307365 -0.39626217 0
0.024585724 -0.21479797 -0.39118433 0
0.25051308 0.0031032562 -0.38754749 0
0.40690613 0.11274052 -0.39120841 0
0.61643028 0.2404232 -0.38767719 0
0.81040192 0.36643124 -0.39480281 0
0.32741356 -0.43951035 -0.39909768 0
0.82021713 -0.09586525 -0.38976264 0
0.15826607 -0.45213699 -0.39227486 0
0.29316521 -0.37828159 -0.39272475 0
0.43306351 -0.26228905 -0.39310265 0
0.59526634 -0.17268085 -0.39317608 0
0.76346588 -0.035546303 -0.39375091 0
0.98359489 0.081644058 -0.39161539 0
0.027585983 -0.46136093 -0.38692331 0
0.14134407 -0.39164066 -0.3886869 0
0.27314377 -0.31541824 -0.39023829 0
0.5575428 -0.064352036 -0.38685036 0
0.70252991 0.028987885 -0.39709735 0
0.91612434 0.14640999 -0.39413404 0
0.58123779 -0.45603466 -0.38908744 0
0.72472191 -0.33581352 -0.39309144 0
0.92180824 -0.24122334 -0.38999224 0
0.41539001 -0.49423218 -0.38509178 0
0.5003109 -0.35603905 -0.39163423 0
0.65155029 -0.27365875 -0.39666486 0
0.86385155 -0.16830063 -0.39170218 0
0.99482346 0.0034008026 -0.3954916 0
0.8132019 -0.43719864 -0.38881278 0
0.96323967 -0.32127285 -0.39254451 0
-0.90651894 0.42390442 -0.45566297 0
-0.91004944 0.49249649 -0.47628117 0
-0.98483658 0.39596272 -0.46673584 0
-0.96050644 0.16493988 -0.4243772 0
-0.98300934 0.18883801 -0.42159224 0
-0.96765518 0.30694866 -0.44119072 0
-0.94016075 -0.1011343 -0.41349196 0
-0.9186039 -0.016417503 -0.41647935 0
-0.81925583 0.041007042 -0.4109726 0
-0.5755024 0.3853054 -0.42453623 0
-0.51810455 0.48459911 -0.43163037 0
-0.99951172 -0.042053223 -0.41400003 0
-0.93534279 0.042604446 -0.4155283 0
-0.9369297 0.12156582 -0.4134593 0
-0.95773315 0.35300922 -0.23267198 0
-0.9567318 -0.45011234 -0.40820074 0
-0.88880348 -0.36567593 -0.40938306 0
-0.76619339 -0.21344185 -0.41290545 0
-0.58127213 0.04104805 -0.41060328 0
-0.48040199 0.19040012 -0.40260458 0
-0.41716766 0.27086926 -0.40532994 0
-0.99705696 -0.41803837 -0.40977192 0
-0.95360184 -0.33461189 -0.4109354 0
-0.90681267 -0.26975727 -0.40943241 0
-0.85462189 -0.19851398 -0.4071548 0
-0.76394272 -0.093450546 -0.40476418 0
-0.73137665 -0.020811081 -0.40757513 0
-0.66847992 0.048086166 -0.40629101 0
-0.57318497 0.17804146 -0.40313625 0
-0.54339981 0.24168968 -0.40330195 0
-0.48500443 0.30033684 -0.39956236 0
-0.42926407 0.36693287 -0.40818501 0
-0.36239243 0.44788361 -0.41635108 0
-0.87921524 -0.1179018 -0.40873909 0
-0.84047127 -0.039381981 -0.41003108 0
-0.58017921 0.32302952 -0.41222882 0
-0.45840073 0.44962215 -0.42227411 0
-0.79237938 -0.47176552 -0.41248798 0
-0.70706749 -0.38943481 -0.40872908 0
-0.65821075 -0.31460381 -0.40298748 0
-0.57200813 -0.21244049 -0.40676093 0
-0.58502007 -0.157897 -0.40818954 0
-0.48620605 -0.059831619 -0.39864826 0
-0.44720078 -0.021965027 -0.40775633 0
-0.38181686 0.098583221 -0.40586185 0
-0.32642365 0.17875004 -0.39116955 0
-0.16578102 0.32858944 -0.39815903 0
-0.89345551 -0.48416615 -0.41062999 0
-0.85416794 -0.42683983 -0.40970683 0
-0.78951073 -0.32681751 -0.40544033 0
-0.72992516 -0.26606369 -0.4037919 0
-0.66349983 -0.1645174 -0.40583777 0
-0.59652901 -0.065171242 -0.40340996 0
-0.55901718 -0.0015163422 -0.40101361 0
-0.49825668 0.066165924 -0.40236044 0
-0.43173981 0.1228199 -0.39732265 0
-0.34678841 0.23360729 -0.40351033 0
-0.31733894 0.30445957 -0.40403056 0
-0.26865959 0.39554977 -0.40098119 0
-0.18824005 0.42825031 -0.40973115 0
-0.52804184 -0.48492146 -0.4072969 0
-0.4837513 -0.43764305 -0.40934944 0
-0.36495018 -0.27199554 -0.40651274 0
-0.60171318 -0.46573639 -0.40657473 0
-0.51281166 -0.39882469 -0.40314913 0
-0.49110031 -0.32228088 -0.40825009 0
-0.43167686 -0.25017548 -0.40247536 0
-0.36190224 -0.16160107 -0.3994112 0
-0.30013847 -0.071440697 -0.40025067 0
-0.23406219 -0.0043621063 -0.40267062 0
-0.1912365 0.10825634 -0.39087367 0
-0.12729263 0.15506268 -0.39857602 0
-0.074508667 0.26238632 -0.40582752 0
-0.033418655 0.34953499 -0.39550853 0
0.07453537 0.49004936 -0.40602732 0
-0.6893425 -0.46093464 -0.40716863 0
-0.60482788 -0.33952427 -0.40850759 0
-0.55917931 -0.25397396 -0.39998698 0
-0.46746826 -0.15991688 -0.40097213 0
-0.42773056 -0.07382679 -0.40643549 0
-0.33787918 0.012635231 -0.40644884 0
-0.32110214 0.073789597 -0.39809275 0
-0.25276375 0.15314484 -0.40201283 0
-0.24114227 0.20582008 -0.39451623 0
-0.13348007 0.25722885 -0.3975327 0
-0.0079364777 0.4151535 -0.39100313 0
-0.31064796 -0.43170643 -0.40259051 0
-0.21651649 -0.29596806 -0.40237522 0
-0.11911774 -0.22479153 -0.39935279 0
-0.021327972 -0.084641457 -0.3936429 0
0.02794075 0.012800217 -0.40231323 0
0.15321159 0.14469528 -0.40100431 0
0.16792488 0.22152138 -0.39581418 0
0.25021553 0.37096882 -0.40143728 0
-0.41967964 -0.47023487 -0.3998487 0
-0.3815155 -0.39824867 -0.40144086 0
-0.30680847 -0.33808422 -0.40067148 0
-0.23593903 -0.21634579 -0.39821291 0
-0.19575882 -0.14360809 -0.40063357 0
-0.16414452 -0.054972649 -0.39713693 0
-0.067214966 -0.0019655228 -0.39873624 0
-0.035232544 0.10768318 -0.39956975 0
0.12714195 0.29634476 -0.39475703 0
0.14326286 0.41747665 -0.3921504 0
0.27250862 0.49878693 -0.40097666 0
-0.0034790039 0.22856236 -0.39690328 0
-0.15507507 0.31126404 -0.19484615 0
-0.074209213 0.4089613 -0.20165777 0
-0.27842903 0.33211803 -0.19295001 0
-0.25028419 0.39002991 -0.19464397 0
-0.13917542 -0.44055271 -0.40039492 0
-0.099472046 -0.36503601 -0.40015936 0
0.027080536 -0.21593475 -0.39759612 0
0.12863159 -0.14347076 -0.39673948 0
0.21074104 0.060321808 -0.39671135 0
0.36342812 0.16794968 -0.39530349 0
0.36548615 0.28425217 -0.3899014 0
0.46243668 0.33887482 -0.40258861 0
0.47426224 0.45616531 -0.39508009 0
-0.25824738 -0.45442486 -0.40343356 0
-0.18683243 -0.33927059 -0.40052414 0
-0.080345154 -0.26242256 -0.39775944 0
-0.041759491 -0.15795517 -0.40194702 0
0.067737579 -0.074542999 -0.40071321 0
0.34831429 0.3511858 -0.3901422 0
-0.096492767 0.25973225 -0.17905211 0
0.22729492 -0.30713177 -0.39672136 0
0.26956558 -0.22847939 -0.40923929 0
0.44011116 -0.050550461 -0.39934421 0
0.56564903 0.11911869 -0.40294933 0
0.70834541 0.37081242 -0.40229177 0
-0.070493698 -0.48401356 -0.38922858 0
0.0027427673 -0.45315647 -0.39715242 0
0.098104477 -0.35612965 -0.39369273 0
0.13998985 -0.24278736 -0.40012693 0
0.28868675 -0.11062241 -0.39793777 0
0.26968193 -0.013747215 -0.39414144 0
0.40247345 0.046775818 -0.39967966 0
0.54961395 0.22123528 -0.3973999 0
0.67975235 0.44231987 -0.40139556 0
0.30638504 -0.49296188 -0.39779973 0
0.29855919 -0.3819561 -0.39100718 0
0.42017746 -0.30773067 -0.394063 0
0.53447151 -0.19416046 -0.40039492 0
0.58082771 -0.039455414 -0.40828109 0
0.81626892 0.22307301 -0.40049005 0
0.17420006 -0.45437908 -0.3913703 0
0.38542175 -0.24522495 -0.39835835 0
0.44824409 -0.1288662 -0.40079331 0
0.58276367 0.048682213 -0.40700722 0
0.76889229 0.33073235 -0.40474534 0
0.56840515 -0.4753933 -0.39534712 0
0.63811493 -0.36010933 -0.39474225 0
0.74462891 -0.20232677 -0.40222096 0
0.93272591 -0.011959076 -0.39585161 0
0.45501518 -0.49617767 -0.39458299 0
0.46204948 -0.36712074 -0.39388919 0
0.59187889 -0.2929163 -0.39591742 0
0.69512367 -0.13852215 -0.40408468 0
0.71754837 -0.051384926 -0.39485455 0
0.86840057 0.079851151 -0.39998674 0
0.73139954 -0.47519207 -0.40294075 0
0.86138916 -0.28189945 -0.39785051 0
0.98770905 -0.17214966 -0.39888668 0
0.70935249 -0.39761066 -0.40210819 0
0.93159866 -0.098999023 -0.40314794 0
0.93703651 -0.47034454 -0.40632796 0
0.91677666 -0.38481045 -0.40281272 0
-0.97552681 0.49828815 -0.48334742 0
-0.98709869 0.20920849 -0.41699719 0
-0.92378998 0.33287048 -0.43184066 0
-0.84058571 0.49175167 -0.45044518 0
-0.93998146 0.37053967 -0.43967104 0
-0.93224144 -0.079651833 -0.41486716 0
-0.86911392 -0.0049648285 -0.41298079 0
-0.79849815 0.082577705 -0.4117384 0
-0.52191544 0.40810966 -0.41580057 0
-0.96955681 0.0061368942 -0.41647959 0
-0.87500191 0.071221352 -0.41250944 0
-0.86232758 0.12497234 -0.41363716 0
-0.96937561 0.13938808 -0.41616774 0
-0.90573692 0.22388077 -0.41432381 0
-0.30371094 0.40150166 -0.4034667 0
-0.93010712 -0.39121151 -0.40900159 0
-0.90826607 -0.30119038 -0.40477633 0
-0.84988022 -0.21375942 -0.40305448 0
-0.7737999 -0.15013695 -0.40750837 0
-0.72795105 -0.029455185 -0.40696478 0
-0.69079781 0.0067605972 -0.41037226 0
-0.6223259 0.10730362 -0.40624309 0
-0.5381012 0.19965458 -0.40410757 0
-0.43099785 0.34218216 -0.39969373 0
-0.41839981 0.42458344 -0.40441036 0
-0.93002319 -0.18113804 -0.40788913 0
-0.84703636 -0.085169792 -0.40673304 0
-0.75329399 0.031146049 -0.40113473 0
-0.69260597 0.14463329 -0.40184546 0
-0.53950691 0.30122757 -0.40056753 0
-0.7213192 -0.43035984 -0.40790224 0
-0.6768055 -0.3088665 -0.40164256 0
-0.63381958 -0.29548931 -0.41164207 0
-0.55683327 -0.20274258 -0.40413213 0
-0.47853279 -0.1280098 -0.40240383 0
-0.41031265 -0.022360802 -0.40262341 0
-0.33675194 0.058094025 -0.40412116 0
-0.34031105 0.12192917 -0.39887214 0
-0.23968315 0.23043728 -0.39930487 0
-0.10576057 0.34872055 -0.39221859 0
-0.055007935 0.44117832 -0.39820647 0
-0.87683296 -0.45207214 -0.41102982 0
-0.80521584 -0.35986614 -0.40694642 0
-0.69979286 -0.22755432 -0.40453959 0
-0.60531998 -0.15713406 -0.39996386 0
-0.55717468 -0.046424866 -0.40248466 0
-0.49258614 0.045239449 -0.40141535 0
-0.46990585 0.11059189 -0.4008894 0
-0.38370132 0.20845127 -0.40119934 0
-0.24903679 0.33283901 -0.39496017 0
-0.97575188 -0.48681831 -0.40813446 0
-0.79707718 -0.23542309 -0.39758825 0
-0.37586975 0.30802631 -0.39357352 0
-0.43099022 -0.35407543 -0.39949727 0
-0.30168915 -0.23133373 -0.40126848 0
-0.20919037 -0.074619293 -0.39774179 0
-0.098648071 0.090447426 -0.38907886 0
-0.03068161 0.17393208 -0.39539814 0
0.094995499 0.28423214 -0.39471197 0
0.25329399 0.49762821 -0.39259696 0
-0.54523277 -0.41444874 -0.40542984 0
-0.47614098 -0.31738567 -0.4015801 0
-0.44910622 -0.25103855 -0.40213871 0
-0.40285683 -0.18379498 -0.39558244 0
-0.34388924 -0.14627743 -0.40278077 0
-0.24610138 0.0046987534 -0.39452386 0
-0.15030098 0.13822174 -0.39364934 0
-0.082546234 0.25280571 -0.39610839 0
0.035024643 0.37454128 -0.39999747 0
-0.65887833 -0.44450951 -0.39844441 0
-0.63538742 -0.33820152 -0.40000248 0
-0.57162666 -0.3303194 -0.40492415 0
-0.36393166 -0.05430603 -0.40024829 0
-0.2081852 0.17217731 -0.39853024 0
0.22841454 0.12247467 -0.39294386 0
0.34937286 0.29908752 -0.39167809 0
0.48679543 0.42399979 -0.39892197 0
-0.28933525 -0.41361046 -0.39904022 0
-0.2016964 -0.34199333 -0.39853477 0
-0.1259861 -0.20579529 -0.39496326 0
-0.025148392 -0.1180172 -0.39565825 0
0.016031265 -0.016451836 -0.40594435 0
0.051235199 0.056375504 -0.39028049 0
0.1853466 0.17384529 -0.39467001 0
0.304533 0.36339092 -0.39337206 0
-0.4735775 -0.49482155 -0.40155673 0
-0.40397453 -0.43385601 -0.39948058 0
-0.34710884 -0.31324291 -0.3988595 0
-0.22229195 -0.25020695 -0.39404464 0
-0.15934753 -0.12750244 -0.39199901 0
-0.10262489 -0.018195152 -0.39807796 0
0.022800446 0.12137985 -0.39081001 0
0.12776566 0.22781754 -0.39842367 0
0.25621223 0.41735935 -0.39281559 0
-0.24745178 0.25737667 -0.19822049 0
-0.1434269 0.29155827 -0.18377185 0
-0.070087433 0.4011879 -0.1874404 0
-0.24202728 0.34920692 -0.19749975 0
0.80073357 0.46108341 -0.40641427 0
0.017839432 -0.4129467 -0.39584494 0
0.084562302 -0.31809807 -0.39829254 0
0.2161541 -0.19298458 -0.39600468 0
0.34721184 -0.065123558 -0.39356303 0
0.30685234 -0.001250267 -0.39322734 0
0.43875313 0.14612579 -0.39596725 0
0.56737328 0.33823109 -0.39713788 0
-0.11927414 -0.44018078 -0.39541268 0
-0.060474396 -0.31462574 -0.39591098 0
0.049007416 -0.27227306 -0.39523482 0
0.050476074 -0.20204449 -0.38702703 0
0.14873123 -0.073379517 -0.39275575 0
0.23861694 0.04781723 -0.39793873 0
0.35276985 0.22948265 -0.39803934 0
-0.15403938 0.21769428 -0.1749568 0
0.92134666 0.32888222 -0.40464377 0
0.21793175 -0.49691486 -0.39752388 0
0.30799103 -0.34659767 -0.39943099 0
0.41855812 -0.27019691 -0.40502095 0
0.40813637 -0.18881226 -0.39967513 0
0.59901237 -0.06552124 -0.39965105 0
0.71147346 0.14485455 -0.40208697 0
0.87105179 0.4023819 -0.40644622 0
0.16012955 -0.43942928 -0.39937901 0
0.13100815 -0.3730917 -0.39696383 0
0.25713539 -0.28917885 -0.39806986 0
0.39045906 -0.11793995 -0.39416766 0
0.5116806 0.0081481934 -0.39520645 0
0.65014839 0.2529583 -0.40283871 0
0.59574127 -0.35676384 -0.40014052 0
0.68491554 -0.21431541 -0.4001646 0
0.82060814 -0.02614975 -0.40130591 0
0.43937683 -0.44975758 -0.39743495 0
0.54782867 -0.30551147 -0.39213181 0
0.62851524 -0.15038109 -0.39697599 0
0.7800312 0.048423767 -0.40124965 0
0.97074699 0.26465321 -0.4014678 0
0.35809517 -0.41082096 -0.39894462 0
0.7381897 -0.48401833 -0.38992381 0
0.81034088 -0.33318806 -0.40069294 0
0.78853226 -0.2463789 -0.40019655 0
0.60598373 -0.43950462 -0.40673804 0
0.89640236 -0.088869095 -0.40035415 0
0.96845055 -0.46908379 -0.39544368 0
0.87845612 -0.40320778 -0.39800096 0
-0.9995079 0.30717754 -0.44565749 0
-0.9477272 0.40686893 -0.45778251 0
-0.88322639 0.48569775 -0.46522927 0
-0.79414558 0.49938869 -0.45286798 0
-0.9696579 0.14410114 -0.42263222 0
-0.8925972 0.21197701 -0.42158937 0
-0.84629822 0.3599472 -0.43772578 0
-0.31531143 0.48134899 -0.42042255 0
-0.98317909 -0.21756172 -0.4104383 0
-0.91735268 -0.13945484 -0.41070056 0
-0.86313057 -0.085924149 -0.41420555 0
-0.76860428 0.039046288 -0.40998316 0
-0.72075653 0.12408257 -0.41647983 0
-0.61974716 0.24069595 -0.40671706 0
-0.4604187 0.33405972 -0.4126997 0
-0.4033947 0.47371483 -0.41570687 0
-0.99149895 -0.10621166 -0.41218615 0
-0.94600677 -0.024377823 -0.41816664 0
-0.85850525 0.043858528 -0.41527033 0
-0.79989624 0.14393806 -0.41379571 0
-0.78215408 0.24609756 -0.41647744 0
-0.99243164 -0.47295189 -0.41287255 0
-0.92230225 -0.40437222 -0.41430521 0
-0.87198067 -0.31412315 -0.40953445 0
-0.79789352 -0.23557186 -0.40816617 0
-0.72686577 -0.14969635 -0.41102982 0
-0.65376854 -0.098688126 -0.41418052 0
-0.63958549 -0.026782036 -0.40882611 0
-0.52295685 0.080436707 -0.40337229 0
-0.55262566 0.13638496 -0.40567875 0
-0.43077087 0.22442627 -0.404073 0
-0.30490303 0.35758877 -0.40667844 0
-0.99599266 -0.27079678 -0.41349483 0
-0.89039993 -0.20681763 -0.40663981 0
-0.8339901 -0.15785885 -0.41129708 0
-0.72688484 -0.059468269 -0.40540266 0
-0.69284439 0.021863937 -0.40719271 0
-0.66861916 0.10189152 -0.41076064 0
-0.54075813 0.22430801 -0.40407395 0
-0.7464695 -0.47162819 -0.41722655 0
-0.64886093 -0.393713 -0.41103911 0
-0.47825432 -0.22641277 -0.41024351 0
-0.47130394 -0.15716171 -0.40557861 0
-0.3549366 -0.050039291 -0.4044168 0
-0.26255226 0.082061768 -0.40579653 0
-0.11646271 0.24968624 -0.40030241 0
-0.11642456 0.3333025 -0.39917016 0
0.025112152 0.39646244 -0.4077003 0
-0.82988739 -0.48803616 -0.41593814 0
-0.7688179 -0.39089584 -0.41520166 0
-0.68259811 -0.33935165 -0.41492462 0
-0.64426613 -0.24977207 -0.40730834 0
-0.59811592 -0.16469669 -0.40760064 0
-0.49298859 -0.095421791 -0.40828252 0
-0.46600533 -0.0025949478 -0.40611291 0
-0.40483284 0.061898232 -0.40574384 0
-0.3842411 0.13711357 -0.40023112 0
-0.29232407 0.21686745 -0.40684509 0
-0.12498283 0.40433598 -0.40575576 0
-0.75765419 -0.29185581 -0.40845895 0
-0.41329384 -0.45222092 -0.4111557 0
-0.15275383 -0.1139679 -0.39744282 0
-0.059452057 -0.020180702 -0.40313101 0
0.078157425 0.17555046 -0.40259552 0
0.27358437 0.40956116 -0.40037775 0
-0.53523445 -0.44797516 -0.40853238 0
-0.41439056 -0.32194805 -0.40472889 0
-0.328722 -0.24005699 -0.40779471 0
-0.32480049 -0.16643238 -0.40586877 0
-0.21285439 -0.069735527 -0.40479469 0
-0.076524734 0.086261749 -0.40380311 0
0.086399078 0.29257774 -0.39671111 0
-0.60745811 -0.42438698 -0.40894485 0
-0.53574753 -0.32720184 -0.40680003 0
-0.31945801 -0.1136055 -0.39803958 0
-0.2554493 -0.023583412 -0.40969849 0
-0.099220276 0.17909336 -0.39978623 0
-0.14153862 0.35478497 -0.1971662 0
-0.069881439 0.46432686 -0.20118213 0
-0.26360893 0.37949944 -0.22091842 0
-0.25770378 0.44988632 -0.21125031 0
0.53958893 0.35175133 -0.40601826 0
-0.20640373 -0.45254707 -0.40062165 0
-0.15501976 -0.35604477 -0.41041303 0
0.011217117 -0.1745882 -0.39903235 0
0.14988136 0.0080413818 -0.39924407 0
0.28188133 0.16062832 -0.40452147 0
0.30032349 0.26595592 -0.4040494 0
0.50749969 0.43178558 -0.40866852 0
-0.36556625 -0.48381233 -0.40883803 0
-0.23982239 -0.3917017 -0.40594363 0
-0.26503754 -0.31804848 -0.40060711 0
-0.15489769 -0.22553158 -0.40180635 0
0.0039253235 -0.072137833 -0.39389586 0
0.14268303 0.12935734 -0.39713979 0
0.31205368 0.35175228 -0.39711499 0
-0.23640442 0.22814465 -0.202214 0
0.61580467 0.1191721 -0.40230536 0
0.83982277 0.37522697 -0.41472006 0
0.20761871 -0.27441788 -0.40420723 0
0.35297966 -0.049755096 -0.40405893 0
0.60074425 0.21993923 -0.41303587 0
0.78728485 0.43527222 -0.41697693 0
-0.078069687 -0.47245598 -0.40069199 0
0.021762848 -0.42918777 -0.40829945 0
0.031341553 -0.31428814 -0.40069842 0
0.18138313 -0.12806797 -0.40098834 0
0.39687347 0.09922123 -0.39699769 0
0.53320122 0.24381542 -0.40120912 0
0.88235283 0.10818577 -0.41154194 0
0.31304932 -0.49773121 -0.40433621 0
0.47584534 -0.315835 -0.40442395 0
0.633955 -0.086421967 -0.40839696 0
0.92295456 0.21780968 -0.40239549 0
0.88035011 0.29634476 -0.41008043 0
0.28680992 -0.38529491 -0.40425205 0
0.43161774 -0.21623611 -0.40415311 0
0.55864906 0.0038585663 -0.41180873 0
0.08344841 -0.46944046 -0.40288401 0
0.42090225 -0.097826004 -0.40062761 0
0.76360512 -0.25296021 -0.39672256 0
0.91726494 -0.052779198 -0.4098947 0
0.48960304 -0.48440361 -0.41041756 0
0.51000023 -0.39299583 -0.39859653 0
0.69187737 -0.19195652 -0.40259624 0
0.90319633 0.032363892 -0.40939593 0
0.81681061 -0.49380302 -0.40591669 0
0.79429436 -0.40806103 -0.41115952 0
0.73203278 -0.35473633 -0.40985203 0
0.99832535 -0.11973667 -0.39900684 0
-0.99914932 0.37154388 -0.45750189 0
-0.9448204 0.47198963 -0.47119856 0
