# .PCD v0.7 - Point Cloud Data file format
VERSION 0.7
FIELDS x y z intensity
SIZE 4 4 4 4
TYPE F F F F
COUNT 1 1 1 1
WIDTH 1284
HEIGHT 1
VIEWPOINT 0 0 0 1 0 0 0
POINTS 1284
DATA ascii
-0.83028507 0.12683296 -0.047388077 0
-0.73929691 0.12913322 -0.090755463 0
-0.97523022 0.21246719 0.018472672 0
-0.91190052 0.22537613 -0.010677338 0
-0.81698608 0.22366905 -0.055332184 0
-0.73506641 0.23027039 -0.093647003 0
-0.99537086 0.32434464 0.0275383 0
-0.91367245 0.31692123 -0.011143684 0
-0.81236553 0.32265663 -0.058714867 0
-0.71602726 0.33137894 -0.10409832 0
-0.67419434 0.30917358 -0.12293243 0
-0.90650654 0.42448425 -0.015489578 0
-0.82566929 0.41998863 -0.052904129 0
-0.73790359 0.41418076 -0.09412384 0
-0.65471554 0.42819023 -0.13423729 0
-0.7269783 -0.47583199 -0.092748642 0
-0.61315918 -0.47169876 -0.14476013 0
-0.5224514 -0.47873116 -0.18706703 0
-0.4418087 -0.46336174 -0.22898769 0
-0.35211372 -0.47922325 -0.2751236 0
-0.28745461 -0.47649193 -0.30963516 0
-0.20766068 -0.47313118 -0.35128021 0
-0.70130539 -0.38996315 -0.10676193 0
-0.63323879 -0.37303162 -0.13691044 0
-0.54101181 -0.36699486 -0.1794796 0
-0.43662643 -0.37119484 -0.23098278 0
-0.34184361 -0.38154411 -0.28048515 0
-0.26341629 -0.38285065 -0.32187462 0
-0.17961311 -0.34778786 -0.36493397 0
-0.71031189 -0.28708458 -0.10396099 0
-0.648036 -0.26616096 -0.1318903 0
-0.53892231 -0.27296066 -0.18184853 0
-0.44393921 -0.27357483 -0.22690105 0
-0.33945942 -0.25237274 -0.28087902 0
-0.24619961 -0.27585983 -0.3296299 0
-0.21519852 -0.23431778 -0.34651089 0
-0.6812458 -0.17683601 -0.1178627 0
-0.62476635 -0.16172791 -0.14373302 0
-0.51923656 -0.16971588 -0.19219208 0
-0.43941975 -0.17799377 -0.22845554 0
-0.35200024 -0.16355133 -0.27388096 0
-0.24349213 -0.16949654 -0.33052254 0
-0.19608974 -0.15380478 -0.35606098 0
-0.71010399 -0.059026718 -0.10330868 0
-0.63232994 -0.063901901 -0.14007568 0
-0.53067112 -0.070068359 -0.18729973 0
-0.44857311 -0.058320999 -0.22508144 0
-0.35914612 -0.074016571 -0.27016163 0
-0.23610497 -0.068429947 -0.33513737 0
-0.15585709 -0.068958282 -0.3775444 0
-0.69183731 0.024291992 -0.11213112 0
-0.63272285 0.038824081 -0.1398325 0
-0.55011463 0.032600403 -0.17811775 0
-0.46221828 0.02482605 -0.21893692 0
-0.34956837 0.016105652 -0.2750597 0
-0.30683231 0.054906845 -0.29732132 0
-0.18481064 0.037380219 -0.36310959 0
-0.67514515 0.13884926 -0.12063408 0
-0.64189911 0.11997795 -0.135849 0
-0.53188801 0.11842346 -0.18778324 0
-0.45452595 0.13261986 -0.22390938 0
-0.35593796 0.13027191 -0.27099419 0
-0.25763416 0.096735001 -0.32308865 0
-0.18257618 0.12535477 -0.36357403 0
-0.12810516 0.14595795 -0.39231491 0
-0.67691231 0.20741081 -0.12043381 0
-0.64735985 0.23024368 -0.13460064 0
-0.53288651 0.21919823 -0.18915558 0
-0.44346523 0.23456192 -0.23032475 0
-0.34840679 0.23904037 -0.27542877 0
-0.25694942 0.19868279 -0.32272339 0
-0.18118 0.25027084 -0.3627758 0
-0.12642384 0.18699074 -0.39267159 0
-0.61974335 0.31595421 -0.14882469 0
-0.55471325 0.33963013 -0.17922115 0
-0.4540472 0.33272362 -0.22633362 0
-0.37848663 0.32559776 -0.2612915 0
-0.26694012 0.328022 -0.3162775 0
-0.17074966 0.30444527 -0.36893749 0
-0.099038124 0.33420753 -0.4107523 0
-0.61373234 0.41981125 -0.15309143 0
-0.56550503 0.43265724 -0.17517185 0
-0.44928265 0.41884422 -0.22990608 0
-0.34887314 0.41504478 -0.27817917 0
-0.26412106 0.45138931 -0.32887936 0
-0.083757401 0.44534492 -0.43399715 0
-0.0017814636 0.38892365 -0.47474957 0
0.037944794 0.44031906 -0.50636387 0
-0.14254189 -0.46364975 -0.38558578 0
-0.078418732 -0.49600601 -0.42082405 0
-0.03219986 -0.45554352 -0.44505215 0
0.090751648 -0.47964096 -0.52349949 0
0.24580956 -0.46144295 -0.61852074 0
0.41549301 -0.47096252 -0.72466946 0
0.63138962 -0.48676491 -0.87202454 0
0.66338539 -0.43458176 -0.88902283 0
-0.11732101 -0.35570335 -0.39787483 0
-0.017539978 -0.3637352 -0.44995308 0
0.11117363 -0.38528633 -0.53068829 0
0.25875759 -0.35559464 -0.62187672 0
0.41798782 -0.38069344 -0.72489357 0
0.67673397 -0.37407303 -0.89656067 0
-0.14816856 -0.28657341 -0.38052464 0
-0.081579208 -0.26352119 -0.41598415 0
0.0026226044 -0.29943657 -0.45955849 0
0.086572647 -0.28357887 -0.51546764 0
0.25851536 -0.25360107 -0.62261391 0
0.46339321 -0.27606964 -0.74911308 0
0.68338776 -0.27894974 -0.90090752 0
-0.14418983 -0.20205879 -0.3821516 0
-0.099081039 -0.18580055 -0.40668488 0
0.0032730103 -0.17988777 -0.46036243 0
0.14872265 -0.19687843 -0.54763031 0
0.27495193 -0.15350723 -0.63267326 0
0.45792961 -0.19395065 -0.74768543 0
0.48427486 -0.135355 -0.76206493 0
0.69203377 -0.19499588 -0.90593147 0
0.72281647 -0.13460159 -0.92182255 0
-0.083003998 -0.07440567 -0.4162426 0
-0.010879517 -0.08638382 -0.45441914 0
0.10943604 -0.065940857 -0.52580166 0
0.26558113 -0.019519806 -0.62787247 0
0.3218174 -0.08111763 -0.65752316 0
0.46944809 -0.079511642 -0.75543118 0
0.50481224 -0.026313782 -0.77414417 0
0.68121719 -0.067876816 -0.90100765 0
-0.070800781 0.041175842 -0.42388916 0
0.018219948 0.026042938 -0.47060013 0
0.10881805 0.051900864 -0.5225544 0
0.29695988 0.033313751 -0.64225864 0
0.4899025 0.037031174 -0.76739311 0
0.74102879 0.018789291 -0.93366146 0
-0.062121391 0.12927055 -0.42892551 0
0.010227203 0.14621735 -0.46795559 0
0.085292816 0.12935638 -0.50862885 0
0.13638401 0.17002869 -0.53446579 0
0.27778244 0.10945511 -0.6305685 0
0.33250904 0.18199348 -0.65864944 0
0.44150734 0.14262962 -0.70629787 0
0.4821167 0.087928772 -0.76214409 0
0.74254417 0.11294746 -0.94217396 0
-0.059023857 0.22006607 -0.42951965 0
-0.00055027008 0.24020767 -0.46192455 0
0.11570644 0.22636795 -0.52452946 0
0.17944527 0.2787056 -0.56664181 0
0.3239193 0.25224113 -0.6013546 0
0.37698746 0.21478462 -0.66568184 0
-0.41745281 0.35215759 -0.16984081 0
0.038877487 0.31467628 -0.48922539 0
0.096689224 0.36812782 -0.53114414 0
0.22289658 0.35749435 -0.55676746 0
0.26876545 0.30937004 -0.58888054 0
-0.52508259 0.37542343 -0.077225685 0
-0.47416019 0.40996933 -0.11441994 0
-0.43808365 0.46132469 -0.14831924 0
0.12039471 0.46726608 -0.50579929 0
0.16171837 0.41410255 -0.54146194 0
-0.49229622 0.48921967 -0.082539558 0
0.4439621 0.14783478 -0.66076183 0
0.39814377 0.22919655 -0.57337093 0
0.44902134 0.19433594 -0.61725235 0
0.26417351 0.37525558 -0.50445461 0
0.31337833 0.31903458 -0.52119255 0
0.39561653 0.28359222 -0.53480339 0
0.17439842 0.47786903 -0.46932602 0
0.24342155 0.42629242 -0.46578789 0
0.40601158 0.24974823 -0.49357033 0
0.47220039 0.21750259 -0.50315571 0
0.47992325 0.20105171 -0.57203293 0
0.3801403 0.3182373 -0.45588779 0
0.44873047 0.29063416 -0.44466305 0
0.31307983 0.41945839 -0.40940857 0
0.37737179 0.40450287 -0.39124775 0
0.51136589 0.24424362 -0.42795753 0
0.45290089 0.3306427 -0.39324951 0
0.51925659 0.30132103 -0.38739872 0
0.40449905 0.45088577 -0.29863358 0
0.43253613 0.4053936 -0.35177135 0
0.53293037 0.34336853 -0.32494736 0
0.62398338 0.31040001 -0.40157127 0
0.44226742 0.43498611 -0.21591854 0
0.46041584 0.39694405 -0.26933098 0
0.46225071 0.4367466 -0.16992664 0
0.50939465 0.40620041 -0.18082905 0
0.54230499 0.47351074 -0.14911366 0
-0.94598484 -0.34915161 0.0027284622 0
-0.95131207 -0.26132393 0.0051002502 0
-0.94416904 -0.14762878 0.0028276443 0
-0.9325037 -0.063899994 -0.0016975403 0
-0.9294672 0.031625748 -0.0019721985 0
-0.92312336 0.14121819 -0.0060625076 0
-0.93700123 0.24462891 -0.00068664551 0
-0.93674278 0.33225822 -0.0011320114 0
-0.92215443 0.43536568 -0.0094490051 0
-0.87508678 0.4979229 -0.032624245 0
-0.9114933 -0.47153282 -0.010452271 0
-0.8290844 -0.45922852 -0.048101425 0
-0.72534561 -0.44985962 -0.095551491 0
-0.64921951 -0.47530556 -0.1299572 0
-0.54495716 -0.44688797 -0.17856979 0
-0.89691257 -0.38059807 -0.017996788 0
-0.84201241 -0.35605621 -0.044372559 0
-0.73437595 -0.36260033 -0.092991829 0
-0.63062286 -0.35517883 -0.139925 0
-0.56041908 -0.32626915 -0.17208195 0
-0.89557076 -0.2674675 -0.020724297 0
-0.83045197 -0.25325775 -0.050392151 0
-0.74455929 -0.26158333 -0.089975357 0
-0.64866257 -0.25975037 -0.13340092 0
-0.53804016 -0.25452042 -0.18379784 0
-0.90051842 -0.17645073 -0.018316269 0
-0.83424473 -0.16353035 -0.048545837 0
-0.74206257 -0.15009117 -0.091308594 0
-0.64519119 -0.16314697 -0.13532639 0
-0.55740452 -0.16635704 -0.17754078 0
-0.49214745 -0.15474129 -0.20684624 0
-0.88879013 -0.057466507 -0.022179604 0
-0.82740784 -0.05887413 -0.050744057 0
-0.72768021 -0.051504135 -0.097583771 0
-0.646101 -0.057750702 -0.13484669 0
-0.54971695 -0.056526184 -0.17976093 0
-0.84261417 0.0527668 -0.04329586 0
-0.75442982 0.031932831 -0.084400177 0
-0.653018 0.035129547 -0.13252163 0
-0.54856205 0.027931213 -0.18095016 0
-0.46015072 0.069807053 -0.22409058 0
-0.88392925 0.13812828 -0.023978233 0
-0.8261261 0.12964249 -0.051001549 0
-0.73911858 0.1360836 -0.091821671 0
-0.6443615 0.13976669 -0.13637924 0
-0.55965519 0.13050652 -0.17692184 0
-0.49529743 0.13417053 -0.20678425 0
-0.89834499 0.19076729 -0.017179489 0
-0.84033775 0.22507095 -0.045390129 0
-0.72748089 0.23890114 -0.099323273 0
-0.65169525 0.25084686 -0.13450336 0
-0.56029987 0.23517036 -0.1774168 0
-0.4755106 0.23274231 -0.21773338 0
-0.83486462 0.32925415 -0.049037933 0
-0.74132919 0.3429966 -0.093318939 0
-0.62984753 0.34312248 -0.14657021 0
-0.5624733 0.34243393 -0.177845 0
-0.45916653 0.33607674 -0.22703075 0
-0.81927299 0.44120789 -0.057724953 0
-0.73388863 0.4309864 -0.097586632 0
-0.64472485 0.43958664 -0.13954926 0
-0.56578922 0.45423126 -0.17703629 0
-0.45770836 0.44325256 -0.22872066 0
-0.4491806 -0.46222115 -0.22829247 0
-0.33893585 -0.4656105 -0.28620052 0
-0.2762146 -0.45853233 -0.3194828 0
-0.18689346 -0.45852089 -0.36580753 0
-0.039543152 -0.42835808 -0.44467258 0
0.074762344 -0.43673325 -0.51799202 0
-0.50399017 -0.37427902 -0.19874287 0
-0.46366787 -0.36074448 -0.22000027 0
-0.36995029 -0.3627491 -0.26929951 0
-0.28471279 -0.3332634 -0.31411743 0
-0.15431595 -0.33565331 -0.38230419 0
-0.1183548 -0.39764023 -0.40078735 0
-0.028015137 -0.33213234 -0.4479847 0
0.090299606 -0.3359108 -0.5220871 0
-0.44224262 -0.2587738 -0.23038578 0
-0.38327408 -0.24955368 -0.26152611 0
-0.29386711 -0.2518177 -0.30807018 0
-0.1911478 -0.27037239 -0.36225605 0
-0.11705971 -0.24966431 -0.4007616 0
-0.026042938 -0.23292923 -0.44861412 0
0.068149567 -0.23332787 -0.50869274 0
-0.46639919 -0.15398216 -0.21765804 0
-0.38377285 -0.16016388 -0.26084423 0
-0.27725792 -0.16387749 -0.31605053 0
-0.21734047 -0.1643734 -0.34801769 0
-0.10773373 -0.17738914 -0.40542221 0
-0.031129837 -0.13578987 -0.44696045 0
0.10130596 -0.15714264 -0.52613163 0
-0.43797207 -0.072912216 -0.23191738 0
-0.36085129 -0.057020187 -0.27248478 0
-0.28479862 -0.051261902 -0.31287479 0
-0.21458721 -0.053985596 -0.35046959 0
-0.11705303 -0.055217743 -0.40210724 0
-0.021894455 -0.033269882 -0.45297337 0
0.091362953 -0.052171707 -0.51860809 0
-0.43892384 0.012140274 -0.23208809 0
-0.37963104 0.057107925 -0.26255131 0
-0.28741169 0.06133461 -0.3118 0
-0.20382118 0.060873032 -0.35707664 0
-0.094399452 0.060190201 -0.41508198 0
-0.0050582886 0.067838669 -0.46281147 0
0.061390877 0.056879044 -0.50070286 0
-0.42465687 0.13656425 -0.2403698 0
-0.36329937 0.13760757 -0.26980495 0
-0.29240513 0.15101624 -0.30825996 0
-0.19013405 0.15311623 -0.36329651 0
-0.093833923 0.15814018 -0.41552448 0
0.0023698807 0.1659565 -0.46756172 0
0.074818611 0.13150978 -0.50637436 0
-0.42378139 0.24141121 -0.24174786 0
-0.34625053 0.2451458 -0.27873516 0
-0.27789688 0.23850441 -0.31453991 0
-0.1892004 0.24340057 -0.36270809 0
-0.09971714 0.25647163 -0.41140938 0
-0.0098714828 0.26400948 -0.46063328 0
0.08952713 0.23206329 -0.51485062 0
-0.4860611 0.32999992 -0.1233902 0
-0.37904072 0.35264969 -0.2643013 0
-0.29153347 0.3076973 -0.30680466 0
-0.18196487 0.33870316 -0.36519051 0
-0.10512638 0.36001205 -0.41344547 0
0.0440588 0.34693336 -0.49983597 0
0.15717983 0.35239029 -0.56853867 0
-0.53730583 0.42846489 -0.06176281 0
-0.48164463 0.43203926 -0.11610508 0
-0.34091663 0.42009354 -0.28309917 0
-0.31883717 0.47097015 -0.30413818 0
-0.15430737 0.4184227 -0.38951015 0
-0.15250206 0.48045731 -0.40293789 0
-0.03011322 0.44250107 -0.47001553 0
0.095141411 0.44573975 -0.53170109 0
0.13316441 0.4217205 -0.54765606 0
0.25979233 -0.44761467 -0.63122749 0
0.41967392 -0.44387245 -0.73763943 0
0.73695374 -0.43257523 -0.94991779 0
0.24490547 -0.35851097 -0.62043381 0
0.44901657 -0.3598156 -0.75182724 0
0.47790527 -0.2989006 -0.76680279 0
0.74998665 -0.32425117 -0.95723343 0
0.24368858 -0.24768829 -0.62017441 0
0.49452686 -0.24372864 -0.77545261 0
0.77205467 -0.23251343 -0.96880054 0
0.28042984 -0.13710403 -0.6405592 0
0.48100662 -0.1475296 -0.76877403 0
0.75354099 -0.12753296 -0.95967197 0
0.28374481 -0.0020809174 -0.64178562 0
0.3084116 -0.059562683 -0.65567875 0
0.446908 -0.062416077 -0.75181675 0
0.48980713 -0.0022239685 -0.77448368 0
0.75473213 -0.061384201 -0.96033573 0
0.79441643 0.00064849854 -0.98294353 0
0.28259277 0.05689621 -0.63963699 0
0.48383236 0.056306839 -0.77220631 0
0.80678558 0.062810898 -0.99487019 0
0.25617599 0.13794899 -0.62405968 0
0.4221487 0.1686306 -0.67614651 0
0.50631714 0.11787415 -0.78667736 0
0.86307335 0.13551331 -1.0305567 0
0.30967426 0.28040886 -0.59722328 0
0.35214043 0.23192596 -0.63866138 0
0.21442223 0.37593842 -0.53126049 0
0.2687397 0.33493423 -0.56149197 0
0.10848618 0.47081947 -0.4930706 0
0.19376945 0.44069672 -0.49349689 0
0.44718456 0.1734333 -0.62304688 0
0.37090874 0.27659798 -0.50786877 0
0.39372063 0.24325943 -0.56561089 0
0.48863888 0.21206665 -0.56547737 0
0.26355457 0.37948608 -0.44591522 0
0.32582378 0.33896637 -0.48471642 0
0.25977039 0.45142365 -0.43658257 0
0.31484318 0.41436195 -0.43454456 0
0.45956993 0.25384712 -0.47049713 0
0.3995266 0.35672569 -0.41657925 0
0.45592499 0.32030678 -0.43259048 0
0.32959747 0.46919823 -0.36534309 0
0.35212708 0.42652702 -0.3943615 0
0.50018311 0.28236389 -0.38781261 0
0.44804192 0.38672638 -0.33057785 0
0.50773239 0.33223724 -0.36896038 0
0.39149475 0.46395683 -0.25452805 0
0.42432499 0.43797684 -0.33921242 0
0.49375153 0.37800598 -0.27301502 0
0.45016289 0.44954681 -0.19301605 0
0.45065403 0.42356873 -0.25644207 0
0.51144028 0.47121239 -0.1456604 0
-0.91513729 -0.46224022 0.00018501282 0
-0.83191204 -0.46105194 -0.037669182 0
-0.73450089 -0.49311256 -0.083071709 0
-0.93291473 -0.37327957 0.0067625046 0
-0.83295441 -0.3613224 -0.038251877 0
-0.72276878 -0.36336708 -0.089489937 0
-0.93299675 -0.26862907 0.0066108704 0
-0.83694839 -0.26924515 -0.038444519 0
-0.72789288 -0.27176476 -0.088470459 0
-0.91379547 -0.16633987 -0.0021905899 0
-0.82664967 -0.18186188 -0.042579651 0
-0.73701191 -0.16199684 -0.084618568 0
-0.68460655 -0.17800522 -0.10904598 0
-0.9149332 -0.05207634 -0.00028991699 0
-0.82008457 -0.060876846 -0.04547596 0
-0.73099422 -0.058843613 -0.086544037 0
-0.68550491 -0.10124969 -0.10801792 0
-0.93919754 0.028799057 0.012495041 0
-0.83782673 0.032501221 -0.036093712 0
-0.74037266 0.040273666 -0.081633568 0
-0.68719196 0.061418533 -0.10676956 0
-0.94120598 0.13298607 0.012499809 0
-0.83499908 0.11728859 -0.037560463 0
-0.73182678 0.12742805 -0.086719513 0
-0.66239262 0.13767624 -0.12006855 0
-0.99487782 0.22081566 0.036133766 0
-0.90177345 0.24111366 -0.008351326 0
-0.83078098 0.23162842 -0.041145325 0
-0.72421074 0.23325729 -0.090847015 0
-0.68464279 0.18558121 -0.10921288 0
-0.93020535 0.33199692 0.0045375824 0
-0.83448219 0.33472252 -0.039731979 0
-0.74255085 0.32168198 -0.084176064 0
-0.67655182 0.34336281 -0.11562634 0
-0.98835754 0.41232872 0.030940056 0
-0.92813396 0.44718361 0.0026712418 0
-0.83604336 0.41914558 -0.040517807 0
-0.74494934 0.45400047 -0.084414482 0
-0.68597698 0.43422508 -0.11106968 0
-0.70099926 -0.45587158 -0.098966599 0
-0.62672997 -0.46867943 -0.13225651 0
-0.54627514 -0.46603012 -0.16827583 0
-0.46776676 -0.47628021 -0.20869827 0
-0.35625362 -0.45299721 -0.2670927 0
-0.63940334 -0.37079239 -0.12639141 0
-0.53744125 -0.36763763 -0.17350101 0
-0.45404053 -0.34272766 -0.21508789 0
-0.34958076 -0.37327003 -0.2701292 0
-0.62593079 -0.26198006 -0.13494587 0
-0.51150608 -0.25259972 -0.18799591 0
-0.43828773 -0.26230049 -0.22220325 0
-0.36132717 -0.2789669 -0.26323795 0
-0.290658 -0.23286057 -0.29984474 0
-0.61929607 -0.16444206 -0.13832474 0
-0.53310585 -0.15711212 -0.17802906 0
-0.45926476 -0.17168045 -0.21184063 0
-0.36847878 -0.16641426 -0.25909901 0
-0.25350285 -0.15743446 -0.31923771 0
-0.63266945 -0.059185028 -0.13149643 0
-0.54600906 -0.069835663 -0.17247581 0
-0.46543503 -0.057008743 -0.2095623 0
-0.36992741 -0.060007095 -0.25775337 0
-0.28152847 -0.069810867 -0.30484867 0
-0.22807312 -0.048305511 -0.33416462 0
-0.61134529 0.03909111 -0.14295673 0
-0.55953789 0.042715073 -0.16636753 0
-0.46673679 0.042886734 -0.21084499 0
-0.36412716 0.078952789 -0.25963211 0
-0.28761005 0.031927109 -0.30131531 0
-0.21586609 0.047210693 -0.34156322 0
-0.63535404 0.12680626 -0.13153172 0
-0.53473759 0.13421822 -0.17940712 0
-0.46283913 0.14445496 -0.21241665 0
-0.35511494 0.14792824 -0.26450825 0
-0.27124214 0.15405655 -0.3091526 0
-0.21972847 0.12335587 -0.33879566 0
-0.63348675 0.21147346 -0.13326359 0
-0.57198906 0.24475479 -0.16312981 0
-0.46339703 0.23299408 -0.21419716 0
-0.3485651 0.23935509 -0.26863194 0
-0.30071735 0.25120354 -0.2931757 0
-0.61747551 0.32061577 -0.14246368 0
-0.55568409 0.33621025 -0.17176151 0
-0.46940422 0.31940079 -0.2119503 0
-0.39825344 0.34211349 -0.24521732 0
-0.29706955 0.32324219 -0.29418373 0
-0.21808529 0.32097816 -0.33742142 0
-0.6180172 0.40405655 -0.14304543 0
-0.54843712 0.42646408 -0.1759119 0
-0.44848061 0.44242668 -0.2244339 0
-0.35975742 0.40372467 -0.26444817 0
-0.33046627 0.46377563 -0.29013157 0
-0.19936275 0.44415855 -0.36183834 0
-0.14237022 0.4640789 -0.3990221 0
-0.53465652 0.49875641 -0.18599415 0
-0.24786758 -0.46604347 -0.3240366 0
-0.19163513 -0.45770264 -0.35430622 0
-0.08156395 -0.42287064 -0.41280174 0
0.0033550262 -0.49223137 -0.46099567 0
0.12881279 -0.46075821 -0.54270554 0
0.29136276 -0.44553185 -0.64305305 0
-0.24061394 -0.34741211 -0.32719231 0
-0.18118858 -0.38173866 -0.3583374 0
-0.026689529 -0.35009193 -0.44063473 0
0.14292908 -0.37175751 -0.54634476 0
0.32085991 -0.36167717 -0.65552711 0
-0.2271986 -0.30872345 -0.3338089 0
-0.1864996 -0.28068542 -0.35520172 0
-0.12981987 -0.23921394 -0.38461399 0
-0.00099372864 -0.24905777 -0.45199966 0
0.16651726 -0.26438904 -0.55629444 0
0.3084507 -0.26432419 -0.650774 0
-0.17591763 -0.1583004 -0.35927105 0
-0.084878922 -0.13872528 -0.40808773 0
-0.0019168854 -0.14022636 -0.452672 0
0.1653595 -0.15298843 -0.55687237 0
0.32286263 -0.14513969 -0.65994644 0
-0.22831154 -0.10804939 -0.33326912 0
-0.099042892 -0.058872223 -0.40191936 0
0.0053930283 -0.037023544 -0.45774841 0
0.15504646 -0.062839508 -0.5500412 0
0.35260391 -0.056390762 -0.67638206 0
-0.21018887 -0.0084838867 -0.34377766 0
-0.095944405 0.022443771 -0.4045496 0
0.027612686 0.042245865 -0.47008705 0
0.10533524 -0.0017929077 -0.52350616 0
0.12395287 0.059532166 -0.53129578 0
0.34678268 0.039335251 -0.67159462 0
0.58197975 0.08325386 -0.83316326 0
-0.17354393 0.18807983 -0.36142063 0
-0.10486794 0.12783623 -0.40077686 0
0.030064583 0.1504879 -0.47272968 0
0.03958416 0.09645462 -0.47686863 0
0.14947891 0.13171387 -0.54220772 0
0.34323025 0.12853241 -0.66745758 0
0.37622833 0.185812 -0.68769836 0
-0.19644547 0.24422455 -0.34922314 0
-0.095891953 0.23047066 -0.40422249 0
-0.0081663132 0.21404839 -0.45305634 0
0.045742989 0.26542282 -0.47973824 0
0.18840313 0.24091148 -0.56507587 0
0.31178284 0.24229813 -0.63811874 0
-0.48636436 0.35194016 -0.11985683 0
-0.070281982 0.33302879 -0.42166519 0
0.094714165 0.35264778 -0.52396679 0
0.19580269 0.36768341 -0.55473042 0
0.21377468 0.32242012 -0.57930851 0
-0.48805237 0.42246437 -0.084950447 0
-0.44770432 0.46889114 -0.1168232 0
-0.00918293 0.4564991 -0.47906399 0
0.097258568 0.47541237 -0.49688244 0
0.15798283 0.42883301 -0.51337242 0
0.57653618 -0.45051003 -0.82570076 0
0.98851204 -0.43910027 -1.112237 0
0.57800865 -0.35754204 -0.82681465 0
0.99038887 -0.32721519 -1.1101589 0
0.57838249 -0.25457191 -0.82728958 0
0.97516727 -0.20456886 -1.0990057 0
0.57705784 -0.15625 -0.82681847 0
0.97663307 -0.1397686 -1.097826 0
0.58432865 -0.051687241 -0.83060551 0
0.99104881 -0.030506134 -1.106678 0
0.60700226 0.0070877075 -0.84210491 0
0.41820431 0.17885208 -0.62357998 0
0.41794109 0.15374565 -0.68360806 0
0.30729485 0.29107857 -0.55239773 0
0.35894585 0.23810196 -0.59379578 0
0.23373032 0.3765831 -0.49252605 0
0.28713131 0.33990097 -0.51056385 0
0.15355396 0.45179176 -0.46793652 0
0.19011402 0.429842 -0.4594059 0
0.47293091 0.1796627 -0.54928398 0
0.46278381 0.17959976 -0.59615803 0
0.36012459 0.29279327 -0.48040485 0
0.42126274 0.23689079 -0.50840378 0
0.31322098 0.37527084 -0.42399311 0
0.35449982 0.34222221 -0.43426418 0
0.27538204 0.42485237 -0.41237545 0
0.45181942 0.29027557 -0.41198444 0
0.49986267 0.24897385 -0.42819405 0
0.41766548 0.33473396 -0.38180637 0
0.34950829 0.44108391 -0.35413933 0
0.41070938 0.41534996 -0.33555222 0
0.49050713 0.3472023 -0.31205273 0
0.54708004 0.30268097 -0.36982346 0
0.40653801 0.4372673 -0.24245644 0
0.44288445 0.39940834 -0.29279041 0
0.46585751 0.42568588 -0.17279816 0
-0.92272282 -0.45825577 0.0029582977 0
-0.85396194 -0.41828346 -0.030056953 0
-0.92629337 -0.35617638 0.0016012192 0
-0.83097458 -0.34996986 -0.041425705 0
-0.94241619 -0.25046158 0.0089931488 0
-0.85537624 -0.25966644 -0.031142235 0
-0.78490734 -0.21633339 -0.063585281 0
-0.92216015 -0.15830803 0.0004863739 0
-0.83146095 -0.14544296 -0.041913986 0
-0.93385792 -0.054712296 0.0071115494 0
-0.83954811 -0.063755035 -0.037286758 0
-0.78897285 -0.041664124 -0.060381889 0
-0.94180202 0.043945312 0.011963844 0
-0.85377598 0.037666321 -0.030380249 0
-0.94568825 0.14971924 0.012562752 0
-0.85436535 0.13265228 -0.030244827 0
-0.94676018 0.23573112 0.012067795 0
-0.84190845 0.25116348 -0.037947655 0
-0.77947903 0.229105 -0.066384315 0
-0.93206501 0.33826256 0.0041399002 0
-0.81390762 0.35857391 -0.051363945 0
-0.78964329 0.35485649 -0.063661575 0
-0.95466995 0.44436455 0.01313591 0
-0.86180782 0.44329453 -0.03018856 0
-0.78111553 0.46846962 -0.068152428 0
-0.79702473 -0.42867661 -0.055781364 0
-0.76055145 -0.46458054 -0.071780205 0
-0.65432358 -0.44829941 -0.12009811 0
-0.54546833 -0.44634628 -0.17016697 0
-0.47442436 -0.46396637 -0.20767403 0
-0.74044228 -0.3569088 -0.08267498 0
-0.64413738 -0.34109306 -0.12702942 0
-0.57280922 -0.33712387 -0.15844345 0
-0.46768856 -0.33856964 -0.21045589 0
-0.39675999 -0.3921833 -0.24812126 0
-0.74827385 -0.25013351 -0.080386162 0
-0.65462875 -0.25172043 -0.12270355 0
-0.56395626 -0.24881744 -0.16394997 0
-0.43362904 -0.24481583 -0.227211 0
-0.75076771 -0.16297531 -0.079677582 0
-0.65104675 -0.15596581 -0.12593651 0
-0.56234741 -0.14121056 -0.1662941 0
-0.47180462 -0.14657402 -0.2086153 0
-0.40653515 -0.14114571 -0.24152184 0
-0.7382412 -0.050453186 -0.08464241 0
-0.6632185 -0.063667297 -0.11940193 0
-0.57075596 -0.027450562 -0.16331196 0
-0.48409748 -0.03320694 -0.20354652 0
-0.4175806 -0.011760712 -0.23565769 0
-0.74369907 0.058292389 -0.081813812 0
-0.64725208 0.046167374 -0.12744045 0
-0.57321262 0.063014984 -0.16178226 0
-0.48852444 0.09709549 -0.20196915 0
-0.3984127 0.049736023 -0.24564648 0
-0.74304295 0.13819122 -0.083996773 0
-0.67523766 0.15048599 -0.11524582 0
-0.59708786 0.16275215 -0.15146732 0
-0.47018147 0.16372681 -0.21191311 0
-0.37302303 0.10739326 -0.25770378 0
-0.73398781 0.25468445 -0.088254929 0
-0.63227177 0.24687004 -0.13697815 0
-0.58074379 0.25687599 -0.16069412 0
-0.49751663 0.26199913 -0.2003603 0
-0.4029541 0.25294304 -0.24420166 0
-0.71844959 0.34594727 -0.096344948 0
-0.67193699 0.34289551 -0.11887741 0
-0.56520844 0.34635925 -0.16949654 0
-0.48997116 0.35439301 -0.20416641 0
-0.40242958 0.35784721 -0.24503231 0
-0.73061562 0.44724083 -0.092033386 0
-0.66704655 0.48074532 -0.12175751 0
-0.59267235 0.43096733 -0.15728474 0
-0.50301456 0.45503807 -0.19983387 0
-0.39849949 0.45382881 -0.25285816 0
-0.31910038 0.4721756 -0.29870605 0
-0.35486412 -0.49474525 -0.26982594 0
-0.3565855 -0.44685936 -0.26872253 0
-0.30395699 -0.43096352 -0.2971077 0
-0.17473984 -0.45350456 -0.36455059 0
-0.090995789 -0.43618774 -0.40982819 0
0.067991257 -0.42048073 -0.5073185 0
-0.37070084 -0.31724739 -0.26092434 0
-0.27856922 -0.33403778 -0.30945683 0
-0.17080879 -0.34654808 -0.36598969 0
-0.068365097 -0.35674477 -0.41998291 0
0.067502975 -0.33193207 -0.50302792 0
-0.37196827 -0.24375916 -0.25990295 0
-0.26555252 -0.23022842 -0.3154974 0
-0.1977911 -0.23310089 -0.35173512 0
-0.086265564 -0.2426815 -0.41031837 0
0.081205368 -0.24909592 -0.50744629 0
-0.25640011 -0.12410927 -0.31995201 0
-0.17381191 -0.12797928 -0.36414623 0
-0.083687782 -0.13534164 -0.41245937 0
0.083896637 -0.13422966 -0.50758743 0
-0.35169697 -0.045413971 -0.2697525 0
-0.27101994 -0.048158646 -0.31331444 0
-0.16841316 -0.045612335 -0.36789894 0
-0.11360645 0.0075588226 -0.39771175 0
-0.028323174 -0.054704666 -0.44161606 0
0.089988708 -0.041082382 -0.50758266 0
-0.26435375 0.031858444 -0.31724453 0
-0.15606689 0.059782028 -0.37546158 0
-0.038985252 0.085569382 -0.43790436 0
0.054940224 0.04886055 -0.48804188 0
-0.3624258 0.15470505 -0.26255131 0
-0.27014542 0.13772392 -0.31322479 0
-0.14406395 0.13798141 -0.38111115 0
-0.0034389496 0.16735077 -0.45636845 0
0.080661774 0.16165161 -0.50216293 0
-0.26447105 0.24107742 -0.31483364 0
-0.16836929 0.22481537 -0.36778069 0
-0.11077213 0.25849915 -0.39875793 0
-0.032928467 0.28499985 -0.44004726 0
0.068868637 0.25777817 -0.49638557 0
-0.49061489 0.37073708 -0.1093359 0
-0.4656496 0.33377647 -0.13519287 0
-0.30083084 0.3225441 -0.29545212 0
-0.18108463 0.33536339 -0.35999393 0
-0.1380167 0.39069557 -0.39121342 0
-0.0090637207 0.35224342 -0.46369076 0
0.11069202 0.35701752 -0.53703022 0
-0.49234962 0.47121429 -0.078920364 0
-0.21257019 0.49262047 -0.36392212 0
-0.066308022 0.45377922 -0.44269753 0
0.02726841 0.4552002 -0.49890614 0
0.10175323 0.45913696 -0.51606083 0
0.26243782 -0.44933891 -0.62922955 0
0.54480553 -0.42506409 -0.81044674 0
0.98949051 -0.44164658 -1.1185665 0
0.26491547 -0.32471466 -0.62673855 0
0.54728889 -0.31777191 -0.81047726 0
0.94862843 -0.31942749 -1.0911064 0
0.31264305 -0.23989868 -0.65146255 0
0.52956581 -0.24905777 -0.80072308 0
0.56608963 -0.18629837 -0.81842422 0
0.94228745 -0.19753456 -1.0804453 0
0.26604652 -0.16002083 -0.62840176 0
0.27720451 -0.10615158 -0.63446808 0
0.5351963 -0.11471176 -0.80187702 0
0.92066383 -0.12647438 -1.0653105 0
0.2732048 0.019042969 -0.63025284 0
0.29650116 -0.04365921 -0.6440897 0
0.54402542 -0.053466797 -0.80553341 0
0.89202785 -0.04393959 -1.0501385 0
0.25541687 0.08322525 -0.61907959 0
0.51824188 0.059387207 -0.79195213 0
0.97889423 0.072376251 -1.1046 0
0.27226734 0.13899612 -0.62558746 0
0.328866 0.21125793 -0.62824631 0
0.40856171 0.1674614 -0.67387104 0
0.28775215 0.27032089 -0.59613132 0
0.29782104 0.27104568 -0.60063553 0
0.17978573 0.3842411 -0.50853348 0
0.25774193 0.32646561 -0.56356812 0
0.11355972 0.47583199 -0.45440388 0
0.16239262 0.45117188 -0.48379135 0
0.39763451 0.21339607 -0.56141376 0
0.46254921 0.15053177 -0.64726067 0
0.32993603 0.27848434 -0.51053238 0
0.37849426 0.24448967 -0.54364204 0
0.25045204 0.38502121 -0.46198654 0
0.30179024 0.33992958 -0.47168732 0
0.22433949 0.46613312 -0.41841888 0
0.48147774 0.21352386 -0.49549675 0
0.50145245 0.20009995 -0.54078197 0
0.40195084 0.2728672 -0.44106197 0
0.4306345 0.27001762 -0.4567337 0
0.36554146 0.35679054 -0.40804958 0
0.29258633 0.47433853 -0.34447002 0
0.5010891 0.2671566 -0.40408897 0
0.43202686 0.37588501 -0.33048439 0
0.49616623 0.32962227 -0.36031055 0
0.36022854 0.47805977 -0.24246979 0
0.38867664 0.44076347 -0.32202435 0
0.47273731 0.38079834 -0.22980213 0
0.53188705 0.33278084 -0.3292017 0
0.41741371 0.46962547 -0.17446327 0
0.493927 0.47631454 -0.13322544 0
-0.95930862 -0.46165848 0.02041626 0
-0.87745953 -0.4278183 -0.020082474 0
-0.93011284 -0.34056473 0.0038471222 0
-0.92198849 -0.24279976 0.00033092499 0
-0.93327618 -0.15360069 0.0066509247 0
-0.95399189 -0.048208237 0.017615318 0
-0.88736439 -0.048521042 -0.014885902 0
-0.93245316 0.060066223 0.0081548691 0
-0.87220955 0.0023937225 -0.019813538 0
-0.94771385 0.15652084 0.013604164 0
-0.85592842 0.11743355 -0.030438423 0
-0.94669342 0.24956703 0.01129818 0
-0.88138008 0.23539162 -0.018778801 0
-0.95805168 0.34103966 0.016751289 0
-0.8848238 0.34942436 -0.017752647 0
-0.9692812 0.45018005 0.021143913 0
-0.88730621 0.45668411 -0.018353462 0
-0.83181667 -0.45223045 -0.038191795 0
-0.75570488 -0.4343853 -0.073242188 0
-0.63051891 -0.47351456 -0.13006592 0
-0.5946312 -0.4230423 -0.14627647 0
-0.50417995 -0.43001747 -0.1909399 0
-0.82726192 -0.34927368 -0.042369843 0
-0.75728416 -0.34616852 -0.074127197 0
-0.66138649 -0.35272408 -0.11845303 0
-0.56385517 -0.31305313 -0.162076 0
-0.50925159 -0.34584045 -0.18790436 0
-0.83730793 -0.23960304 -0.038034439 0
-0.75836182 -0.25057411 -0.074796677 0
-0.67565918 -0.28850937 -0.1126442 0
-0.57831573 -0.23091888 -0.15835285 0
-0.49332714 -0.24909782 -0.19628048 0
-0.83515263 -0.16113853 -0.039441109 0
-0.75700188 -0.15190506 -0.075670242 0
-0.66301155 -0.15259361 -0.11913967 0
-0.55250645 -0.14648056 -0.16974831 0
-0.49307156 -0.11977386 -0.19802856 0
-0.83392715 -0.074842453 -0.039587021 0
-0.75564289 -0.066757202 -0.075434685 0
-0.67012119 -0.014852524 -0.11511803 0
-0.57866669 -0.020816803 -0.1576395 0
-0.49282742 -0.039142609 -0.19831467 0
-0.82117462 0.058095932 -0.045460701 0
-0.78755665 0.047241211 -0.060316086 0
-0.67982483 0.072900772 -0.11114788 0
-0.56212711 0.076572418 -0.16685963 0
-0.49126339 0.036518097 -0.19984818 0
-0.83200359 0.1518364 -0.040676117 0
-0.76763725 0.15926743 -0.070453644 0
-0.67117119 0.18061829 -0.11620998 0
-0.55218506 0.17542076 -0.17292309 0
-0.50170994 0.13518524 -0.19551754 0
-0.82010841 0.26261902 -0.047927856 0
-0.79236031 0.24390411 -0.060378075 0
-0.68029022 0.25428581 -0.11325741 0
-0.57288074 0.28166389 -0.16446209 0
-0.47882652 0.24238586 -0.20824623 0
-0.83338261 0.35296249 -0.042206764 0
-0.75625324 0.34734917 -0.078299522 0
-0.70064259 0.36882973 -0.10370636 0
-0.57793808 0.3793335 -0.16294861 0
-0.50275517 0.34375954 -0.19715023 0
-0.82908154 0.46639252 -0.045733452 0
-0.77762699 0.44180679 -0.069389343 0
-0.67351437 0.4470768 -0.11884975 0
-0.57226944 0.48071861 -0.16669083 0
-0.48783779 0.45282936 -0.206954 0
-0.44325161 -0.43934822 -0.22363567 0
-0.30627632 -0.45929527 -0.29497147 0
-0.19706535 -0.42154312 -0.35208797 0
-0.10319901 -0.42374802 -0.40157223 0
-0.41757488 -0.33424759 -0.23603439 0
-0.2954874 -0.35070801 -0.29981422 0
-0.20553398 -0.33678627 -0.34731293 0
-0.081720352 -0.3348465 -0.41191578 0
-0.4466238 -0.20048904 -0.22056198 0
-0.40791225 -0.25329018 -0.24045277 0
-0.3099432 -0.24199867 -0.29186344 0
-0.21306324 -0.24521828 -0.3429718 0
-0.084505081 -0.24888992 -0.40999889 0
-0.41148472 -0.12730598 -0.23790359 0
-0.3045969 -0.12925148 -0.29412079 0
-0.20970631 -0.13413429 -0.34457016 0
-0.098384857 -0.15296936 -0.4033699 0
-0.066688538 -0.098457336 -0.42012596 0
-0.40831089 -0.017389297 -0.23906708 0
-0.30634499 -0.017393112 -0.29414272 0
-0.1999197 -0.02048111 -0.35086155 0
-0.058585167 -0.04577446 -0.42486 0
-0.39619923 0.082128525 -0.24542809 0
-0.29312134 0.063184738 -0.30030537 0
-0.22042751 0.074350357 -0.34134483 0
-0.082008362 0.053098679 -0.41408062 0
-0.39457798 0.16364098 -0.24706936 0
-0.29705238 0.14379311 -0.29726505 0
-0.18403721 0.15307045 -0.35868549 0
-0.10498333 0.14324379 -0.40301704 0
-0.068734169 0.19635201 -0.42061615 0
-0.39672565 0.24604607 -0.24681568 0
-0.31167603 0.25551605 -0.28839874 0
-0.20849609 0.26900291 -0.34480762 0
-0.098361015 0.26006508 -0.40481853 0
-0.068881035 0.31523705 -0.41907692 0
-0.38380337 0.35230255 -0.25448322 0
-0.30470371 0.36756516 -0.29147243 0
-0.21378517 0.35420227 -0.34098434 0
-0.14526081 0.40921974 -0.38696766 0
-0.049331665 0.38043594 -0.4430275 0
-0.53437042 0.40710831 -0.064582825 0
-0.4655571 0.45981026 -0.1132803 0
-0.37335873 0.46359062 -0.26739025 0
-0.23721409 0.4500885 -0.3381424 0
-0.016363144 0.45996666 -0.47713375 0
0.10364532 -0.48654366 -0.52793407 0
0.099845886 -0.4175148 -0.52241898 0
0.25716591 -0.43536568 -0.62751102 0
0.29605198 -0.37792587 -0.64377785 0
0.59337234 -0.4198494 -0.84127903 0
0.051336288 -0.31882095 -0.49301434 0
0.28682327 -0.31441879 -0.63818264 0
0.55831051 -0.33092499 -0.82128048 0
0.084482193 -0.22841072 -0.50716114 0
0.28370094 -0.20961952 -0.63665676 0
0.56022072 -0.22636032 -0.81944752 0
0.043600082 -0.12896538 -0.48402309 0
0.2944622 -0.10498047 -0.64212799 0
0.54050159 -0.11306 -0.80646324 0
0.076565742 -0.040325165 -0.49685097 0
0.30474567 -0.012468338 -0.64503288 0
0.55404758 -0.013040543 -0.81057549 0
0.039764404 0.056678772 -0.4789896 0
0.24778843 0.092803955 -0.61195183 0
0.52927399 0.096366882 -0.79777336 0
0.057593346 0.17475891 -0.48931694 0
0.23613739 0.15386009 -0.60343933 0
0.36046982 0.22465706 -0.64498806 0
0.37559605 0.16292 -0.67207146 0
0.057239532 0.26250648 -0.48859882 0
0.26203251 0.26145554 -0.5940876 0
0.074994087 0.33959007 -0.51423359 0
0.14954281 0.39242935 -0.52968788 0
0.20948792 0.34730148 -0.53576183 0
0.073096275 0.49559593 -0.47118187 0
0.15086365 0.46339035 -0.47932243 0
0.96424103 -0.2804203 -1.0997458 0
0.96447182 -0.1967926 -1.0918655 0
0.9340868 -0.10727882 -1.0684223 0
0.93470478 -0.046161652 -1.0695601 0
0.96077156 0.088394165 -1.0916567 0
0.38776588 0.22603798 -0.56647491 0
0.4239006 0.17133713 -0.61867714 0
0.32136154 0.29211426 -0.53466225 0
0.33842278 0.28414917 -0.54535103 0
0.21875954 0.41327286 -0.45573235 0
0.2792902 0.34570885 -0.49909496 0
0.1974411 0.46467209 -0.43690586 0
0.39678383 0.22583008 -0.51336384 0
0.38887787 0.29653358 -0.43867874 0
0.44014263 0.2458992 -0.49272346 0
0.29189205 0.41698456 -0.38930988 0
0.33290672 0.37657738 -0.4144516 0
0.25757885 0.47104263 -0.36351395 0
0.41718292 0.2947731 -0.39875317 0
0.47554779 0.27056885 -0.39618397 0
0.35285568 0.41377068 -0.33092213 0
0.42180347 0.35597992 -0.35662746 0
0.33444214 0.46832466 -0.33266163 0
0.39431477 0.4530201 -0.30404758 0
0.65022469 0.30113602 -0.42562675 0
0.41911602 0.41302872 -0.23221493 0
0.49667835 0.35890961 -0.30354691 0
0.3976965 0.46897316 -0.21410751 0
0.43131924 0.41693497 -0.16309834 0
0.4636879 0.4737854 -0.14032555 0
-0.93834496 -0.46722603 -0.0009765625 0
-0.98954773 -0.33925819 0.021980286 0
-0.94610786 -0.32259178 0.00046920776 0
-0.98843288 -0.23851585 0.022354126 0
-0.99567699 0.47354889 0.022764206 0
-0.89913273 -0.44737053 -0.017400742 0
-0.80775261 -0.43291092 -0.060091972 0
-0.72270966 -0.41325951 -0.098963737 0
-0.62310791 -0.4251194 -0.14428329 0
-0.91606331 -0.33558083 -0.011998177 0
-0.81589985 -0.32975578 -0.057416916 0
-0.71296597 -0.29112816 -0.10433292 0
-0.64874077 -0.32918358 -0.13391018 0
-0.88821411 -0.23714828 -0.02504921 0
-0.81244469 -0.25516701 -0.060096741 0
-0.73511124 -0.2039547 -0.095212936 0
-0.62053394 -0.21506119 -0.14869499 0
-0.90941715 -0.15303612 -0.014438629 0
-0.82027626 -0.11703873 -0.056012154 0
-0.70269012 -0.11394501 -0.11044407 0
-0.62655258 -0.10510635 -0.1460371 0
-0.91259193 -0.027236938 -0.011586189 0
-0.80524063 -0.031675339 -0.062292099 0
-0.74652958 -0.0061321259 -0.089372635 0
-0.63927746 -0.014129639 -0.1402607 0
-0.95737839 0.071212769 0.012047768 0
-0.93174553 0.066085815 -0.001914978 0
-0.82086086 0.081724167 -0.055048943 0
-0.72875023 0.10399246 -0.09821701 0
-0.63487911 0.078580856 -0.14203644 0
-0.9417944 0.18961143 0.0018806458 0
-0.81233597 0.18440056 -0.059440613 0
-0.72228813 0.17557716 -0.10137463 0
-0.62988186 0.15878296 -0.14547729 0
-0.90348721 0.27319908 -0.017012596 0
-0.79573822 0.2684536 -0.067962646 0
-0.71904373 0.27706146 -0.10419559 0
-0.64568329 0.26502609 -0.13866615 0
-0.91281319 0.3741169 -0.014205933 0
-0.83012295 0.36971474 -0.052610397 0
-0.70934963 0.37555504 -0.11029243 0
-0.64050198 0.37282562 -0.14256001 0
-0.93984795 0.47423363 -0.0026016235 0
-0.84671211 0.47158241 -0.045887947 0
-0.72439003 0.46251678 -0.10369396 0
-0.63573647 0.48114204 -0.14629269 0
-0.55631542 -0.43572426 -0.17351341 0
-0.4226532 -0.40463638 -0.2419939 0
-0.34976959 -0.41331482 -0.28098774 0
-0.24062347 -0.41505241 -0.33817005 0
-0.5287447 -0.32956696 -0.1891098 0
-0.48091698 -0.31029701 -0.21188068 0
-0.32970524 -0.2977314 -0.29031754 0
-0.25001812 -0.31779099 -0.33272934 0
-0.54483128 -0.21768761 -0.18260002 0
-0.45456409 -0.22751427 -0.22461796 0
-0.35113144 -0.20335388 -0.2788105 0
-0.24859333 -0.23434639 -0.33283615 0
-0.54864693 -0.1085701 -0.18193054 0
-0.46573067 -0.11190987 -0.21968842 0
-0.36536217 -0.12029457 -0.27101326 0
-0.24182892 -0.11522293 -0.33580208 0
-0.53435135 -0.031070709 -0.18892288 0
-0.45557117 -0.00065040588 -0.22574234 0
-0.34140968 -0.0046310425 -0.28311348 0
-0.29371071 -0.017742157 -0.31025982 0
-0.54820251 0.055238724 -0.18262482 0
-0.4329834 0.075397491 -0.23806477 0
-0.37688065 0.089338303 -0.26385498 0
-0.27022171 0.072341919 -0.32213593 0
-0.54275894 0.16070747 -0.18657207 0
-0.46805763 0.1643219 -0.22122383 0
-0.36053276 0.17191124 -0.27238274 0
-0.25669289 0.19009972 -0.32714462 0
-0.55643082 0.27257729 -0.18089962 0
-0.47425461 0.28241158 -0.2194128 0
-0.37544823 0.28981018 -0.26612949 0
-0.26954746 0.28484535 -0.31917858 0
-0.58130169 0.38508034 -0.16955948 0
-0.46629333 0.39504623 -0.22476006 0
-0.38950253 0.38157272 -0.2600317 0
-0.27939987 0.36820412 -0.31305218 0
-0.57009125 0.49598312 -0.17716122 0
-0.48743343 0.48488426 -0.21507072 0
-0.35147381 0.46499062 -0.28579235 0
-0.27831745 0.47409821 -0.32723808 0
-0.11628723 -0.46823692 -0.40382099 0
0.10994911 -0.49748993 -0.53815746 0
0.341856 -0.46458054 -0.67843342 0
-0.093614578 -0.40424347 -0.41481876 0
0.049451828 -0.42008781 -0.50315762 0
0.26806259 -0.38301659 -0.63677025 0
-0.12396049 -0.33859634 -0.39900017 0
-0.096082687 -0.28543282 -0.41270733 0
0.030490875 -0.32308006 -0.48755169 0
0.23019218 -0.30382347 -0.6139307 0
-0.11509895 -0.21801567 -0.40260601 0
0.028753281 -0.19105721 -0.47987461 0
0.24507618 -0.20478058 -0.62024593 0
-0.152812 -0.13993645 -0.38353825 0
-0.10365772 -0.083494186 -0.40908909 0
0.0151577 -0.096124649 -0.4724884 0
0.19615364 -0.086843491 -0.59409046 0
-0.13283157 -0.015630722 -0.39494228 0
0.032597542 0.0031261444 -0.4823513 0
0.22624588 0.0057735443 -0.60420418 0
-0.1192112 0.07330513 -0.40268612 0
0.0080900192 0.1057682 -0.47092533 0
0.17255116 0.11201668 -0.57120895 0
-0.14608574 0.19392204 -0.38801193 0
0.025766373 0.20326996 -0.4800806 0
0.17953205 0.21151733 -0.56910801 0
-0.1581974 0.29720688 -0.38028717 0
-0.013393402 0.30813408 -0.45931625 0
0.200737 0.31486702 -0.59214306 0
-0.50761414 0.41437721 -0.077545166 0
-0.13422012 0.35052681 -0.39154243 0
-0.098103523 0.42121696 -0.42327785 0
0.072971344 0.36875916 -0.51809692 0
0.18702984 0.39136505 -0.57664776 0
-0.44455433 0.46876526 -0.12395 0
0.069449425 0.48040962 -0.51214123 0
0.56491089 -0.48441315 -0.83170605 0
0.51623726 -0.38848877 -0.80130959 0
0.50580406 -0.30623627 -0.79193592 0
0.99594688 -0.27798462 -1.1201143 0
0.49114799 -0.20309448 -0.77940369 0
0.90054893 -0.18264961 -1.0593891 0
0.45144272 -0.08899498 -0.75400257 0
0.85936928 -0.090480804 -1.0308256 0
0.48905754 0.021808624 -0.77124596 0
0.87218475 -0.0095787048 -1.0367432 0
0.45637894 0.13264847 -0.75180435 0
0.86936951 0.11463737 -1.0397367 0
0.38431549 0.20320892 -0.65052891 0
0.27956963 0.32074547 -0.57691288 0
0.36379814 0.26707077 -0.60175705 0
0.21814251 0.39623642 -0.516325 0
0.21017551 0.4571228 -0.50041676 0
0.46568489 0.20389938 -0.58728313 0
0.33239555 0.34364128 -0.43230152 0
0.37567997 0.30354309 -0.49949932 0
0.39512157 0.2618885 -0.55681515 0
0.28957748 0.40054321 -0.43892097 0
0.26578331 0.46659279 -0.41740322 0
0.4525795 0.31131744 -0.4306612 0
0.45996475 0.26477432 -0.46963978 0
0.40771484 0.40156555 -0.38455582 0
0.3536787 0.49288559 -0.33836555 0
0.49476719 0.31850433 -0.39002514 0
0.56773949 0.31569862 -0.38637638 0
0.47023392 0.40826225 -0.31823921 0
0.36770439 0.47533417 -0.27769566 0
0.45378304 0.42102242 -0.22995949 0
0.45676327 0.49716377 -0.17563248 0
-0.95503807 -0.48689651 0.019162178 0
-0.96874046 -0.43087387 0.02449894 0
-0.9610033 -0.3081913 0.018651962 0
-0.9651556 -0.14977455 0.021801949 0
-0.96133041 -0.032018661 0.021789551 0
-0.96732998 0.071426392 0.025038719 0
-0.96906185 0.16967773 0.023646355 0
-0.98398876 0.37915421 0.028466225 0
-0.97479248 0.42417908 0.023165703 0
-0.58076477 -0.49128151 -0.15091419 0
-0.88219738 -0.45681381 -0.015146255 0
-0.82191563 -0.42346001 -0.044014931 0
-0.7056303 -0.41551971 -0.0955019 0
-0.58079338 -0.36829185 -0.15282345 0
-0.9148283 -0.31798935 -0.0012016296 0
-0.82414627 -0.32404518 -0.043099403 0
-0.73780346 -0.33174133 -0.082547188 0
-0.67560196 -0.32663345 -0.11018562 0
-0.84220791 -0.21645546 -0.036511421 0
-0.72866917 -0.22955894 -0.088722229 0
-0.658535 -0.21953201 -0.12067127 0
-0.57295227 -0.22652245 -0.15919495 0
-0.89722633 -0.10264587 -0.0099077225 0
-0.81319523 -0.10782814 -0.049286842 0
-0.75707722 -0.11234665 -0.074392319 0
-0.67726612 -0.10752869 -0.11166191 0
-0.58445644 -0.11047554 -0.15480709 0
-0.85602188 -0.015356064 -0.02940464 0
-0.74252224 -0.0036849976 -0.081490517 0
-0.64239025 -0.023805618 -0.12912273 0
-0.5841074 -0.016757965 -0.15486717 0
-0.90710449 0.0747509 -0.0034914017 0
-0.83368015 0.078447342 -0.038673401 0
-0.73879337 0.067974091 -0.083425522 0
-0.66943264 0.06187439 -0.11575508 0
-0.59363651 0.066425323 -0.15090561 0
-0.92000771 0.1511898 0.0017318726 0
-0.84127998 0.17967033 -0.035752296 0
-0.73783112 0.16221237 -0.085097313 0
-0.66862106 0.17292976 -0.11756229 0
-0.59093952 0.18026924 -0.1537056 0
-0.93533516 0.26403236 0.0071325302 0
-0.84615612 0.26108932 -0.034326553 0
-0.74858475 0.26940155 -0.081004143 0
-0.69748497 0.28736877 -0.10434341 0
-0.60250664 0.29424477 -0.1492815 0
-0.91982269 0.36184502 -0.0011262894 0
-0.85653114 0.37381554 -0.030537605 0
-0.76155853 0.3773613 -0.07582283 0
-0.69656181 0.39731979 -0.10625839 0
-0.60280609 0.38129044 -0.1502552 0
-0.95931625 0.44124985 0.017901421 0
-0.85861206 0.4765625 -0.031860352 0
-0.77327061 0.48463631 -0.071300507 0
-0.65359211 0.48773766 -0.12757778 0
-0.35761833 -0.49541855 -0.26814461 0
-0.23013687 -0.47330284 -0.33459091 0
-0.5419178 -0.43745232 -0.17147923 0
-0.46240997 -0.41618919 -0.21231937 0
-0.34776402 -0.39888382 -0.27241421 0
-0.2740078 -0.40300369 -0.31187248 0
-0.55931854 -0.31838799 -0.1645937 0
-0.48905754 -0.29577827 -0.19796085 0
-0.36352539 -0.31020737 -0.26377869 0
-0.2416296 -0.33722496 -0.32774925 0
-0.2074194 -0.27293015 -0.34455109 0
-0.47097397 -0.19576263 -0.20650387 0
-0.3615799 -0.21295738 -0.26402378 0
-0.26473808 -0.20956993 -0.31508446 0
-0.48683739 -0.11479568 -0.19979382 0
-0.37697315 -0.11602974 -0.25550652 0
-0.24655533 -0.11487579 -0.32395267 0
-0.48149776 0.0020503998 -0.20352554 0
-0.36584377 -0.0044441223 -0.26095772 0
-0.23691368 -0.021654129 -0.32963657 0
-0.48305321 0.095884323 -0.2039032 0
-0.37189293 0.09098053 -0.25650883 0
-0.25421047 0.079963684 -0.32052135 0
-0.50088406 0.18620491 -0.19596672 0
-0.39960766 0.18631554 -0.24362278 0
-0.2836771 0.2077961 -0.30353546 0
-0.52237511 0.33146667 -0.1868906 0
-0.50848293 0.27478409 -0.19322872 0
-0.39049149 0.31420517 -0.24988556 0
-0.33131218 0.3058815 -0.2778616 0
-0.53479004 0.39085007 -0.18134594 0
-0.42223358 0.40982246 -0.23496723 0
-0.30507088 0.39877129 -0.29166412 0
-0.5717783 0.43663979 -0.16677475 0
-0.50854778 0.48159409 -0.1978302 0
-0.10087395 -0.48399162 -0.40351868 0
0.11367989 -0.45279312 -0.53479481 0
0.37811089 -0.49341202 -0.69698238 0
-0.082586288 -0.39378357 -0.4111948 0
0.090873718 -0.37387466 -0.51785469 0
0.37455177 -0.40535736 -0.69108009 0
-0.091331482 -0.28715324 -0.40595245 0
0.078125 -0.30014038 -0.50624657 0
0.31827927 -0.2863121 -0.6583662 0
-0.1115551 -0.18940926 -0.39526367 0
0.005607605 -0.22073746 -0.46593094 0
0.04867363 -0.15922737 -0.4853096 0
0.29655933 -0.17403793 -0.64508343 0
-0.10184193 -0.08432579 -0.40082264 0
0.031993866 -0.091209412 -0.47250271 0
0.28701305 -0.097738266 -0.63869286 0
-0.13812351 -0.016559601 -0.38302326 0
0.02473259 0.011550903 -0.46945858 0
0.25962639 0.022460938 -0.61903381 0
-0.11300755 0.085382462 -0.39654732 0
0.043712616 0.11761665 -0.48009872 0
0.21578598 0.13345909 -0.58943462 0
-0.15381622 0.18346977 -0.37497997 0
0.0048437119 0.21969414 -0.46042538 0
0.2277298 0.18787193 -0.59152317 0
-0.17273998 0.28114128 -0.36378479 0
0.017250061 0.32135582 -0.47029495 0
0.22008419 0.30988503 -0.59246635 0
-0.16086292 0.37353325 -0.37059689 0
-0.11388016 0.44635963 -0.41028976 0
0.034619331 0.40724564 -0.49697495 0
0.15485764 0.41799927 -0.53937149 0
-0.51340008 0.45631409 -0.080059052 0
0.084693909 0.47737122 -0.51034164 0
0.67023373 -0.37835693 -0.89307022 0
0.62025452 -0.25080109 -0.85945415 0
0.60614586 -0.16563606 -0.8466177 0
0.5646286 -0.076383591 -0.81985378 0
0.57919312 -0.017637253 -0.82305813 0
0.42138481 0.14819717 -0.70627975 0
0.54759789 0.075414658 -0.80101013 0
0.36875153 0.21938705 -0.6395092 0
0.44217014 0.20662308 -0.6121788 0
0.29611111 0.32011223 -0.55552006 0
0.19970703 0.42332458 -0.48392677 0
0.15896988 0.48544502 -0.473629 0
0.43591404 0.22084808 -0.5430975 0
0.28516769 0.35412979 -0.45724773 0
0.37431622 0.28992271 -0.47640419 0
0.29543495 0.40650558 -0.40991402 0
0.2638855 0.49036407 -0.39091778 0
0.4807682 0.2181778 -0.50266266 0
0.43242073 0.32419014 -0.3960228 0
0.34870148 0.4330101 -0.36147404 0
0.40294743 0.43021584 -0.34724903 0
0.48208904 0.33465004 -0.36233807 0
0.55010223 0.36151314 -0.35367775 0
0.40152836 0.43630409 -0.26412106 0
0.53337669 0.36266136 -0.29862404 0
0.38723087 0.43460274 -0.16737652 0
0.46926403 0.43421364 -0.17017078 0
-0.97046757 -0.48149109 0.01802063 0
-0.94616699 -0.40863419 0.0040016174 0
-0.83307934 -0.3841362 -0.048142433 0
-0.9697113 -0.32507133 0.014592171 0
-0.88351822 -0.32772636 -0.025400162 0
-0.75206757 -0.30794716 -0.085981369 0
-0.95042515 -0.225811 0.0059690475 0
-0.84131622 -0.21581268 -0.045511246 0
-0.78264523 -0.2405014 -0.071575165 0
-0.96346664 -0.1117363 0.013549805 0
-0.8578577 -0.095884323 -0.036848068 0
-0.79425144 -0.067604065 -0.065416336 0
-0.98251438 0.034677505 0.024929047 0
-0.87657928 0.00073242188 -0.027751923 0
-0.96987057 0.089361191 0.018725395 0
-0.89312649 0.10421753 -0.018397331 0
-0.80434799 0.10733223 -0.060408592 0
-0.95921326 0.17506981 0.01047802 0
-0.87346554 0.18769073 -0.029585838 0
-0.82897186 0.22107315 -0.0493536 0
-0.95424843 0.27321815 0.0076379776 0
-0.9005518 0.30187607 -0.01731205 0
-0.8061142 0.33864021 -0.062545776 0
-0.95470905 0.38996315 0.0062980652 0
-0.91487408 0.41569138 -0.011554718 0
-0.89265633 0.49507332 -0.023957253 0
-0.82275581 0.44758224 -0.055550575 0
-0.56523132 -0.48553848 -0.16785622 0
-0.49117088 -0.48091125 -0.20589542 0
-0.74235249 -0.39621925 -0.089392662 0
-0.68193531 -0.40368271 -0.11508846 0
-0.57670879 -0.39086723 -0.16366386 0
-0.4957943 -0.38718987 -0.20281792 0
-0.38766003 -0.39899445 -0.25996971 0
-0.6572628 -0.28556824 -0.12972832 0
-0.57771969 -0.28868103 -0.16496181 0
-0.49710369 -0.29137802 -0.2016325 0
-0.75341892 -0.19182968 -0.086370468 0
-0.69421673 -0.19114304 -0.11257648 0
-0.58971786 -0.1970005 -0.16049099 0
-0.49884415 -0.19850349 -0.20188236 0
-0.7498436 -0.12801743 -0.088035583 0
-0.68144798 -0.10547829 -0.11888599 0
-0.59375477 -0.10679436 -0.15933132 0
-0.49224281 -0.10089302 -0.20670033 0
-0.75081062 0.014289856 -0.087266922 0
-0.68785858 0.018167496 -0.11547089 0
-0.62167168 0.021430969 -0.14527225 0
-0.50606441 -0.005645752 -0.20021057 0
-0.724823 0.11204338 -0.097498894 0
-0.59050941 0.12163734 -0.16059303 0
-0.50842667 0.059785843 -0.19983959 0
-0.76585579 0.19382668 -0.079393387 0
-0.68536282 0.16073608 -0.11820316 0
-0.59427357 0.21754646 -0.16049099 0
-0.52921104 0.18822479 -0.19093513 0
-0.77179241 0.27386665 -0.079149246 0
-0.70129681 0.31323051 -0.11209393 0
-0.62843609 0.29040718 -0.14521217 0
-0.5471077 0.30877113 -0.18340397 0
-0.80073738 0.39135742 -0.065993309 0
-0.69852352 0.41597748 -0.11304379 0
-0.62144756 0.35553932 -0.1496172 0
