# .PCD v0.7 - Point Cloud Data file format
VERSION 0.7
FIELDS x y z intensity
SIZE 4 4 4 4
TYPE F F F F
COUNT 1 1 1 1
WIDTH 513
HEIGHT 1
VIEWPOINT 0 0 0 1 0 0 0
POINTS 513
DATA ascii
-0.98247409 -0.4827919 -0.31129599 0
-0.90022445 -0.46915817 -0.31782818 0
-0.94509983 -0.40522385 -0.3258872 0
-0.99298501 -0.46154785 -0.29976606 0
-0.9110806 -0.47021103 -0.29925156 0
-0.84186578 -0.46767807 -0.33612061 0
-0.88198161 -0.36480331 -0.3549037 0
-0.92873263 -0.26995087 -0.37653208 0
-0.96526074 -0.18388367 -0.393538 0
-0.99549651 -0.10189819 -0.4151063 0
-0.95052505 -0.49666977 -0.32340527 0
-0.88006735 -0.47019196 -0.32937527 0
-0.98507261 -0.40536499 -0.34073162 0
-0.91659379 -0.37577057 -0.34842539 0
-0.94712758 -0.29948807 -0.3646965 0
-0.98501849 -0.20785141 -0.38414955 0
0.78399944 0.31916809 -0.40254974 0
0.84683323 0.31199646 -0.40114164 0
0.92978883 0.34237671 -0.41935158 0
0.6534791 0.35871887 -0.37752581 0
0.74089265 0.3415451 -0.38544893 0
0.80180454 0.37287521 -0.38279963 0
0.89306283 0.38216782 -0.39953279 0
0.6203146 0.36484528 -0.36076641 0
0.72846889 0.3947258 -0.36216831 0
0.8149848 0.41409302 -0.34779453 0
0.89194918 0.38952637 -0.37477684 0
0.51126981 0.42546082 -0.35054255 0
0.5977962 0.4262619 -0.34482622 0
0.67879677 0.46274948 -0.32794952 0
0.77886915 0.47956848 -0.3178668 0
0.27506661 0.44984818 -0.29702663 0
0.36287999 0.45398712 -0.3039999 0
0.46663809 0.47624207 -0.32462788 0
0.17829108 0.46464157 -0.28391218 0
0.24747324 0.46229172 -0.29055691 0
0.29166913 0.47901154 -0.283566 0
0.34179187 0.49864197 -0.27426529 0
0.085577488 0.48618317 -0.2685051 0
0.96438766 -0.47994614 -0.29143429 0
0.85760355 -0.43229294 -0.30059671 0
0.94174838 -0.40141296 -0.31774282 0
0.91438651 -0.29917145 -0.34791422 0
0.98975372 -0.28659058 -0.34976864 0
0.91752052 -0.22795105 -0.36374187 0
0.95584607 -0.18177414 -0.37943172 0
0.94851756 -0.099323273 -0.40775681 0
0.97777081 0.02872467 -0.43626738 0
0.93060184 0.11290741 -0.4567852 0
0.91512728 0.20849609 -0.47696638 0
0.71447611 0.26187515 -0.43634081 0
0.78728127 0.2712822 -0.45047665 0
0.87885284 0.26633072 -0.4493475 0
0.96549296 0.31137085 -0.4574194 0
0.68872261 0.27761459 -0.42431211 0
0.76721001 0.29493332 -0.41875172 0
0.86203694 0.32954407 -0.40730762 0
0.55947566 0.32545853 -0.39781189 0
0.642905 0.35486984 -0.39365149 0
0.7507112 0.37663269 -0.38422394 0
0.80808926 0.39838791 -0.37906551 0
0.89751506 0.38164139 -0.42257643 0
0.34616828 0.36976624 -0.36065674 0
0.4468751 0.37537003 -0.37912607 0
0.50463796 0.38650894 -0.37636805 0
0.59707999 0.39577866 -0.37564325 0
0.29744887 0.39493942 -0.35217571 0
0.74673247 0.41870499 -0.3526845 0
0.81681466 0.440979 -0.34485769 0
0.35486126 0.3910675 -0.33682013 0
0.52419186 0.43912506 -0.34644032 0
0.6090107 0.44682693 -0.34273434 0
0.70743656 0.49314117 -0.32202196 0
0.20628595 0.42325592 -0.32404041 0
0.29702425 0.45261002 -0.31335592 0
0.40250826 0.48566055 -0.32217026 0
0.48270345 0.49120712 -0.3278203 0
-0.0068616867 0.46705627 -0.29276133 0
0.069502115 0.4768486 -0.29363012 0
0.16622448 0.4747467 -0.29652119 0
0.72468257 -0.47757339 -0.29852915 0
0.82141066 -0.47242737 -0.29760075 0
0.92018175 -0.42947769 -0.31327343 0
0.72401881 -0.38965988 -0.31966877 0
0.78801322 -0.37448502 -0.32756805 0
0.8616395 -0.32535172 -0.34139681 0
0.97822213 -0.30807114 -0.34393978 0
0.76578331 -0.27196503 -0.35295248 0
0.86671376 -0.25805664 -0.36387777 0
0.94552135 -0.22213745 -0.36838388 0
0.77404523 -0.21928787 -0.37498713 0
0.80911899 -0.15002441 -0.38597822 0
0.88599706 -0.12065506 -0.39691687 0
0.77300668 -0.068027496 -0.40944433 0
0.88976216 -0.043231964 -0.41872835 0
0.96461558 0.011440277 -0.43127823 0
0.77783298 0.02639389 -0.43635798 0
0.82873678 0.061195374 -0.44795084 0
0.93988824 0.092796326 -0.45109272 0
0.81225061 0.151577 -0.46703243 0
0.89252067 0.18045044 -0.46981668 0
0.98827028 0.20334244 -0.47788525 0
0.67185092 0.24468613 -0.44470453 0
0.7608726 0.21990585 -0.45382786 0
0.84863424 0.25198364 -0.44769907 0
0.96432209 0.28930283 -0.45791149 0
0.55362868 0.26110458 -0.42952013 0
0.65295935 0.27796936 -0.42700577 0
0.77391434 0.30149841 -0.4059906 0
0.84458184 0.32133865 -0.39609623 0
0.90026045 0.329422 -0.42755461 0
0.45466995 0.27397919 -0.40418339 0
0.53223705 0.29110336 -0.40473604 0
0.63097787 0.31354141 -0.39949274 0
0.72290087 0.34867477 -0.38381433 0
0.81081796 0.39207077 -0.36943483 0
0.24893093 0.32728195 -0.36902332 0
0.33276653 0.30905151 -0.3774457 0
0.41521168 0.3503418 -0.37857056 0
0.50781679 0.37838364 -0.36473656 0
0.59421396 0.39381409 -0.3615346 0
0.67685223 0.40769577 -0.35900354 0
0.10485625 0.36637878 -0.34149218 0
0.18248963 0.3862648 -0.34731054 0
0.28370309 0.37830353 -0.34907818 0
0.44364524 0.42518234 -0.36363316 0
0.093248844 0.38802338 -0.34068346 0
0.80965352 0.44889069 -0.32439756 0
0.87906814 0.41563416 -0.34893417 0
0.53458071 0.42324829 -0.33692932 0
0.60078931 0.44068909 -0.32951832 0
0.70403218 0.4512558 -0.32589006 0
0.77027798 0.4845314 -0.31333208 0
0.048548222 0.36401367 -0.31930828 0
0.19545317 0.39722061 -0.31752729 0
0.28237748 0.4348526 -0.31084347 0
0.36035132 0.46307373 -0.30024767 0
0.46561146 0.49246216 -0.30856514 0
-0.008805275 0.43074799 -0.30414057 0
0.069235802 0.43728638 -0.30526352 0
0.15038371 0.46289825 -0.28994417 0
0.24806523 0.48822021 -0.27839279 0
-0.14119506 0.47942734 -0.30269527 0
-0.066566229 0.48678207 -0.28596544 0
0.85674143 -0.48403549 -0.28948212 0
0.96320891 -0.40616226 -0.30452394 0
0.70436573 -0.44991302 -0.29691887 0
0.81605721 -0.41360474 -0.30683851 0
0.89752388 -0.37974167 -0.31583834 0
0.99797368 -0.30866241 -0.33801794 0
0.5146544 -0.49401855 -0.28853607 0
0.59308887 -0.42961121 -0.30452919 0
0.67936587 -0.37246323 -0.32099676 0
0.77251029 -0.33353806 -0.33051252 0
0.85501504 -0.26834106 -0.34294796 0
0.92299747 -0.23100281 -0.35830975 0
0.50228381 -0.39805222 -0.31345367 0
0.54176402 -0.34688568 -0.32886505 0
0.65454721 -0.28243256 -0.34581089 0
0.72109151 -0.25125885 -0.35604668 0
0.80036426 -0.20155716 -0.36679792 0
0.88520885 -0.15125656 -0.37748623 0
0.97728705 -0.11451721 -0.39081955 0
0.51786423 -0.27267838 -0.34993076 0
0.56686759 -0.22667694 -0.3599081 0
0.66592121 -0.17384338 -0.37824774 0
0.73793173 -0.11721039 -0.39398241 0
0.84815741 -0.080814362 -0.39667559 0
0.91753268 -0.017272949 -0.42104435 0
0.53569031 -0.13636398 -0.38896751 0
0.60929418 -0.081626892 -0.4024601 0
0.70519209 -0.026859283 -0.41304207 0
0.79439783 0.0030326843 -0.42279148 0
0.88029432 0.073749542 -0.43386793 0
0.9788568 0.10552216 -0.44547319 0
0.5134151 -0.049057007 -0.40906572 0
0.55265713 0.00989151 -0.42497253 0
0.65427136 0.040851593 -0.43302393 0
0.73906922 0.1255455 -0.44988203 0
0.83101869 0.16619873 -0.45470142 0
0.89727974 0.18801117 -0.45746946 0
0.97535443 0.22315979 -0.47185898 0
0.52960443 0.07554245 -0.4447813 0
0.60282636 0.12976456 -0.4597373 0
0.69267583 0.17975998 -0.45672226 0
0.76723003 0.2171402 -0.45655107 0
0.46955252 0.18035507 -0.44999552 0
0.56713343 0.19918442 -0.44926548 0
0.64289904 0.22808838 -0.43008566 0
0.34488773 0.21866989 -0.43520784 0
0.94798827 -0.46508408 -0.28773212 0
0.67848849 0.23649597 -0.42177248 0
0.76264644 0.25883102 -0.41662264 0
0.86384368 0.30728531 -0.40089369 0
0.93553567 0.2832222 -0.43475342 0
0.54166579 0.26921844 -0.4054637 0
0.63892102 0.29686737 -0.39094782 0
0.72688556 0.32862854 -0.37584543 0
0.81040096 0.34478378 -0.36700964 0
0.25626469 0.21727753 -0.40293741 0
0.33306098 0.25378799 -0.40406656 0
0.42976952 0.27605438 -0.40018606 0
0.51598287 0.31159592 -0.38616085 0
0.5853734 0.35025787 -0.36851692 0
0.19971824 0.28044128 -0.38302708 0
0.27390409 0.31416702 -0.37309694 0
0.37900186 0.33763504 -0.37390709 0
0.43504763 0.36979675 -0.35836315 0
-0.007008791 0.28991699 -0.35958338 0
0.061552048 0.31999588 -0.36356449 0
0.14806962 0.32674789 -0.35967445 0
0.23815393 0.36214447 -0.34487724 0
-0.142874 0.34913635 -0.34396982 0
-0.074340105 0.34597015 -0.34351683 0
0.031748295 0.35146713 -0.35204411 0
-0.18481064 0.36341858 -0.33610106 0
-0.1199522 0.38557053 -0.33814859 0
-0.21510792 0.48789215 -0.3726263 0
-0.1718626 0.49964905 -0.36159897 0
0.73426151 0.40426254 -0.35165596 0
0.80512071 0.42908859 -0.33076811 0
0.6125555 0.41225052 -0.33406734 0
0.68698478 0.414711 -0.33284855 0
0.75016093 0.46553421 -0.30303097 0
0.30833387 0.38264465 -0.33340502 0
0.33921838 0.37775421 -0.32581806 0
0.46839523 0.42557907 -0.32958364 0
0.54799128 0.47002792 -0.31273556 0
0.059283972 0.36419296 -0.31306553 0
0.15357423 0.3883667 -0.32069349 0
0.24148011 0.42857742 -0.29989147 0
0.30699992 0.45536423 -0.28598118 0
0.40928888 0.48514938 -0.3024745 0
-0.046235323 0.37690353 -0.32063484 0
0.016707897 0.4129982 -0.30202293 0
0.099187136 0.45532608 -0.28126097 0
0.17079759 0.46978378 -0.27326441 0
-0.21086884 0.41680527 -0.31924963 0
-0.11856532 0.44264221 -0.2963028 0
-0.041167259 0.46356201 -0.27273083 0
-0.22726941 0.45100784 -0.32594109 0
-0.16481638 0.49913788 -0.29565096 0
0.89412832 -0.46044922 -0.30152893 0
0.98216605 -0.36706543 -0.32110262 0
0.78084373 -0.44758224 -0.30654097 0
0.85480046 -0.34867859 -0.32909346 0
0.93513346 -0.30768204 -0.34057951 0
0.99729276 -0.24551773 -0.35657978 0
0.67893004 -0.42795944 -0.31343365 0
0.71338749 -0.35507584 -0.32954502 0
0.79641604 -0.29515839 -0.34352684 0
0.85534191 -0.22474289 -0.35993814 0
0.94698381 -0.18482971 -0.37553453 0
0.67162752 -0.2543335 -0.35186625 0
0.74503493 -0.23123932 -0.36542749 0
0.81787872 -0.17557144 -0.37847281 0
0.88132572 -0.089916229 -0.39725828 0
0.68677592 -0.13895035 -0.39405537 0
0.75862622 -0.084602356 -0.40165663 0
0.82566953 -0.023773193 -0.41932249 0
0.90530872 0.013027191 -0.42845106 0
0.98452401 0.078094482 -0.44641685 0
0.69082379 -0.002166748 -0.42572212 0
0.75406742 0.062614441 -0.44020844 0
0.86276913 0.1024704 -0.45097923 0
0.93747735 0.17708588 -0.46684265 0
0.99881983 0.2430954 -0.47765255 0
0.65675688 0.078849792 -0.4509058 0
0.72405243 0.1243515 -0.46006393 0
0.77943087 0.1824379 -0.46375132 0
0.86530352 0.21789932 -0.46409512 0
0.57378936 0.18866348 -0.46038771 0
0.65165472 0.1778183 -0.46203327 0
0.52521849 0.2049675 -0.4498558 0
0.95187497 -0.44729614 -0.2908864 0
0.96340632 -0.40111923 -0.30533648 0
0.82927346 -0.36082458 -0.31376123 0
0.80061054 0.18862152 -0.43745804 0
0.84380984 0.27209854 -0.41666365 0
0.92383599 0.31664276 -0.42428398 0
0.64751935 0.23550034 -0.42562628 0
0.72590137 0.27861404 -0.40880203 0
0.79637432 0.3040123 -0.39413166 0
0.43841028 0.2133255 -0.42940521 0
0.49845982 0.25202942 -0.41951942 0
0.57374501 0.29367828 -0.39425325 0
0.65547299 0.33493042 -0.38336468 0
0.36382103 0.2649498 -0.40327644 0
0.45283747 0.30313873 -0.38704109 0
0.24610829 0.2939682 -0.37914038 0
0.31109381 0.31467056 -0.3770628 0
0.38476014 0.34571838 -0.38150454 0
0.094082594 0.32846832 -0.36050892 0
0.16841578 0.32212448 -0.36646461 0
0.79243374 0.38807297 -0.34936094 0
0.85869122 0.44710922 -0.3521533 0
0.58901405 0.33333969 -0.36821365 0
0.66188741 0.39408493 -0.34952354 0
0.74618912 0.42897034 -0.32796574 0
0.8210988 0.45306778 -0.30199909 0
0.44483471 0.37223434 -0.36129761 0
0.52438784 0.40677261 -0.33953047 0
0.60137725 0.45862961 -0.32259417 0
0.69960475 0.47772598 -0.31544256 0
0.24216247 0.33673477 -0.35884571 0
0.30769062 0.36482239 -0.3390646 0
0.40012622 0.42153931 -0.33233595 0
0.45966434 0.45687103 -0.32635975 0
0.53241253 0.48797226 -0.31066847 0
0.09548521 0.351017 -0.35143089 0
0.17301965 0.37713242 -0.32838774 0
0.24631548 0.41242981 -0.31215 0
0.31243205 0.44527435 -0.29476833 0
-0.046851397 0.37253571 -0.31862926 0
0.027209282 0.38261414 -0.32290697 0
0.10304213 0.42529297 -0.30174494 0
-0.1078012 0.41505051 -0.31115246 0
-0.04235816 0.43965912 -0.29454613 0
-0.20496845 0.4197998 -0.31791353 0
-0.18257618 0.46982574 -0.30881739 0
0.75139904 0.49967957 -0.29625225 0
0.41227436 0.47250748 -0.28709984 0
0.24780011 0.48128128 -0.27380228 0
0.10528374 0.48313904 -0.2624383 0
-0.03319335 0.49411392 -0.26088572 0
0.90967393 -0.45872879 -0.29436827 0
0.79008198 -0.44305038 -0.29605293 0
0.85551476 -0.37187195 -0.31864882 0
0.92983031 -0.30073166 -0.3373251 0
0.81162524 -0.33005524 -0.33043385 0
0.86108494 -0.22771454 -0.35626936 0
0.95728159 -0.18340302 -0.36750937 0
0.81155038 -0.19021606 -0.36484623 0
0.8839891 -0.10955048 -0.38915682 0
0.97849035 -0.051704407 -0.40631485 0
0.80218554 -0.090518951 -0.38686466 0
0.83990574 -0.02381134 -0.41556835 0
0.91017628 0.042953491 -0.42680311 0
0.99743557 0.1001358 -0.43759918 0
0.80478787 0.050685883 -0.43343353 0
0.82393003 0.10503006 -0.44190788 0
0.93010163 0.16210938 -0.45608616 0
0.98900151 0.22105789 -0.46748734 0
0.79348516 0.17796707 -0.45898533 0
0.86886597 0.22481537 -0.45881033 0
0.69000721 0.20791626 -0.4459672 0
0.84844828 -0.49374771 -0.27364826 0
0.92630053 -0.44384766 -0.28881264 0
0.94565415 -0.31356049 -0.32240868 0
0.77982616 0.225811 -0.42658186 0
0.88861799 0.28443146 -0.43403673 0
0.91581202 0.33846664 -0.40283537 0
0.63859296 0.23297501 -0.42355251 0
0.7062664 0.27790833 -0.40316725 0
0.79658151 0.32055283 -0.38786697 0
0.50628996 0.27387238 -0.39580917 0
0.59254408 0.29722595 -0.38727951 0
0.69822121 0.34346771 -0.39169121 0
0.4414022 0.31235504 -0.37703133 0
0.51942945 0.34250259 -0.37845802 0
0.3322947 0.32976532 -0.3694315 0
0.73477769 0.35066223 -0.37458754 0
0.7819128 0.37842178 -0.34931564 0
0.57778525 0.33692551 -0.35629749 0
0.66176486 0.38111877 -0.34956837 0
0.74534321 0.43143082 -0.32622433 0
0.45014596 0.35771942 -0.35737419 0
0.51707458 0.39718246 -0.33779812 0
0.59910893 0.43674469 -0.31926584 0
0.23552728 0.33707047 -0.3470521 0
0.30043793 0.36078262 -0.33606482 0
0.38506579 0.42352676 -0.32636213 0
0.47080302 0.45393753 -0.31913996 0
0.16545486 0.38686371 -0.31787872 0
0.24812198 0.41394424 -0.30523396 0
0.31805944 0.44831467 -0.29181433 0
0.025945425 0.4070549 -0.30227327 0
0.10195923 0.42588043 -0.29388285 0
-0.11085367 0.44545364 -0.284266 0
-0.031019211 0.44999313 -0.28482914 0
-0.16148233 0.48190689 -0.28723526 0
0.73953438 0.49457169 -0.29362202 0
0.80584502 0.48075485 -0.29861832 0
0.60169816 0.49696732 -0.28649235 0
0.39805746 0.47761917 -0.2921443 0
0.2316165 0.47547913 -0.26372671 0
0.030781507 0.46262741 -0.27414179 0
0.11393714 0.48093414 -0.25859261 0
-0.10734248 0.46080017 -0.26860857 0
-0.034892321 0.49681091 -0.2524972 0
-0.12584805 0.49123764 -0.26995373 0
0.95593858 -0.44384384 -0.29330969 0
0.98972559 -0.32596207 -0.33144951 0
0.9949584 -0.17895508 -0.3676753 0
0.99815392 -0.0073242188 -0.41642857 0
0.99999619 0.086799622 -0.44167852 0
0.9665463 0.16984558 -0.46249294 0
0.84560418 0.20321274 -0.43855953 0
0.87668824 0.26844788 -0.42461491 0
0.94705081 0.32527161 -0.42925024 0
0.65928245 0.28704834 -0.39869976 0
0.73645639 0.29285812 -0.39710426 0
0.78041506 0.31990814 -0.3875823 0
0.60191035 0.31098557 -0.37923574 0
0.67114902 0.33527374 -0.38221264 0
0.7979002 0.37796021 -0.35000944 0
0.85322833 0.39810944 -0.34544706 0
0.59655976 0.35893631 -0.35543871 0
0.66109037 0.38040161 -0.35174561 0
0.73943901 0.42521286 -0.32867146 0
0.46754456 0.35340118 -0.3572588 0
0.52557898 0.40818024 -0.33401155 0
0.61296988 0.44728088 -0.31751347 0
0.32020402 0.39233017 -0.31607819 0
0.40380621 0.43169403 -0.32874012 0
0.46967483 0.44869995 -0.32502985 0
0.17811847 0.42300797 -0.29432869 0
0.25271416 0.42541885 -0.29727983 0
0.1171701 0.44267273 -0.28532743 0
0.19149828 0.46370316 -0.30439758 0
0.74290943 0.48361588 -0.29677534 0
0.80171371 0.47725677 -0.29237127 0
0.37902117 0.4706192 -0.27793169 0
0.2493186 0.47917938 -0.2606039 0
0.037228584 0.44380188 -0.26923752 0
0.11045885 0.48616791 -0.25812101 0
-0.10002017 0.4947052 -0.25646973 0
0.90465593 0.35326385 -0.4220686 0
0.76797771 0.32881165 -0.3769207 0
0.79830909 0.36587524 -0.3829236 0
0.72903562 0.37729263 -0.35430098 0
0.79336739 0.41534805 -0.33999014 0
0.57253385 0.41296768 -0.34498978 0
0.65529132 0.42798233 -0.33846188 0
0.73514605 0.46502686 -0.32153511 0
0.52774787 0.4596405 -0.32055998 0
0.60566306 0.47994232 -0.32149553 0
0.39258385 0.48521423 -0.30663729 0
0.46419716 0.49383545 -0.31766748 0
0.6566205 0.47956085 -0.29517651 0
0.32570767 0.46376038 -0.2800765 0
0.92008662 0.36889648 -0.42224455 0
0.85469317 0.37733841 -0.39630842 0
0.76986408 0.39141464 -0.38087416 0
0.81908846 0.42035675 -0.36234331 0
0.81611681 0.47441483 -0.3237052 0
0.74429512 0.43610001 -0.35133457 0
0.64543033 0.46243286 -0.33808327 0
0.55343843 0.49011993 -0.32602262 0
0.88938427 0.43452072 -0.37688255 0
0.87347341 0.42653275 -0.35956478 0
0.84372067 0.46029663 -0.32521152 0
0.78831601 0.47086334 -0.33319187 0
0.69317746 0.48087311 -0.32953405 0
0.58278346 0.47611618 -0.32630205 0
0.84071326 0.45767593 -0.32231998 0
0.80212712 0.49104691 -0.30022717 0
0.76626301 0.47594833 -0.3073678 0
-0.89310288 0.48286057 -0.5506916 0
-0.92272639 0.38647079 -0.52716541 0
-0.99902582 0.4192276 -0.53170586 0
-0.94950747 0.34552383 -0.51179457 0
-0.97854066 0.26499557 -0.48835087 0
-0.03646946 0.45463181 -0.30238104 0
-0.08058691 0.46198654 -0.3057394 0
-0.17341828 0.4782486 -0.31669188 0
-0.11492658 0.44688416 -0.31536674 0
-0.17347813 0.43364716 -0.32608509 0
-0.16412807 0.49523926 -0.30457687 0
-0.65937209 0.45924377 -0.54651546 0
-0.7346282 0.48508072 -0.55571938 0
-0.81924033 0.49618912 -0.55275345 0
-0.66692638 0.37754059 -0.53289938 0
-0.74445558 0.37642288 -0.52280045 0
-0.85397553 0.40104675 -0.52874708 0
-0.95903325 0.42831039 -0.53520632 0
-0.68335533 0.3085556 -0.5174408 0
-0.75235248 0.28890991 -0.49760056 0
-0.84600663 0.29150772 -0.49402094 0
-0.95519328 0.33671188 -0.50603485 0
-0.79461837 0.20470047 -0.47428513 0
-0.88312411 0.2299118 -0.48338652 0
-0.97310138 0.2189827 -0.47681189 0
-0.80694342 0.10535049 -0.44841719 0
-0.89582348 0.10575104 -0.44546604 0
-0.99984527 0.12781525 -0.44877291 0
-0.81867528 -0.0091819763 -0.41920853 0
-0.89762545 0.011989594 -0.42284441 0
-0.99102116 -0.0095252991 -0.41266394 0
-0.86013079 -0.085762024 -0.39842939 0
-0.93183827 -0.07780838 -0.39721584 0
-0.85951185 -0.20658112 -0.37313271 0
-0.95068073 -0.16283798 -0.37607384 0
-0.89274859 -0.27295303 -0.35549212 0
-0.9718554 -0.27379227 -0.34837103 0
-0.90570188 -0.38104248 -0.32710409 0
-0.98565984 -0.36710739 -0.32951212 0
-0.93378234 -0.48750305 -0.30818081 0
-0.24056029 0.33187103 -0.39011717 0
-0.99689698 0.090137482 -0.42771196 0
0.33381605 0.46973801 -0.30128336 0
0.26042151 0.4675293 -0.30633831 0
0.169204 0.4628334 -0.31099939 0
0.065092325 0.45529938 -0.31552601 0
-0.013307333 0.4556427 -0.32186985 0
-0.12168741 0.47496796 -0.3205204 0
0.091207981 0.40060043 -0.32683659 0
-0.039665461 0.42061996 -0.33436918 0
-0.13515711 0.42631912 -0.34343863 0
-0.21551037 0.42106628 -0.35605621 0
-0.24916649 0.36384583 -0.37738466 0
0.27884817 0.48403168 -0.29463482 0
0.17312908 0.49597168 -0.28928423 0
