# .PCD v0.7 - Point Cloud Data file format
VERSION 0.7
FIELDS x y z intensity
SIZE 4 4 4 4
TYPE F F F F
COUNT 1 1 1 1
WIDTH 1291
HEIGHT 1
VIEWPOINT 0 0 0 1 0 0 0
POINTS 1291
DATA ascii
0.68004417 -0.39555073 -0.35005975 0
0.77441216 -0.43499041 -0.34389818 0
0.8058548 -0.46346664 -0.34733176 0
0.91560936 -0.42038512 -0.34217775 0
0.45530891 -0.33107448 -0.35576713 0
0.56422234 -0.35322762 -0.35310775 0
0.67951775 -0.31924534 -0.34910935 0
0.79883766 -0.33898735 -0.34509569 0
0.88891411 -0.34058857 -0.3387962 0
0.47262383 -0.2306881 -0.35674405 0
0.58559799 -0.215096 -0.35383898 0
0.69356346 -0.19053173 -0.34925228 0
0.70641708 -0.22262025 -0.35066593 0
0.82312393 -0.21389771 -0.34620041 0
0.93294907 -0.21444583 -0.34179103 0
0.47781563 -0.13200188 -0.35684258 0
0.57419014 -0.10852981 -0.35209817 0
0.69235039 -0.11020374 -0.34868866 0
0.79407501 -0.16406035 -0.34327823 0
0.82412338 -0.089311123 -0.34556365 0
0.93071365 -0.11283588 -0.34102893 0
0.46938705 -0.023707151 -0.35566443 0
0.56277847 -0.042683363 -0.35086882 0
0.69437408 -0.0054044724 -0.3485226 0
0.78984833 -0.011517763 -0.3424198 0
0.82579231 -0.032198906 -0.34550899 0
0.93173218 -0.026640654 -0.34082931 0
0.48684311 0.087936401 -0.35698438 0
0.57647514 0.073995352 -0.35191923 0
0.68399048 0.062085867 -0.34758836 0
0.8055687 0.11722398 -0.34373039 0
0.83393669 0.093111753 -0.34604132 0
0.93576622 0.060391426 -0.34099841 0
0.46326637 0.14116955 -0.35514158 0
0.57075691 0.16059923 -0.35155833 0
0.68329239 0.22132897 -0.34787387 0
0.71810532 0.17686272 -0.35051805 0
0.83054543 0.19910336 -0.34591413 0
0.92824173 0.17364335 -0.34009624 0
0.47151566 0.30097508 -0.35647541 0
0.54097557 0.24566388 -0.35357094 0
0.70519829 0.29994774 -0.34994662 0
0.79919052 0.2534759 -0.34353858 0
0.89996147 0.23398399 -0.3377279 0
0.90643692 0.3031311 -0.33835107 0
0.43265724 0.3636775 -0.35400939 0
0.57907867 0.36750579 -0.35326898 0
0.67276764 0.3537643 -0.34780073 0
0.79937935 0.34035826 -0.34372336 0
0.84866142 0.41009665 -0.3409937 0
0.91602898 0.372473 -0.33930141 0
0.4444313 0.4853704 -0.35591078 0
0.5593071 0.48416018 -0.35284954 0
0.66102982 0.45598745 -0.34771079 0
0.79899406 0.49132013 -0.34437782 0
0.88458633 0.49710703 -0.33743918 0
-0.76915359 -0.47262645 -0.34515584 0
-0.71767426 -0.44194722 -0.34726816 0
-0.62516022 -0.47056222 -0.34951276 0
-0.52126122 -0.44699144 -0.35362899 0
-0.40368462 -0.45884299 -0.35604346 0
-0.32106209 -0.43790531 -0.3563022 0
-0.21431351 -0.45110559 -0.35528898 0
-0.085794449 -0.44191456 -0.35460186 0
-0.0540905 -0.46455812 -0.35776848 0
0.062623978 -0.46443963 -0.35681415 0
0.1822319 -0.43264151 -0.35565388 0
0.25045967 -0.46183491 -0.3574186 0
0.38388824 -0.44295835 -0.35677046 0
-0.70684624 -0.35029078 -0.34780705 0
-0.60794258 -0.35008669 -0.35133624 0
-0.544487 -0.35581875 -0.35282278 0
-0.40006447 -0.34114718 -0.35660428 0
-0.32217216 -0.35297751 -0.3553068 0
-0.23745155 -0.34541082 -0.35570294 0
-0.15522385 -0.33947706 -0.35619414 0
-0.052610397 -0.32907724 -0.35671479 0
0.050106049 -0.34673977 -0.35706842 0
0.16514206 -0.35079622 -0.35812575 0
0.24465179 -0.36040425 -0.35618407 0
0.37259293 -0.36112046 -0.3554334 0
-0.71316719 -0.2486465 -0.34809804 0
-0.61439705 -0.26103902 -0.35147804 0
-0.50268936 -0.25178146 -0.35372871 0
-0.43104362 -0.24840736 -0.35598767 0
-0.32071877 -0.25614905 -0.3570199 0
-0.21894073 -0.23388958 -0.35666221 0
-0.15598679 -0.24568915 -0.35560358 0
-0.045303345 -0.2427721 -0.35692143 0
0.048078537 -0.26045895 -0.35645401 0
0.1689949 -0.25931334 -0.35800672 0
0.26013756 -0.27049136 -0.35714954 0
0.39673233 -0.22181416 -0.35727406 0
-0.72151947 -0.14254785 -0.34820533 0
-0.62467575 -0.15585661 -0.35090905 0
-0.52955055 -0.16552258 -0.35247934 0
-0.36763763 -0.12805295 -0.35683393 0
-0.31455803 -0.16899514 -0.35666269 0
-0.22397041 -0.14098716 -0.35600537 0
-0.13049698 -0.13939142 -0.35750526 0
-0.0052947998 -0.14823389 -0.35728037 0
0.051671982 -0.15446734 -0.35654229 0
0.17333794 -0.1641624 -0.35813934 0
0.26138496 -0.17462158 -0.35705864 0
0.37532425 -0.14841175 -0.35565537 0
-0.72542191 -0.053581953 -0.34815651 0
-0.61459351 -0.046202421 -0.35061461 0
-0.51946449 -0.060452938 -0.35290295 0
-0.43218231 -0.073433399 -0.35492039 0
-0.30715179 -0.037060022 -0.35713065 0
-0.19229507 -0.027040005 -0.35861778 0
-0.12675095 -0.050846815 -0.35781205 0
-0.041921616 -0.046227932 -0.3570289 0
0.054210663 -0.035947084 -0.35682207 0
0.17457008 -0.069981575 -0.35823905 0
0.27017212 -0.070318699 -0.35780913 0
0.37803459 -0.046164036 -0.35630518 0
-0.70594978 0.027960539 -0.34918851 0
-0.61694908 0.062517405 -0.35162175 0
-0.54563141 0.037738323 -0.35093296 0
-0.41830063 0.042225838 -0.3551482 0
-0.32110405 0.047720909 -0.3566215 0
-0.20254326 0.038578033 -0.35650706 0
-0.12623215 0.03483057 -0.35804617 0
-0.048046112 0.060955763 -0.35687047 0
0.060218811 0.041110516 -0.35752535 0
0.17064857 0.047489643 -0.35822487 0
0.26450157 0.047235727 -0.35768366 0
0.38254738 0.070721149 -0.35685337 0
-0.72444916 0.14457202 -0.34950739 0
-0.62299156 0.15383554 -0.3519299 0
-0.52859306 0.14819837 -0.35341471 0
-0.41494942 0.15562844 -0.3556844 0
-0.30094337 0.15156198 -0.35710406 0
-0.21048546 0.16049123 -0.3565737 0
-0.15405273 0.13763571 -0.35641152 0
-0.049837112 0.14935875 -0.35721689 0
0.06734848 0.14351559 -0.35859472 0
0.18971252 0.15173078 -0.35761493 0
0.38552475 0.15795279 -0.35717028 0
-0.7057972 0.26975012 -0.35098475 0
-0.6259079 0.2468996 -0.35303265 0
-0.50131607 0.25142694 -0.35530776 0
-0.39749718 0.26474261 -0.35764676 0
-0.31974602 0.23620749 -0.35682911 0
-0.20879555 0.2664392 -0.35756099 0
-0.15665436 0.25317597 -0.35711443 0
-0.044036865 0.24959135 -0.35840249 0
0.046197891 0.2444458 -0.35771638 0
0.15924644 0.23850846 -0.35846186 0
0.24978256 0.24490309 -0.35757059 0
0.38065338 0.23503494 -0.35699224 0
-0.77340698 0.36689544 -0.34821767 0
-0.70985603 0.3520782 -0.35108995 0
-0.61525726 0.34789133 -0.35407674 0
-0.53294754 0.3482604 -0.35525721 0
-0.40446472 0.34992886 -0.35815543 0
-0.30742836 0.33672214 -0.35917419 0
-0.22584152 0.35498238 -0.35871452 0
-0.11440849 0.36166716 -0.35862684 0
-0.032369614 0.33772397 -0.35778743 0
0.087055206 0.34230018 -0.35786521 0
0.15703583 0.31039453 -0.35892171 0
0.25008202 0.35480022 -0.35813999 0
0.36180496 0.35749769 -0.35608977 0
-0.72935677 0.46218491 -0.35131294 0
-0.63215446 0.45668387 -0.35446274 0
-0.50950623 0.44814205 -0.35738438 0
-0.43351555 0.43658209 -0.35677212 0
-0.32987976 0.44990039 -0.35962367 0
-0.22820473 0.4416368 -0.35992879 0
-0.10627556 0.46038079 -0.36018753 0
0.024202347 0.42506099 -0.35853308 0
0.10893631 0.47226954 -0.35744154 0
0.18799782 0.44733739 -0.35697621 0
0.24679947 0.40783 -0.35822922 0
0.36287117 0.4481566 -0.35678393 0
0.48903465 -0.46304369 -0.35271317 0
0.61239052 -0.4380033 -0.34927696 0
0.75068474 -0.461308 -0.34734726 0
0.90769386 -0.44668603 -0.34275353 0
0.51013756 -0.34269309 -0.35407901 0
0.61547089 -0.36213994 -0.34910721 0
0.75564384 -0.36847591 -0.34707838 0
0.88664818 -0.34746027 -0.34024274 0
0.49567223 -0.25695157 -0.35278559 0
0.60388947 -0.26405239 -0.34758168 0
0.65868187 -0.26381087 -0.3523578 0
0.75653648 -0.25486255 -0.34656441 0
0.90225601 -0.24156904 -0.34117681 0
0.52028847 -0.13347125 -0.35474539 0
0.62680054 -0.15495229 -0.34926468 0
0.74591064 -0.15169048 -0.34540087 0
0.90664482 -0.15113306 -0.34137779 0
0.50042915 -0.038508415 -0.35305297 0
0.62175179 -0.07751441 -0.34878582 0
0.74354744 -0.06654048 -0.34516913 0
0.90904045 -0.053435326 -0.34155542 0
0.49864197 0.066262484 -0.35314643 0
0.61295319 0.057268858 -0.34834099 0
0.69825554 0.045928717 -0.34623933 0
0.76156807 0.013712645 -0.34674734 0
0.89721107 0.023972034 -0.34074503 0
0.48450661 0.17089605 -0.3525393 0
0.61830902 0.1503942 -0.34915525 0
0.75208855 0.17879534 -0.34661371 0
0.89906502 0.15393639 -0.34130704 0
0.99860954 0.14302802 -0.3303687 0
0.3476944 0.28474855 -0.35460359 0
0.50888062 0.27153158 -0.35506219 0
0.62087822 0.27432132 -0.35015368 0
0.69718933 0.24055409 -0.34711868 0
0.86949348 0.25879264 -0.33928889 0
0.48436928 0.34079123 -0.35384089 0
0.5999794 0.34066224 -0.34917176 0
0.70691109 0.33000612 -0.34429044 0
0.86615753 0.35368562 -0.33949828 0
0.4925499 0.46353865 -0.35553002 0
0.59361458 0.4616437 -0.3499648 0
0.73282433 0.4109838 -0.34696263 0
0.74482727 0.48729515 -0.34847295 0
0.873312 0.4317863 -0.34055072 0
-0.1414547 -0.49940491 -0.35363966 0
-0.93617439 -0.40756011 -0.33586574 0
-0.83196449 -0.41119075 -0.33951861 0
-0.74081802 -0.42105293 -0.34264088 0
-0.62553787 -0.41643596 -0.34699333 0
-0.52367973 -0.41724586 -0.34966749 0
-0.43634987 -0.4276464 -0.35200137 0
-0.34091949 -0.42601752 -0.35234123 0
-0.24205399 -0.42434549 -0.35262698 0
-0.12561417 -0.40232301 -0.35406929 0
-0.9420948 -0.30809808 -0.33624619 0
-0.84282494 -0.32103992 -0.339522 0
-0.74791527 -0.28530478 -0.34392309 0
-0.64780235 -0.31569338 -0.34644192 0
-0.54920387 -0.31163478 -0.34988552 0
-0.42772484 -0.32706499 -0.35179013 0
-0.33700752 -0.3044281 -0.35161132 0
-0.22776413 -0.30981112 -0.35294282 0
-0.11149025 -0.30763674 -0.35458887 0
-0.95145607 -0.21796894 -0.33647811 0
-0.86413956 -0.22308874 -0.3394348 0
-0.7353878 -0.20656252 -0.3445676 0
-0.64657402 -0.19154119 -0.34721088 0
-0.53708076 -0.22847652 -0.35028023 0
-0.44018364 -0.23297906 -0.35176879 0
-0.31401634 -0.20568371 -0.35308105 0
-0.22894287 -0.22682643 -0.35238934 0
-0.13084412 -0.23672152 -0.35252142 0
-0.99430275 -0.15901113 -0.33471143 0
-0.93499756 -0.12653875 -0.33734643 0
-0.82456589 -0.12968516 -0.34083182 0
-0.72798347 -0.12934661 -0.34543949 0
-0.64994621 -0.10818529 -0.34640723 0
-0.54665756 -0.11275268 -0.34909874 0
-0.43588829 -0.12533998 -0.35230774 0
-0.3200531 -0.10580683 -0.35231918 0
-0.22710228 -0.12172747 -0.3522768 0
-0.12308311 -0.097738266 -0.35286039 0
-0.084606171 -0.12856507 -0.35610962 0
-0.98993111 0.023456573 -0.33551663 0
-0.94329453 -0.026025534 -0.33761317 0
-0.84010887 -0.024506807 -0.34101516 0
-0.73291779 -0.039381742 -0.34488255 0
-0.64008904 -0.0043456554 -0.34698468 0
-0.54200363 -0.030986309 -0.3486985 0
-0.40830421 -0.031327724 -0.35177732 0
-0.31403923 -0.011415482 -0.35280108 0
-0.13596916 0.0078229904 -0.35447901 0
-0.93269539 0.080233574 -0.33843565 0
-0.82442474 0.086497784 -0.34191555 0
-0.72467995 0.068630219 -0.34607065 0
-0.63620758 0.092801571 -0.347992 0
-0.53439903 0.072910309 -0.34901977 0
-0.42508125 0.064816475 -0.35138243 0
-0.3134613 0.070929766 -0.35305423 0
-0.22047424 0.065848351 -0.35300577 0
-0.11650467 0.076763391 -0.353634 0
-0.9859314 0.19103217 -0.3368606 0
-0.94589424 0.17647123 -0.33831471 0
-0.82948685 0.17688131 -0.3418684 0
-0.72211647 0.15795469 -0.34612972 0
-0.65140915 0.17401791 -0.34780169 0
-0.54374695 0.17461395 -0.35004079 0
-0.42595863 0.19254422 -0.35236162 0
-0.29850769 0.19361758 -0.35472971 0
-0.2127552 0.18677926 -0.35412282 0
-0.10922241 0.17182875 -0.35461074 0
-0.94312859 0.28511024 -0.33897811 0
-0.84752464 0.28611732 -0.34244746 0
-0.72688484 0.26895952 -0.34725511 0
-0.65497017 0.26705766 -0.34874314 0
-0.58140564 0.27262282 -0.34974962 0
-0.44674492 0.28049588 -0.35270953 0
-0.3049469 0.27686429 -0.3551234 0
-0.22032356 0.30002332 -0.35477835 0
-0.11797333 0.28784609 -0.35466611 0
-0.94478226 0.38284731 -0.3392545 0
-0.83400154 0.38670826 -0.34326959 0
-0.72597122 0.37248158 -0.34764522 0
-0.64666939 0.37426853 -0.34954357 0
-0.53205872 0.3730402 -0.35198742 0
-0.43904686 0.3744781 -0.35251713 0
-0.31788635 0.35976434 -0.35535187 0
-0.23207664 0.40207648 -0.35590714 0
-0.1201458 0.38260388 -0.35590148 0
-0.95171928 0.49464583 -0.33949208 0
-0.8576622 0.49178648 -0.34316486 0
-0.73743439 0.48015237 -0.34726435 0
-0.64326477 0.47231936 -0.35067922 0
-0.53177071 0.4976418 -0.35340893 0
-0.44314575 0.48304081 -0.35398233 0
-0.33543968 0.48648405 -0.35613245 0
-0.23937416 0.47031832 -0.35681844 0
-0.13570595 0.4670012 -0.35655278 0
0.62027168 -0.4964776 -0.34891808 0
-0.054042816 -0.43821502 -0.35212177 0
0.074390411 -0.4497447 -0.35307717 0
0.19779015 -0.40915489 -0.352494 0
0.21987343 -0.42915177 -0.35461384 0
0.32857704 -0.45019388 -0.3516227 0
0.47249031 -0.40527868 -0.35114825 0
0.59783173 -0.396209 -0.34592003 0
0.62718582 -0.43076587 -0.34881377 0
0.77029419 -0.40027905 -0.34306836 0
0.91585159 -0.3720026 -0.33614343 0
0.95854759 -0.39644718 -0.34006786 0
-0.019634247 -0.31553602 -0.35427845 0
0.084354401 -0.32723737 -0.35310864 0
0.2170372 -0.31274843 -0.35363978 0
0.34817505 -0.33209109 -0.35284054 0
0.44997978 -0.35237336 -0.34906429 0
0.59716797 -0.31765079 -0.34556478 0
0.76811218 -0.31948161 -0.34238404 0
0.93246269 -0.30154586 -0.33724672 0
-0.040225983 -0.2482698 -0.35215175 0
0.075464249 -0.24141312 -0.35195816 0
0.22297668 -0.2341938 -0.35383546 0
0.36013412 -0.21614242 -0.35369211 0
0.48571014 -0.21523547 -0.35189807 0
0.59799194 -0.1992116 -0.34513164 0
0.76449394 -0.22499585 -0.34164959 0
0.921381 -0.20913696 -0.33599329 0
-0.015699387 -0.10757446 -0.35390919 0
0.10640144 -0.13758445 -0.35433644 0
0.22907639 -0.1285069 -0.35416257 0
0.36009026 -0.11558628 -0.3538065 0
0.48299026 -0.10703588 -0.35175776 0
0.63448524 -0.073307991 -0.3479408 0
0.77867889 -0.12365818 -0.34261131 0
0.93974876 -0.092970848 -0.33734405 0
0.067354202 0.0051417351 -0.35435164 0
0.16470337 -0.047222614 -0.35398108 0
0.21631622 0.017718792 -0.35322815 0
0.35255814 -0.012733221 -0.35345513 0
0.48156166 -0.020421743 -0.35159028 0
0.62235069 -0.026082516 -0.34691381 0
0.76088142 -0.01473403 -0.34108824 0
0.9282589 -0.050292015 -0.33638531 0
-0.012552261 0.062304735 -0.35432208 0
0.090719223 0.070488691 -0.35326976 0
0.19728088 0.10910487 -0.35203713 0
0.22772026 0.084770441 -0.35432148 0
0.35033798 0.099494696 -0.35342687 0
0.48517227 0.066488266 -0.35196 0
0.61104774 0.080009699 -0.34612304 0
0.62539291 0.039904118 -0.34720725 0
0.74790764 0.10586548 -0.34026742 0
0.93627739 0.064274788 -0.33717006 0
-0.028863907 0.17140508 -0.35350728 0
0.10189247 0.16054583 -0.35451436 0
0.21308708 0.17446494 -0.35357034 0
0.34286499 0.20241117 -0.35286087 0
0.46902657 0.17198181 -0.35098463 0
0.60727501 0.17701197 -0.34614289 0
0.75912476 0.21220303 -0.34154761 0
0.90865135 0.21179605 -0.33511168 0
0.93188286 0.15993595 -0.3369537 0
-0.042224884 0.28641224 -0.35322994 0
0.079143524 0.29950261 -0.35364747 0
0.17816544 0.29178858 -0.35475051 0
0.22260094 0.2434423 -0.35468602 0
0.34746933 0.30641961 -0.35344845 0
0.46542168 0.29122448 -0.35132223 0
0.60400009 0.26729703 -0.34632248 0
0.74733925 0.302356 -0.34113175 0
0.90048027 0.27357101 -0.33459401 0
-0.056964874 0.37219787 -0.353109 0
0.073947906 0.40571976 -0.3541649 0
0.20277786 0.39580202 -0.35396153 0
0.33578682 0.37768412 -0.35280728 0
0.44839287 0.39799619 -0.35066038 0
0.597229 0.35182261 -0.34636515 0
0.73085022 0.38745356 -0.34046763 0
0.89304543 0.36754346 -0.33432698 0
-0.050603867 0.48985863 -0.35578465 0
0.20127487 0.47656178 -0.35431379 0
0.30343628 0.49906278 -0.35099727 0
0.35828781 0.48754811 -0.34969473 0
0.59353638 0.477036 -0.34712696 0
0.73233032 0.4490211 -0.34090185 0
0.87264442 0.48849416 -0.33337498 0
-0.84364128 -0.49363375 -0.3392244 0
-0.96822929 -0.40730333 -0.33485657 0
-0.84583664 -0.40959525 -0.33907741 0
-0.73421669 -0.40279508 -0.34311765 0
-0.62951279 -0.41436601 -0.34727681 0
-0.95948029 -0.2975471 -0.33505338 0
-0.87053299 -0.3119607 -0.3389253 0
-0.7599411 -0.28724575 -0.34301603 0
-0.64532089 -0.30476403 -0.3478986 0
-0.58773994 -0.2670269 -0.35016364 0
-0.9482975 -0.20791435 -0.33578551 0
-0.86203194 -0.19117832 -0.33935779 0
-0.76108932 -0.19454718 -0.34302604 0
-0.6975975 -0.21298146 -0.34564453 0
-0.95176506 -0.10328007 -0.33685267 0
-0.85326195 -0.098504782 -0.34008282 0
-0.76448631 -0.097270012 -0.34368211 0
-0.68723869 -0.091219902 -0.34588063 0
-0.95517731 -0.011191845 -0.33737791 0
-0.84819984 -0.0049929619 -0.34068042 0
-0.76471329 -0.0066075325 -0.34377974 0
-0.68934441 0.0032510757 -0.34540397 0
-0.95330429 0.097836018 -0.33759707 0
-0.85821915 0.095134735 -0.3410694 0
-0.75646782 0.097984076 -0.34486341 0
-0.68249893 0.10628986 -0.34653151 0
-0.95144081 0.19031525 -0.33823973 0
-0.85328293 0.19737387 -0.34122121 0
-0.76613808 0.20016432 -0.34399635 0
-0.67567444 0.19617295 -0.34786332 0
-0.95505905 0.2878952 -0.33835202 0
-0.83590889 0.29380083 -0.34318578 0
-0.74281693 0.30401397 -0.34561652 0
-0.64424706 0.31272817 -0.34887981 0
-0.59155655 0.27718711 -0.34967023 0
-0.95383453 0.40813851 -0.33905375 0
-0.84720612 0.38656831 -0.34310323 0
-0.75653267 0.38039327 -0.34596062 0
-0.65353012 0.416502 -0.34932411 0
-0.59858894 0.38348198 -0.35049009 0
-0.87528038 0.48700523 -0.34202164 0
-0.74575996 0.48545504 -0.3467077 0
-0.59512901 0.47451735 -0.35199565 0
-0.53590965 -0.49545884 -0.35062736 0
-0.45811653 -0.49980283 -0.3502413 0
-0.34053612 -0.47859788 -0.35259104 0
0.00058746338 -0.49742413 -0.35185677 0
0.41775513 -0.4840703 -0.34805852 0
0.60227013 -0.4680841 -0.34760076 0
-0.53409386 -0.42175913 -0.35018748 0
-0.4403019 -0.40408635 -0.35073233 0
-0.33319283 -0.39816499 -0.35231829 0
-0.23500252 -0.40654111 -0.35134202 0
-0.11319923 -0.39842677 -0.35177642 0
8.0108643e-05 -0.43098402 -0.35115409 0
0.14205742 -0.42088437 -0.35317343 0
0.2750206 -0.4056263 -0.35086989 0
0.4229126 -0.39851499 -0.34792078 0
0.58230209 -0.41867352 -0.34516793 0
-0.51352692 -0.30801296 -0.35073054 0
-0.42861557 -0.31672287 -0.35095417 0
-0.32349205 -0.30259728 -0.35230839 0
-0.23545647 -0.32057142 -0.35054362 0
-0.11000061 -0.3298583 -0.35149956 0
-0.094648361 -0.26379228 -0.35241663 0
0.017532349 -0.31927752 -0.35184896 0
0.14878082 -0.3126328 -0.35296094 0
0.28755569 -0.31459689 -0.35151422 0
0.44561386 -0.3232398 -0.3495636 0
0.58589745 -0.29838443 -0.34455353 0
0.59928703 -0.34507298 -0.34612972 0
-0.62264442 -0.23013973 -0.34657699 0
-0.56419373 -0.2046895 -0.34949249 0
-0.44381523 -0.20349908 -0.35116047 0
-0.31772423 -0.20818567 -0.35218686 0
-0.21922302 -0.21263552 -0.35131073 0
-0.19845581 -0.23829174 -0.35328126 0
-0.080684662 -0.18062901 -0.35321391 0
0.022901535 -0.21764088 -0.35176003 0
0.15069962 -0.20969582 -0.35259229 0
0.27846909 -0.22412395 -0.35050577 0
0.30659676 -0.23889518 -0.35290843 0
0.46832848 -0.21490002 -0.35119492 0
0.59378052 -0.16658664 -0.34445286 0
0.59946632 -0.22179794 -0.34525228 0
-0.54878807 -0.10751534 -0.34905249 0
-0.41165924 -0.10727429 -0.35126936 0
-0.342659 -0.096534491 -0.35213047 0
-0.24202728 -0.13307786 -0.35214609 0
-0.086601257 -0.094793797 -0.35242152 0
0.03429985 -0.10318947 -0.35235626 0
0.14809227 -0.10766506 -0.35205346 0
0.29720688 -0.093234777 -0.35200179 0
0.31592751 -0.13054085 -0.35353303 0
0.45985794 -0.11479855 -0.35028309 0
0.61007309 -0.08962965 -0.34554678 0
-0.56808281 -0.0057468414 -0.34787518 0
-0.4690876 -0.010189295 -0.35029179 0
-0.36668587 -0.018638372 -0.35241055 0
-0.21194458 0.03119278 -0.35141343 0
-0.19633102 -0.027374983 -0.35272306 0
-0.078388214 -0.0089895725 -0.35298073 0
0.048799515 0.0089008808 -0.35342789 0
0.16762352 0.02370429 -0.3535471 0
0.31535339 -0.015824318 -0.35343546 0
0.44535637 -0.00451231 -0.34872478 0
0.62426567 -0.013836622 -0.34651297 0
-0.5849762 0.097153187 -0.34844297 0
-0.4861145 0.12274361 -0.35057396 0
-0.3384552 0.099894285 -0.35227001 0
-0.23626518 0.092489481 -0.35244054 0
-0.073890686 0.097366571 -0.3534075 0
0.058296204 0.10441232 -0.35424715 0
0.16970062 0.10410905 -0.35376811 0
0.29631615 0.13762259 -0.3517248 0
0.32421494 0.076892376 -0.35418272 0
0.43109512 0.065403461 -0.34743279 0
0.58875656 0.10902667 -0.34338599 0
0.62636566 0.051158905 -0.34655958 0
-0.54710388 0.19342899 -0.34931147 0
-0.40917206 0.19098425 -0.35105234 0
-0.34043121 0.18436122 -0.35226667 0
-0.20350266 0.20714784 -0.35247767 0
-0.096183777 0.17745376 -0.35179216 0
0.047142029 0.17318249 -0.35349369 0
0.16291618 0.18754482 -0.35340881 0
0.29043961 0.18666577 -0.35113895 0
0.44843864 0.1750958 -0.34889811 0
0.59267616 0.20744395 -0.34378052 0
-0.50891876 0.29927993 -0.35054737 0
-0.45218849 0.2849052 -0.35168874 0
-0.34412384 0.30287957 -0.35314602 0
-0.21292114 0.32999778 -0.35271144 0
-0.17439842 0.31571078 -0.35522622 0
-0.081506729 0.30010557 -0.35346758 0
0.046737671 0.30954981 -0.35399514 0
0.15639877 0.26208472 -0.35314661 0
0.28666878 0.28301263 -0.35078281 0
0.44784164 0.30368495 -0.34913909 0
0.58822823 0.2703352 -0.34355104 0
-0.52280807 0.3997035 -0.35083872 0
-0.4045887 0.38041663 -0.35348666 0
-0.30873108 0.37933373 -0.35491133 0
-0.2690239 0.39301276 -0.35379905 0
-0.10206032 0.38421774 -0.35261172 0
0.044555664 0.41337419 -0.35440648 0
0.16845703 0.38836527 -0.35456944 0
0.28930855 0.38009071 -0.35107982 0
0.46258736 0.41047096 -0.35071939 0
0.61033249 0.39083409 -0.34571439 0
-0.53186226 0.4845438 -0.3514182 0
-0.41418648 0.46823835 -0.35398567 0
-0.31294823 0.49826837 -0.35617757 0
-0.22027397 0.49941039 -0.35507166 0
-0.18837738 0.45549726 -0.35636103 0
-0.096651077 0.4703598 -0.35438669 0
0.022037506 0.48304057 -0.35362738 0
0.31431961 0.46463823 -0.3532632 0
0.43969536 0.48719931 -0.34929514 0
0.61754036 0.49778247 -0.34678322 0
0.72547722 -0.48951268 -0.34097058 0
0.73448372 -0.42020583 -0.34113383 0
0.9202404 -0.40830612 -0.33577973 0
0.7504425 -0.31011963 -0.34169471 0
0.91898346 -0.31412005 -0.33495212 0
0.7606678 -0.20923376 -0.34193927 0
0.92472649 -0.23430252 -0.33498317 0
0.75572777 -0.12011695 -0.34108531 0
0.93943024 -0.12424159 -0.33576345 0
0.74289894 0.0054414272 -0.33961201 0
0.92834854 0.0028829575 -0.33444995 0
0.74984932 0.10962272 -0.34008521 0
0.92977333 0.11571908 -0.33426589 0
0.74502182 0.20401382 -0.33973825 0
0.91205597 0.15961409 -0.33261842 0
0.7248745 0.28499746 -0.33826077 0
0.8982029 0.29197001 -0.33125293 0
0.94615936 0.26653194 -0.33529651 0
0.72807693 0.39205074 -0.33873504 0
0.91867638 0.38832569 -0.33294463 0
0.92148018 0.46726274 -0.33325684 0
-0.98723412 -0.48395348 -0.34104097 0
-0.89298439 -0.43842244 -0.3442713 0
-0.77133369 -0.45792532 -0.34866697 0
-0.65325356 -0.46384668 -0.35254186 0
-0.59583092 -0.46045303 -0.35498351 0
-0.47479248 -0.46173906 -0.35898525 0
-0.3656044 -0.4652741 -0.35925621 0
-0.2243824 -0.43753719 -0.36120981 0
-0.14193153 -0.45356297 -0.3586244 0
0.0045661926 -0.4474225 -0.3589763 0
0.17024422 -0.45395637 -0.36026615 0
0.34412003 -0.43789601 -0.36056578 0
-0.97231674 -0.39014816 -0.34195727 0
-0.88759232 -0.36421227 -0.34454346 0
-0.79756737 -0.38174987 -0.34746671 0
-0.67678452 -0.34204173 -0.35273236 0
-0.59246635 -0.35918403 -0.35503864 0
-0.44819832 -0.34636235 -0.36030436 0
-0.35083961 -0.36126685 -0.35985571 0
-0.23091507 -0.3522737 -0.36008054 0
-0.12312317 -0.33948112 -0.35964346 0
-0.10209084 -0.36154461 -0.36160183 0
0.0019836426 -0.37200856 -0.35834551 0
0.16866684 -0.37314034 -0.35971737 0
0.33889389 -0.38536096 -0.35995972 0
-0.95687103 -0.25594592 -0.34307629 0
-0.86709976 -0.27052832 -0.34616631 0
-0.7641964 -0.26062202 -0.35016513 0
-0.66372108 -0.25120544 -0.35379666 0
-0.58052635 -0.26226759 -0.35547781 0
-0.46459389 -0.25231218 -0.3581267 0
-0.37552643 -0.29201388 -0.35734975 0
-0.21920776 -0.24206424 -0.3606298 0
-0.11130333 -0.24951506 -0.36033392 0
0.02060318 -0.27303052 -0.35960037 0
0.18785667 -0.27363014 -0.36102134 0
0.35114861 -0.28582287 -0.36084735 0
-0.95898628 -0.13461137 -0.34412867 0
-0.8436985 -0.15574121 -0.34818459 0
-0.7648735 -0.1634202 -0.35021776 0
-0.65469933 -0.16057587 -0.35440475 0
-0.57328224 -0.167907 -0.35555583 0
-0.45260811 -0.15292907 -0.35861534 0
-0.33483696 -0.15682745 -0.36046809 0
-0.22065163 -0.14582944 -0.3602981 0
-0.11585617 -0.15286803 -0.35975993 0
0.029811859 -0.15595102 -0.36015701 0
0.17861176 -0.14332604 -0.36001974 0
0.19701004 -0.17571115 -0.36158478 0
0.35818672 -0.16517687 -0.36146224 0
-0.96516418 -0.048157692 -0.34363723 0
-0.85281563 -0.069647074 -0.34768355 0
-0.74499702 -0.042380095 -0.352157 0
-0.66529083 -0.063052893 -0.35324013 0
-0.55457497 -0.058180094 -0.35671288 0
-0.44902229 -0.049932718 -0.35854685 0
-0.32749176 -0.029401302 -0.36102378 0
-0.14702606 -0.05046773 -0.36023384 0
0.040178299 -0.068021059 -0.36098665 0
0.17631912 -0.087148905 -0.35982013 0
0.34028053 -0.062900066 -0.36002612 0
-0.96928787 0.041309595 -0.34447843 0
-0.84980392 0.053378582 -0.3484754 0
-0.75623322 0.050702572 -0.35169774 0
-0.66112328 0.049556255 -0.35429722 0
-0.56875992 0.042652369 -0.35574728 0
-0.45661736 0.068023205 -0.35779071 0
-0.33597565 0.061477423 -0.36037409 0
-0.19750214 0.02946043 -0.36225575 0
-0.10330009 0.049366951 -0.36092287 0
0.027551651 0.0091779232 -0.36004823 0
0.18440056 0.069771767 -0.3607167 0
0.20442772 -0.003443718 -0.36219782 0
0.37267113 0.058819532 -0.36282605 0
-0.93173218 0.14653206 -0.34650499 0
-0.85660172 0.17364955 -0.34869802 0
-0.74610329 0.14412618 -0.35302097 0
-0.65491867 0.14141846 -0.35564339 0
-0.58476257 0.13879752 -0.35549682 0
-0.46364594 0.15241122 -0.35799521 0
-0.33842659 0.13857651 -0.36013842 0
-0.22524834 0.10956573 -0.36025256 0
-0.13284874 0.18490243 -0.35908723 0
-0.085506439 0.14811039 -0.36264801 0
0.04117012 0.13249278 -0.3614586 0
0.16853142 0.14286757 -0.35968494 0
0.35823059 0.14306045 -0.3615194 0
-0.96329308 0.26275444 -0.34502256 0
-0.85332298 0.24261022 -0.34945625 0
-0.76509476 0.2412405 -0.3522867 0
-0.66596222 0.24672341 -0.3558436 0
-0.55591583 0.26174045 -0.35894066 0
-0.44586372 0.24374819 -0.36026216 0
-0.33633232 0.21938419 -0.36111367 0
-0.20959663 0.23321462 -0.36217582 0
-0.11601067 0.26004934 -0.3607887 0
0.029121399 0.241467 -0.36099488 0
0.21247292 0.24435329 -0.36356229 0
0.358778 0.23933911 -0.3615222 0
-0.98263359 0.33311439 -0.34560859 0
-0.86180496 0.32273364 -0.34950984 0
-0.77230072 0.34802175 -0.35265058 0
-0.67101288 0.36307526 -0.35643631 0
-0.55515671 0.360286 -0.36024421 0
-0.46347046 0.32551956 -0.36002707 0
-0.33452225 0.34565759 -0.36273885 0
-0.22287941 0.35199833 -0.36303878 0
-0.12441063 0.33367372 -0.3611995 0
0.025857925 0.32423115 -0.3612141 0
0.1607132 0.35664368 -0.35998899 0
0.20946503 0.30983591 -0.3636561 0
0.33144188 0.32475638 -0.35937661 0
-0.96878433 0.44510102 -0.34638381 0
-0.88490486 0.43981123 -0.3489666 0
-0.78381157 0.43123555 -0.35260737 0
-0.66492653 0.46799207 -0.35787791 0
-0.58130455 0.45770001 -0.35985076 0
-0.46225929 0.42859674 -0.36149204 0
-0.3649807 0.42606783 -0.36168945 0
-0.19366455 0.48801637 -0.36726749 0
-0.097167969 0.44277978 -0.36478221 0
0.031412125 0.42008567 -0.36272967 0
0.15224648 0.43904209 -0.35957819 0
0.33114624 0.44432235 -0.35964346 0
0.49084091 -0.44115281 -0.35775071 0
0.65815926 -0.44958591 -0.35318494 0
0.85645676 -0.41800475 -0.34828216 0
0.49230957 -0.3764298 -0.35770798 0
0.49576759 -0.32352161 -0.35791343 0
0.66286087 -0.3432219 -0.35295826 0
0.83922195 -0.38456702 -0.34656376 0
0.48206139 -0.21758771 -0.3567642 0
0.50788307 -0.24390388 -0.35888791 0
0.67338753 -0.2391417 -0.35340089 0
0.85377502 -0.28788376 -0.34739715 0
0.50720596 -0.12892866 -0.35879898 0
0.67421913 -0.13173604 -0.35313821 0
0.87294197 -0.16116834 -0.34863472 0
0.49139977 -0.016713619 -0.35729897 0
0.49814224 -0.07222724 -0.3579157 0
0.66683197 -0.041319132 -0.35238248 0
0.84421349 -0.055472612 -0.34600955 0
0.52515793 0.081518888 -0.36010307 0
0.66116714 0.056597471 -0.35189539 0
0.82312393 0.040326595 -0.34422976 0
0.48078728 0.10660648 -0.35649979 0
0.66085815 0.1285584 -0.35194474 0
0.82622337 0.15077782 -0.34462118 0
0.48553276 0.24697471 -0.35722858 0
0.5143261 0.20519042 -0.35940129 0
0.65641975 0.22250223 -0.35179973 0
0.83068848 0.25501466 -0.34509623 0
0.48913383 0.38656497 -0.35811412 0
0.50625038 0.33601284 -0.35921371 0
0.65665817 0.32238483 -0.35215008 0
0.80934143 0.31180882 -0.34335917 0
0.49789047 0.46364427 -0.35912049 0
0.66321182 0.44382858 -0.35324395 0
0.82042503 0.44025731 -0.34447491 0
-0.88706017 -0.49072957 -0.33547872 0
-0.72219849 -0.47492886 -0.34184092 0
-0.47314644 -0.49909997 -0.34968942 0
-0.34287453 -0.47217464 -0.351143 0
-0.20526505 -0.4818449 -0.3508662 0
0.10210991 -0.49376369 -0.35043597 0
-0.88868141 -0.39498544 -0.33543581 0
-0.83310318 -0.42401123 -0.33799857 0
-0.724226 -0.4024117 -0.34112686 0
-0.58582306 -0.39534307 -0.34654939 0
-0.47609901 -0.43767452 -0.34862876 0
-0.42742729 -0.34835625 -0.35205752 0
-0.33758163 -0.40203428 -0.35066748 0
-0.17137146 -0.3774693 -0.35267186 0
-0.032388687 -0.38786435 -0.35170043 0
0.13275909 -0.37874556 -0.35188335 0
-0.90678596 -0.28896666 -0.33574474 0
-0.80039215 -0.28818941 -0.34002304 0
-0.67739487 -0.28118396 -0.34452903 0
-0.56930542 -0.27794409 -0.34712011 0
-0.43680191 -0.29029512 -0.35048842 0
-0.33073616 -0.30195785 -0.35011566 0
-0.18206787 -0.28751826 -0.3506664 0
-0.023937225 -0.30444217 -0.35154277 0
0.11965561 -0.3158195 -0.34999669 0
-0.99328613 -0.19368601 -0.33283663 0
-0.8965435 -0.17135978 -0.3361721 0
-0.80673218 -0.19614601 -0.33911252 0
-0.68289757 -0.20669723 -0.34377241 0
-0.5696125 -0.15996504 -0.34576494 0
-0.53186417 -0.16806364 -0.34931982 0
-0.43148232 -0.19192767 -0.3498677 0
-0.3101387 -0.18256903 -0.35085458 0
-0.15464783 -0.16163969 -0.3519901 0
-0.0056037903 -0.20896673 -0.35230517 0
0.1546154 -0.19615698 -0.35207719 0
-0.9093647 -0.10211134 -0.33497471 0
-0.78997612 -0.099458694 -0.34031302 0
-0.6627903 -0.10121441 -0.34497577 0
-0.55089569 -0.07693553 -0.34669983 0
-0.4149456 -0.077302456 -0.35027546 0
-0.30953026 -0.0862813 -0.35020489 0
-0.16737366 -0.097765684 -0.35040456 0
0.0034542084 -0.08515954 -0.35216314 0
0.15172005 -0.10946584 -0.35116583 0
-0.96520996 0.023972034 -0.33489239 0
-0.86556435 0.00036048889 -0.3385216 0
-0.79210091 0.0021970272 -0.34010518 0
-0.66655159 -0.016284704 -0.34391707 0
-0.55183792 -0.0021193027 -0.34602541 0
-0.41511154 0.017026901 -0.34952533 0
-0.27998161 0.023171186 -0.35217732 0
-0.18120956 -0.021784067 -0.34876037 0
0.0060653687 0.025310278 -0.35176772 0
0.15245628 -0.030315399 -0.35073537 0
0.17978668 0.051030636 -0.3527084 0
-0.97797203 0.13284278 -0.33404225 0
-0.86307716 0.10224557 -0.33882153 0
-0.76475525 0.13857603 -0.34246409 0
-0.65213013 0.088661194 -0.34509927 0
-0.54217911 0.12771869 -0.34644854 0
-0.50832558 0.089058876 -0.3492533 0
-0.4092617 0.12990689 -0.34935158 0
-0.28990364 0.11613154 -0.3510164 0
-0.16671371 0.094487906 -0.34956181 0
-0.13102722 0.073257446 -0.35266995 0
0.0051193237 0.10439706 -0.3513639 0
0.17048836 0.099824905 -0.35170829 0
-0.96977615 0.22506213 -0.33496904 0
-0.88329697 0.19238257 -0.33744526 0
-0.76227379 0.2343142 -0.34292495 0
-0.65252876 0.22553849 -0.3458004 0
-0.58994675 0.18437576 -0.34670329 0
-0.40163803 0.24115419 -0.35009193 0
-0.26701736 0.24310803 -0.35269469 0
-0.14377403 0.23202753 -0.35121346 0
-0.12139893 0.18981099 -0.35314071 0
0.01865387 0.20730734 -0.35224456 0
0.15963745 0.21788883 -0.35046762 0
0.18153763 0.17595267 -0.3524009 0
0.32040787 0.23871469 -0.34998691 0
0.36384773 0.21790576 -0.35399127 0
-0.97412491 0.28398609 -0.33488065 0
-0.86867905 0.32310772 -0.33911312 0
-0.78299332 0.30298901 -0.34158671 0
-0.64920616 0.32750702 -0.34679937 0
-0.5807991 0.30520058 -0.34468299 0
-0.52515793 0.28720403 -0.34867567 0
-0.39896393 0.318609 -0.35079187 0
-0.28668594 0.30347824 -0.35155696 0
-0.14372253 0.30888295 -0.35119933 0
0.00086593628 0.27927232 -0.35067356 0
0.18901825 0.31423354 -0.3527838 0
0.31664467 0.30052948 -0.34928542 0
-0.96780777 0.40444636 -0.33601147 0
-0.88171577 0.42111921 -0.33865422 0
-0.77813721 0.4020524 -0.34245646 0
-0.65327454 0.41929078 -0.34714156 0
-0.52113533 0.41628814 -0.35000074 0
-0.39734459 0.39611197 -0.35151011 0
-0.28594589 0.40985894 -0.35263306 0
-0.14237404 0.40286231 -0.35193419 0
0.028547287 0.39768124 -0.35295767 0
0.1734581 0.38738489 -0.35138953 0
0.31978798 0.40692306 -0.34904754 0
-0.66727257 0.48533368 -0.34646231 0
0.18722725 0.49852562 -0.3522172 0
0.25223351 -0.47734785 -0.34907538 0
0.2930851 -0.49677062 -0.35315096 0
0.4377594 -0.45057106 -0.34571624 0
0.47724152 -0.47242165 -0.34981638 0
0.2858696 -0.36877489 -0.3510527 0
0.65066719 -0.3925724 -0.34281766 0
0.6692276 -0.43912911 -0.34528494 0
0.85770798 -0.40940666 -0.33723265 0
0.30375481 -0.26417351 -0.35174036 0
0.48334694 -0.31596851 -0.34860516 0
0.69827843 -0.27987409 -0.34587175 0
0.85783386 -0.30787253 -0.33591855 0
0.30227089 -0.18039799 -0.35097307 0
0.47949219 -0.20042396 -0.34736007 0
0.68645287 -0.19301248 -0.34371287 0
0.89173889 -0.16696739 -0.33745795 0
0.31799126 -0.081668615 -0.35166049 0
0.50382996 -0.07655549 -0.34855783 0
0.705019 -0.071721077 -0.34415257 0
0.88097954 -0.11138034 -0.33589393 0
0.32421684 0.017756462 -0.35164332 0
0.48932076 -0.03472805 -0.34686106 0
0.68694496 0.0068025589 -0.34181052 0
0.88153839 0.0018332005 -0.33490044 0
0.33807182 0.12996387 -0.35234332 0
0.50203323 0.083408117 -0.34710389 0
0.68774986 0.11556125 -0.34106159 0
0.89538574 0.11805987 -0.33523923 0
0.50159264 0.21287584 -0.34629297 0
0.68220329 0.18194818 -0.34015024 0
0.88484001 0.18422151 -0.3338151 0
0.53603172 0.34308696 -0.34870189 0
0.71282578 0.31299376 -0.34216547 0
0.89385986 0.3135891 -0.33354753 0
0.51128197 0.39272952 -0.34644866 0
0.68781281 0.39959216 -0.33967972 0
0.89033699 0.42613602 -0.33242196 0
0.51556587 0.46720815 -0.34664917 0
-0.96552658 -0.089949846 -0.34405559 0
-0.93749046 0.02754426 -0.34640658 0
-0.93310738 0.13733983 -0.34697962 0
-0.83810234 0.12067199 -0.34985685 0
-0.94834328 0.25971389 -0.34626508 0
-0.85951996 0.23791552 -0.35007674 0
-0.97491264 0.33320856 -0.34682447 0
-0.83411789 0.34222984 -0.35105526 0
-0.72177315 0.36212707 -0.35429811 0
-0.69046593 0.34043765 -0.35658866 0
-0.92761612 0.42951179 -0.34881794 0
-0.84386063 0.43354368 -0.35086143 0
-0.7070446 0.45683408 -0.35597825 0
-0.93651009 0.4960413 -0.34861535 0
-0.96809959 -0.47547054 -0.34178919 0
-0.65956116 -0.48033714 -0.35299289 0
-0.49510765 -0.48880172 -0.35957944 0
-0.37472916 -0.45828128 -0.35946673 0
-0.21344185 -0.47374296 -0.36034554 0
-0.04706955 -0.46786332 -0.36035019 0
0.12596703 -0.47181582 -0.35989946 0
0.29827118 -0.47905421 -0.3592481 0
0.5050621 -0.47119784 -0.35600489 0
-0.90525818 -0.38482857 -0.34489131 0
-0.76729965 -0.37240243 -0.35014433 0
-0.61061287 -0.35285449 -0.35649842 0
-0.4927845 -0.3977952 -0.35846883 0
-0.37498474 -0.36233926 -0.35814911 0
-0.1904583 -0.35150242 -0.36085975 0
-0.04066658 -0.38850665 -0.35987562 0
0.14860535 -0.36864233 -0.36066657 0
0.32463074 -0.37087941 -0.36036509 0
0.50989532 -0.40597653 -0.3556127 0
-0.88455391 -0.28824306 -0.3462097 0
-0.76138115 -0.26848412 -0.35017723 0
-0.60240746 -0.25969386 -0.35640472 0
-0.47111702 -0.28075504 -0.35895175 0
-0.35759354 -0.26952672 -0.35872698 0
-0.18700218 -0.27267766 -0.36026555 0
-1.7166138e-05 -0.26633096 -0.36223453 0
0.1601696 -0.27292442 -0.36063832 0
0.3240509 -0.31078863 -0.35963207 0
0.53629112 -0.28255177 -0.35663599 0
-0.98675346 -0.1878829 -0.34240973 0
-0.86818886 -0.17021179 -0.34726447 0
-0.73402977 -0.15339422 -0.35213268 0
-0.58414268 -0.1467309 -0.35685086 0
-0.47013283 -0.18404078 -0.35794902 0
-0.31276131 -0.15394306 -0.36175644 0
-0.18338013 -0.18922448 -0.35978943 0
-0.033447266 -0.19259691 -0.35843062 0
0.00028610229 -0.20956969 -0.36167705 0
0.18725967 -0.16460538 -0.36205047 0
0.34427452 -0.20584989 -0.36049235 0
0.53128242 -0.19189262 -0.35495943 0
-0.85632896 -0.052277088 -0.34814417 0
-0.73039627 -0.040188074 -0.35225254 0
-0.7046814 -0.058866739 -0.35427386 0
-0.59142876 -0.079560995 -0.35555863 0
-0.45673943 -0.066441536 -0.35808289 0
-0.34670639 -0.11115122 -0.35838044 0
-0.17422676 -0.10979414 -0.35996783 0
0.024593353 -0.077369452 -0.3627398 0
0.19807053 -0.087786674 -0.36237609 0
0.34287262 -0.11741471 -0.35966492 0
0.5509758 -0.078026772 -0.3554374 0
-0.84329796 0.022784472 -0.3492474 0
-0.70614052 0.051843405 -0.35442567 0
-0.57374954 0.012987375 -0.35661918 0
-0.44231796 0.02038765 -0.35870707 0
-0.29669571 0.023409605 -0.36199474 0
-0.13826561 0.020822287 -0.36232835 0
0.03486824 0.024022341 -0.36297381 0
0.20374107 0.0059299469 -0.36221153 0
0.3600235 -0.0023374557 -0.36033642 0
0.55961418 0.038285494 -0.35499889 0
-0.70091438 0.15029669 -0.35506314 0
-0.56119919 0.11482048 -0.35791099 0
-0.44956017 0.095215797 -0.35787815 0
-0.30936623 0.11327553 -0.3605516 0
-0.1653347 0.10688448 -0.35961348 0
0.013626099 0.11815739 -0.36066496 0
0.21276474 0.13451624 -0.362306 0
0.35211563 0.085646391 -0.35869437 0
0.54919243 0.096288681 -0.35352081 0
-0.71427155 0.2121973 -0.35419613 0
-0.54858208 0.23097634 -0.35948032 0
-0.43327141 0.21160364 -0.35968435 0
-0.3012886 0.2066834 -0.36140728 0
-0.15410042 0.19902086 -0.36031008 0
0.029430389 0.22612286 -0.36167812 0
0.20989227 0.23049879 -0.36170179 0
0.36395836 0.17162848 -0.35898298 0
0.3807869 0.25124002 -0.35985047 0
0.57546043 0.22932005 -0.35487622 0
-0.6751442 0.29838419 -0.35758978 0
-0.56039047 0.31935453 -0.35920125 0
-0.4262867 0.32648206 -0.36094797 0
-0.2876358 0.29896283 -0.36308616 0
-0.13837242 0.30508065 -0.36185598 0
0.049055099 0.33513188 -0.3631528 0
0.20759583 0.29035711 -0.3611238 0
0.40072441 0.34305573 -0.3609755 0
0.57481956 0.33208275 -0.35417145 0
-0.56707191 0.42105222 -0.35956752 0
-0.41440964 0.44495511 -0.36277229 0
-0.27917099 0.41714883 -0.36453915 0
-0.1410675 0.41822386 -0.36265731 0
0.028219223 0.43987989 -0.36204743 0
0.21566772 0.40446067 -0.36117661 0
0.37129021 0.3766911 -0.3581478 0
0.55681801 0.38237977 -0.35235941 0
0.39404869 0.47655296 -0.35960793 0
0.56760406 0.47164106 -0.35295063 0
0.72956657 -0.37542987 -0.35064405 0
0.95102882 -0.39674616 -0.34382993 0
0.73592186 -0.27202845 -0.3496418 0
0.96840858 -0.27466202 -0.34359157 0
0.7387104 -0.1607089 -0.3483783 0
0.94793701 -0.21659565 -0.34075463 0
0.99898338 -0.10170102 -0.34412801 0
0.76473999 -0.00049328804 -0.34894699 0
0.99379921 0.011026144 -0.34216708 0
0.79090118 0.1414144 -0.34993875 0
0.98599815 0.11780143 -0.33998626 0
0.77588272 0.260957 -0.34760553 0
0.78347397 0.1922977 -0.34881777 0
0.99114609 0.20215297 -0.33944398 0
0.76219749 0.33024049 -0.34572852 0
0.9683876 0.30369806 -0.33622241 0
0.77051163 0.41657758 -0.3457489 0
0.98448372 0.43535113 -0.33645582 0
0.96250916 0.49434829 -0.33396518 0
-0.92896271 -0.4602561 -0.35563356 0
-0.91819382 -0.36707568 -0.35594612 0
-0.75516319 -0.35053205 -0.36208171 0
-0.90591049 -0.28978896 -0.35658622 0
-0.75613022 -0.26984406 -0.36156201 0
-0.86513901 -0.15998912 -0.35954499 0
-0.72559929 -0.16412854 -0.36371046 0
-0.99453545 -0.024703026 -0.35536295 0
-0.85088348 -0.057466507 -0.36045635 0
-0.72506332 -0.086451054 -0.36306936 0
-0.99411201 0.059977055 -0.35532868 0
-0.84046364 0.025481462 -0.36118513 0
-0.69124222 0.017492294 -0.36579913 0
-0.84843445 0.11207557 -0.36048794 0
-0.68598747 0.095817089 -0.36627913 0
-0.67794991 0.16032839 -0.36703044 0
-0.95979118 0.24118543 -0.35822505 0
-0.82347679 0.2401464 -0.36258703 0
-0.66681671 0.24520755 -0.36809707 0
-0.9709034 0.33138704 -0.35753918 0
-0.81740189 0.35094333 -0.36326969 0
-0.65993309 0.33584094 -0.36877233 0
-0.51786995 0.38560486 -0.37048823 0
-0.97038651 0.43855381 -0.35792512 0
-0.82190514 0.45024514 -0.36320174 0
-0.65632629 0.42313218 -0.36924225 0
-0.50802612 0.45065522 -0.37154591 0
-0.77584457 -0.46395564 -0.36101395 0
-0.6016655 -0.45173597 -0.36748517 0
-0.44224739 -0.46084547 -0.37224907 0
-0.28919411 -0.47619581 -0.37090391 0
-0.28312683 -0.41882777 -0.37063819 0
-0.10479546 -0.49932408 -0.37129265 0
-0.080093384 -0.42138004 -0.37250984 0
0.11582565 -0.43999457 -0.37229109 0
0.27733994 -0.42734432 -0.36831379 0
0.32603264 -0.43459201 -0.37309599 0
-0.58790779 -0.3743937 -0.36815852 0
-0.45583725 -0.40079498 -0.37004626 0
-0.2607975 -0.33878994 -0.37165046 0
-0.089553833 -0.37263155 -0.37090057 0
0.11612129 -0.38798046 -0.371562 0
-0.5726757 -0.28449845 -0.36856961 0
-0.43235207 -0.2998035 -0.37093014 0
-0.25647736 -0.27910304 -0.37129724 0
-0.058158875 -0.25668621 -0.37236154 0
0.12607765 -0.28788066 -0.37115371 0
0.31858063 -0.25916743 -0.37005621 0
0.33800125 -0.30424428 -0.37244076 0
-0.56104469 -0.19836569 -0.36853421 0
-0.40383911 -0.16448307 -0.37188601 0
-0.23955154 -0.18042684 -0.3717218 0
-0.043367386 -0.15115333 -0.37250036 0
0.155056 -0.16810608 -0.37240583 0
0.33021736 -0.18525696 -0.3702895 0
-0.56158257 -0.084462404 -0.3671813 0
-0.43312454 -0.11002064 -0.36853808 0
-0.22552299 -0.050507545 -0.37170041 0
-0.045660019 -0.061065912 -0.37136042 0
0.154356 -0.075507402 -0.37132478 0
0.38472939 -0.071195841 -0.37411261 0
-0.53886604 0.033121347 -0.36806691 0
-0.37157631 0.038940668 -0.37265497 0
-0.21950531 0.042530298 -0.37144184 0
-0.0090847015 0.057705879 -0.37358588 0
0.16544151 0.02754426 -0.37131572 0
0.38229561 0.028518915 -0.37281084 0
-0.54375458 0.11503816 -0.36770004 0
-0.37077522 0.15047717 -0.37186438 0
-0.19687653 0.15027642 -0.37266976 0
-0.028989792 0.1300993 -0.37122887 0
0.18116188 0.10977364 -0.37200999 0
0.37200737 0.12064624 -0.37057042 0
-0.52684021 0.23808599 -0.36927861 0
-0.3916378 0.27414775 -0.37033319 0
-0.36405945 0.23649526 -0.37244171 0
-0.18822479 0.25305796 -0.37279767 0
0.0039196014 0.26438046 -0.37322611 0
0.21368217 0.23847175 -0.37391889 0
0.38759804 0.21022749 -0.37086034 0
-0.50313759 0.35019398 -0.37148404 0
-0.34394646 0.37487531 -0.3743701 0
-0.21760941 0.28399253 -0.37058467 0
-0.17846298 0.37670398 -0.3739773 0
0.0028057098 0.33205485 -0.37273532 0
0.18558311 0.31937981 -0.37058169 0
0.39994431 0.32434916 -0.37061346 0
-0.34704399 0.43818235 -0.37435544 0
-0.14938736 0.46409082 -0.37661779 0
0.014474869 0.46031737 -0.37375873 0
0.023946762 0.40890884 -0.37433362 0
0.21902275 0.4214735 -0.37258667 0
0.42405128 0.46334243 -0.37128395 0
0.21064758 0.48256135 -0.37121862 0
0.51738739 -0.49714684 -0.36656898 0
0.99915314 -0.48612571 -0.35158956 0
0.53471184 -0.38020086 -0.366485 0
0.77531242 -0.39194584 -0.3609283 0
0.56094551 -0.25665617 -0.36724782 0
0.78619385 -0.27816463 -0.3599636 0
0.60090065 -0.14937258 -0.36940593 0
0.80443764 -0.18368125 -0.3601588 0
0.57839966 -0.10105801 -0.36645091 0
0.79697418 -0.080029964 -0.35775423 0
0.57766724 0.0052673817 -0.36480927 0
0.81844711 0.054046392 -0.3578127 0
0.61092567 0.14829493 -0.36603683 0
0.81161118 0.12052226 -0.35621101 0
0.6024704 0.22201419 -0.36430913 0
0.81532669 0.20395446 -0.35542601 0
0.61258888 0.33401227 -0.363958 0
0.85069275 0.32261157 -0.357014 0
0.62959099 0.47388148 -0.36404139 0
0.83885765 0.42623806 -0.35432935 0
-0.91749382 -0.43708682 -0.3332116 0
-0.74027061 -0.42778087 -0.33980364 0
-0.86523438 -0.31550455 -0.33715874 0
-0.71057129 -0.35577083 -0.34203511 0
-0.87569809 -0.2521646 -0.33602631 0
-0.72191429 -0.26609588 -0.34070712 0
-0.70644951 -0.29619455 -0.34213597 0
-0.85611343 -0.13138533 -0.33734322 0
-0.69462204 -0.15898442 -0.34269679 0
-0.99183846 -0.032420158 -0.33333969 0
-0.83548546 -0.038971186 -0.33888149 0
-0.68908501 -0.048793077 -0.34252805 0
-0.9818821 0.075987816 -0.33407152 0
-0.83592987 0.062442541 -0.33874053 0
-0.660532 0.063544035 -0.34481502 0
-0.98282623 0.15629458 -0.33399904 0
-0.83136368 0.17466116 -0.33908761 0
-0.6526432 0.15416002 -0.34556866 0
-0.9751358 0.2656467 -0.33471471 0
-0.82421875 0.26412034 -0.33972335 0
-0.65293503 0.26358104 -0.34572202 0
-0.97530365 0.37084484 -0.33488226 0
-0.82812691 0.395118 -0.33959627 0
-0.78250313 0.38625145 -0.34323561 0
-0.63275337 0.37100482 -0.34744626 0
-0.9511261 0.47245407 -0.33704871 0
-0.80990982 0.47638607 -0.3412255 0
-0.62799072 0.46219349 -0.34795475 0
-0.55703735 -0.43233848 -0.34614062 0
-0.37218857 -0.42451835 -0.35086179 0
-0.199646 -0.44382024 -0.34950185 0
0.030252457 -0.45015645 -0.35182565 0
-0.52410698 -0.32013464 -0.34827358 0
-0.34566116 -0.31568146 -0.35212219 0
-0.18162727 -0.36599922 -0.35031641 0
0.021238327 -0.39127207 -0.35030657 0
-0.54701233 -0.28389263 -0.34569895 0
-0.35707474 -0.23844814 -0.35029644 0
-0.17012787 -0.25745606 -0.35025781 0
0.049388885 -0.26498199 -0.3515867 0
-0.52958679 -0.18042874 -0.34618175 0
-0.37598801 -0.168859 -0.34793401 0
-0.16804123 -0.16508412 -0.34957302 0
0.047409058 -0.13959837 -0.35018772 0
-0.50773239 -0.077273369 -0.34713674 0
-0.32435989 -0.060240269 -0.35168594 0
-0.14837837 -0.082274199 -0.35062861 0
0.065256119 -0.02356267 -0.35078251 0
-0.48952293 0.02862668 -0.34781182 0
-0.31766129 0.039837599 -0.35151696 0
-0.13778114 0.019295454 -0.35077626 0
0.087558746 0.063857555 -0.35207862 0
-0.47138596 0.16749167 -0.34897041 0
-0.29632378 0.15787268 -0.352476 0
-0.13417816 0.1304698 -0.35029697 0
0.086502075 0.12964177 -0.35148126 0
-0.48341751 0.23832846 -0.34810692 0
-0.30458832 0.26672602 -0.35156286 0
-0.29792976 0.220263 -0.35205328 0
-0.11196899 0.23905683 -0.3515678 0
0.093366623 0.24275279 -0.35129422 0
-0.46051407 0.34784389 -0.35018492 0
-0.2660923 0.36957097 -0.35482568 0
-0.096082687 0.35271549 -0.35258269 0
0.10623741 0.36043119 -0.35168308 0
-0.46855164 0.4311161 -0.34980112 0
-0.29014397 0.43690419 -0.35306257 0
-0.091619492 0.46031117 -0.35326046 0
0.11511612 0.43417239 -0.3520416 0
0.237957 -0.46422362 -0.35000437 0
0.44949341 -0.46990609 -0.34728891 0
0.72432709 -0.43443346 -0.34418923 0
0.27153397 -0.32773829 -0.35161746 0
0.48992538 -0.32758069 -0.34954983 0
0.73697281 -0.33102584 -0.34392101 0
0.26294327 -0.27416754 -0.35025012 0
0.48080444 -0.26599002 -0.34809506 0
0.73384666 -0.26525307 -0.34268767 0
0.28525734 -0.18293166 -0.35138452 0
0.52364349 -0.14866352 -0.35092586 0
0.74838829 -0.17953372 -0.34290171 0
0.30919075 -0.053412914 -0.35234785 0
0.51176262 -0.091482162 -0.3491807 0
0.72948456 -0.11107469 -0.34015882 0
0.32278824 0.05819869 -0.35259074 0
0.51870728 0.029963732 -0.34831542 0
0.77408409 0.0045354366 -0.34291285 0
0.32159996 0.13426614 -0.35184938 0
0.5280323 0.15654421 -0.34767979 0
0.76631165 0.11979365 -0.34069705 0
0.31767654 0.20844531 -0.35060322 0
0.55616951 0.25606537 -0.34918523 0
0.76275826 0.23894286 -0.33889192 0
0.35429955 0.3538034 -0.35232049 0
0.51962662 0.30624533 -0.3452183 0
0.75745964 0.30664825 -0.33758825 0
0.35768127 0.46990967 -0.3513245 0
0.5505085 0.3996191 -0.34709704 0
0.75184631 0.38482666 -0.33603126 0
0.56345558 0.49921703 -0.34727889 0
0.77861977 0.4956069 -0.33705318 0
0.97764587 -0.46599817 -0.33573234 0
0.97105408 -0.38413382 -0.33389628 0
0.99338531 -0.28779626 -0.33467793 0
0.98623657 -0.20586538 -0.3328287 0
0.99180031 -0.042217493 -0.33110434 0
0.99357033 0.053234339 -0.32981741 0
-0.94704437 0.027680397 -0.34647548 0
-0.91900826 0.12950444 -0.34805685 0
-0.914608 0.20441103 -0.34781492 0
-0.85623741 0.33267951 -0.35206532 0
-0.85153198 0.41416216 -0.35196245 0
-0.70287514 0.41511369 -0.3561359 0
-0.97141838 -0.47989726 -0.34163487 0
-0.75896072 -0.48848414 -0.35019171 0
-0.53726578 -0.48835206 -0.35814971 0
-0.31589699 -0.47742438 -0.36108685 0
-0.13432884 -0.49868631 -0.36033219 0
-0.90468597 -0.3602035 -0.34613311 0
-0.71714211 -0.39251375 -0.35255879 0
-0.47646141 -0.36414909 -0.36134297 0
-0.28594017 -0.39100718 -0.36168176 0
-0.081932068 -0.39784384 -0.36295921 0
-0.85489845 -0.25362945 -0.34925771 0
-0.68008232 -0.29094839 -0.35443485 0
-0.4648838 -0.2787199 -0.36015725 0
-0.26586533 -0.30244184 -0.3611849 0
-0.067947388 -0.30304217 -0.36146468 0
-0.83215141 -0.16458058 -0.35013044 0
-0.66634941 -0.21110439 -0.35427392 0
-0.42912483 -0.16791773 -0.36101973 0
-0.23477554 -0.19079685 -0.36134422 0
-0.024438858 -0.1788466 -0.3625105 0
-0.97275543 -0.058811426 -0.3450495 0
-0.81602859 -0.059464693 -0.35027629 0
-0.61445045 -0.059988022 -0.35606366 0
-0.40625954 -0.068465948 -0.36092842 0
-0.19726181 -0.076166868 -0.36226696 0
0.00021362305 -0.094575882 -0.36277074 0
-0.76640129 0.055585623 -0.35354757 0
-0.58306503 0.044886589 -0.35719091 0
-0.36598396 0.050122738 -0.36231655 0
-0.16411781 0.039317369 -0.36280686 0
0.023815155 0.0079090595 -0.36248076 0
-0.75775337 0.10424614 -0.35382378 0
-0.57854843 0.09774065 -0.35692662 0
-0.36197281 0.11204267 -0.36131585 0
-0.18033218 0.084523201 -0.35995597 0
0.037818909 0.10653543 -0.36135495 0
-0.73328209 0.20828176 -0.35504735 0
-0.54966927 0.17548823 -0.35869575 0
-0.51718712 0.25862527 -0.36078346 0
-0.35368538 0.20209599 -0.36061579 0
-0.13468361 0.21235442 -0.36176336 0
0.07554245 0.20896339 -0.36278427 0
-0.71144676 0.32794189 -0.35600841 0
